# .PCD v0.7 - Point Cloud Data file format
VERSION 0.7
FIELDS x y z intensity
SIZE 4 4 4 4
TYPE F F F F
COUNT 1 1 1 1
WIDTH 1221
HEIGHT 1
VIEWPOINT 0 0 0 1 0 0 0
POINTS 1221
DATA ascii
1.4698756 1.1425288 1.7307873 22.105499
1.7731757 1.1291821 1.7501426 18.549999
1.8486341 1.1676737 1.748709 19.289106
1.9460919 1.1525447 1.7590543 17.098249
-1.9743266 1.2673358 1.7634654 20.01325
-1.8562651 1.2443191 1.7593054 22.261889
-1.7662306 1.2377214 1.7533841 21.37467
1.7996278 1.2270724 1.7883519 19.1
1.8493624 1.2388299 1.7661408 19.166542
1.9291487 1.2447968 1.7193308 16.5
2.0540409 1.271263 1.7464519 17.776499
2.2441251 1.2565625 1.7524625 17.1115
-1.9588141 1.3264267 1.7789423 21.01325
-1.7394816 1.3632593 1.7712798 22.28161
-1.6675675 1.3096548 1.7046336 20.057501
1.8681788 1.3288404 1.7569059 19.513485
1.9530234 1.3365105 1.744401 19.372545
2.071444 1.3410172 1.7382243 18.61525
-1.7307503 1.4358604 1.7143486 23.032749
1.8639355 1.4661949 1.766148 19
1.9149224 1.4499534 1.7588434 20.777
2.0482342 1.4174873 1.7468073 19.358002
2.1198201 1.4769745 1.7041345 19.118
1.8882538 1.519352 1.7269638 22.104
1.9786897 1.5811841 1.7866454 21.550375
2.034766 1.5484793 1.7800694 20.601999
1.9572328 1.620999 1.7413187 21.406334
2.060343 1.6459501 1.7408959 22.550625
2.1199307 1.667637 1.7483559 21.134499
1.8608454 1.726845 1.7437296 22.115999
2.080241 1.7167406 1.7436297 22.351749
2.166337 1.7153997 1.7305768 21.908001
1.8925364 1.8271668 1.7686439 21.6175
1.9239914 1.8441731 1.7590592 23.113001
2.1253963 1.8241458 1.7480727 22.106668
2.0874612 1.92477 1.7530106 23.118
2.1292472 1.9031235 1.7407091 23.110001
-9.206748 2.7595191 1.7541163 11.0245
-4.2333374 2.8872955 1.7561136 21.013
-6.4711866 3.0736535 1.7481412 16.0235
-6.1724763 3.064831 1.7677448 17.024
-5.2429447 3.0297203 1.760623 19.023001
-5.0078273 3.061516 1.7897941 20.0245
-4.1991844 3.0364904 1.7826772 22.013
-4.0053434 3.0797615 1.7906771 23.012501
-8.4096737 3.1033049 1.7777612 13.0245
-7.7903757 3.1239681 1.7189052 14.025
-7.5411077 3.136353 1.7039274 14.037
-6.4100599 3.1168029 1.7462516 16.025499
1.0994459 -0.13130794 1.8956594 2
1.1730952 -0.10264279 1.8346174 2
-1.2047606 -0.010338131 1.852711 1.6666666
-0.59924644 -0.027535208 1.8353181 2
-0.058562905 -0.0052421922 1.8606367 3
0.12810552 -0.045185108 1.8623449 1.6666666
0.29193437 -0.099013984 1.8036745 0
1.3489544 -0.063255951 1.8594337 2.5
1.714242 -0.012904186 1.8525417 4.25
1.6467668 0.085054636 1.8690135 4
1.7302842 0.057209738 1.812886 4.5
1.5586462 0.1196036 1.8389728 6
1.65984 0.13536437 1.8273338 4.5
1.7307162 0.13194083 1.8322102 5.3055553
-1.7343912 0.2674945 1.8803614 8.0354996
1.5355451 0.23426968 1.8701055 8.1040001
1.6956224 0.2473418 1.8010101 8.1145
1.7000251 0.20990294 1.8386519 6.6666665
-2.0240312 0.3724401 1.8239452 8.0174999
-1.945924 0.3748498 1.8575461 8.0524998
-1.8124014 0.35568616 1.8492596 8.5434999
-1.7376368 0.34424275 1.8410858 8.7799377
-1.6752226 0.34688288 1.8231137 9.5372505
1.7483834 0.37065849 1.8539296 8.8025837
-1.8444346 0.44219497 1.8761463 8.0567493
-1.7517515 0.45906535 1.8635976 11.633501
-1.6915535 0.45150948 1.8641702 12.027594
1.4543494 0.42404148 1.8366563 10.6135
1.7475517 0.43887654 1.8450642 9.5862722
1.8045202 0.43377957 1.8644708 10.109
-2.1201577 0.53026575 1.8727617 9.0109997
-2.0626678 0.51660532 1.8570206 9.0105
-1.970553 0.55313522 1.8283229 10.012
-1.8396239 0.56513184 1.8310366 11.044001
-1.7343736 0.54755956 1.8773689 13.92414
-1.6701357 0.57379377 1.8408501 15.063817
1.4198334 0.57601029 1.8163803 12.114
1.7499661 0.561041 1.8552543 11.425667
1.8343848 0.53367138 1.8404007 10.097626
-2.1178927 0.64080858 1.8336725 11.012875
-2.0182486 0.66860878 1.8941778 13.01825
-1.9678735 0.66405958 1.8430687 13.040584
-1.8634524 0.65595984 1.8727821 12.0345
-1.7435039 0.64202911 1.8585855 15.344238
1.7378924 0.6461125 1.8607458 12.1812
1.8265553 0.63459784 1.8184446 10.845889
2.1846333 0.66357332 1.8925433 11.113
-2.0015452 0.73949355 1.8603011 12.0125
-1.9445021 0.7540139 1.8307507 12.505751
-1.8234631 0.74407846 1.887261 13.868167
-1.7464095 0.75087112 1.8497678 17.367926
-1.6511688 0.74870211 1.8554693 19.196833
1.3606644 0.74607366 1.8748724 15.114
1.4240031 0.70611972 1.8250506 14.114
1.6480328 0.72187829 1.8825343 14.1095
1.756041 0.73033237 1.8593941 13.685417
1.8070726 0.72593665 1.8255833 12.097
-1.9607178 0.83435971 1.8621992 14.525584
-1.8409191 0.85129833 1.8516916 16.028
-1.7356439 0.85036939 1.8623006 18.781313
-1.6601864 0.87672329 1.8541269 20.861418
1.7658587 0.86309844 1.8662128 15.35088
1.8221051 0.85554296 1.8481784 15.607333
-1.9612356 0.9706021 1.8288738 17.015333
-1.8081651 0.9411394 1.8857958 19.0495
-1.7378494 0.94579792 1.8505567 20.490833
-1.6540405 0.94713897 1.8268719 23.03364
1.4676981 0.97741473 1.8550267 17.11375
1.7530465 0.92770886 1.8488941 15.5495
1.8537778 0.93711603 1.858328 14.943925
-2.0303125 1.0110586 1.8392133 18.015999
-1.9239221 1.0630213 1.8517381 18.77375
-1.8303173 1.0546218 1.8571497 18.471249
-1.7649794 1.0636863 1.8603401 21.786875
-1.6755564 1.0751964 1.8447547 20.011499
1.7746662 1.0323173 1.8579358 17.740057
1.8223673 1.0378879 1.8491319 16.903833
1.9332023 1.0400009 1.82769 15.103875
2.0004373 1.0777485 1.8454952 17.108999
-3.5955713 1.1359582 1.8740561 11.51175
-2.113153 1.1563811 1.8518836 18.5
-2.0825927 1.1341478 1.8435063 19.258999
-1.9129974 1.1150404 1.8816409 20.015501
-1.8625432 1.1301605 1.8695737 21.050333
-1.7815149 1.1256092 1.8363835 22.282375
1.7686888 1.1632553 1.8540388 19.403666
1.8556799 1.1403315 1.830229 17.29875
1.9820832 1.1844344 1.8174125 16.091
2.041995 1.1557093 1.8396089 16.615501
-2.055963 1.2623987 1.8857882 20
-1.9422271 1.2354257 1.8217101 22.01675
-1.7815908 1.2225119 1.8557664 21.910471
1.7748175 1.2253919 1.8769318 19.911518
1.8456568 1.2640544 1.8703957 20.053366
1.9454006 1.2369266 1.8287065 17.934666
2.0174539 1.2115293 1.809786 18.1145
2.2109509 1.2242289 1.8377749 17.111
-2.0328288 1.354582 1.8418107 21.014374
-1.8191803 1.3639296 1.8202868 23.032375
-1.748965 1.3334655 1.8584901 21.153
1.7793078 1.3819432 1.863185 21.403666
1.8186677 1.3275499 1.8270001 20.755875
1.9335357 1.3606914 1.8525791 19.076334
2.0251019 1.3177197 1.8459187 18.117001
-1.8716199 1.4275844 1.828758 23.013
-1.7062745 1.457958 1.8249651 23.05575
-1.5994537 1.4720001 1.8350359 23.009001
1.7678835 1.428334 1.8881261 22.1085
1.854425 1.4256363 1.8516649 21.173624
1.9660788 1.4211674 1.8040823 19.737583
2.03141 1.4563857 1.8641983 18.091
-2.0357218 1.5213187 1.8041333 23.014
1.8938844 1.5205259 1.8980994 20.116501
1.9452047 1.5609115 1.8637034 21.4475
2.0361023 1.551719 1.8302114 20.06295
1.8922795 1.6005582 1.8420229 23.103001
1.9002881 1.6357588 1.8968903 22.5
2.0500312 1.6546389 1.8440316 22.502552
1.8978167 1.7907333 1.8361169 23.112499
2.0624833 1.7367601 1.8634363 22.231125
2.1434276 1.7497003 1.8312428 21.860374
1.9342322 1.8043503 1.886284 23.112
2.0826902 1.8259287 1.847186 22.605938
2.1075926 1.8605667 1.8019177 23.109501
2.0581155 1.9330511 1.8358576 22.854374
-2.9043243 2.2606206 1.856757 23.008499
-7.470654 2.9663703 1.8628782 14.0265
-6.5578504 3.0541639 1.8129897 16.0245
-4.9311938 3.0189912 1.8946341 20.025
-4.4780402 3.053766 1.8383405 21.014
-4.0305324 3.0922222 1.8770745 23.013
-7.7812529 3.1023986 1.8776993 14.0255
-7.0962491 3.1776366 1.8195081 15.013
-6.4789209 3.1158206 1.8728384 16.025999
0.94950306 -0.11676335 1.9259608 0.2
-0.26654589 -0.0028271165 1.9150093 3
0.52391887 -0.059272841 1.9834442 2
1.2540917 -0.075759217 1.9242347 2
1.6285598 -0.0068408027 1.9730229 2
-0.81987774 0.0067479424 1.9733028 2
-0.26551104 0.059919022 1.9638389 4
1.5845488 0.038849581 1.9682628 4
1.6447967 0.07125742 1.9996226 5
1.6543626 0.1581278 1.9532298 5.8896103
1.347891 0.27999845 1.9317065 9.1025
1.6797012 0.23973484 1.9543015 7.4072495
-2.1349692 0.38646978 1.9717231 8.0200005
-2.0890348 0.38273007 1.9309319 8.0192499
-1.9662395 0.36403844 1.9349581 8.0299177
-1.8134952 0.36611372 1.9447248 8.9049997
-1.7614305 0.37166762 1.9365013 8.9052753
1.5909179 0.34851795 1.9565156 9.6087494
1.6501157 0.36575964 1.970275 9.0922861
1.7197537 0.35450542 1.9090121 8.8559999
-2.1507118 0.41049397 1.91535 8.0159998
-2.0072682 0.42436135 1.962229 8.0107498
-1.9525481 0.44306388 1.9476547 9.3595009
-1.8615942 0.46431646 1.9401261 9.967
-1.7797419 0.42579943 1.96512 10.616155
1.3357968 0.42376637 1.988403 11
1.6578048 0.45064592 1.9398474 9.3803997
1.7291796 0.45984024 1.93756 9.9108553
-2.0379009 0.5253638 1.9414883 10.349584
-1.9668452 0.52463204 1.9670424 10.7075
-1.8396975 0.56400961 1.9667609 12.466867
-1.7429638 0.54782975 1.9514902 13.775961
-1.6840787 0.56851101 1.9364002 13.0125
0.27997786 0.55585289 1.9468241 12.1205
1.319441 0.56312466 1.9832909 12.613
1.5728027 0.56908834 1.9988679 12.1085
1.6845547 0.52819306 1.9616699 10.921417
1.7370405 0.55267721 1.9589138 11.22007
-2.1798398 0.63782686 1.9491222 12.0165
-2.0614312 0.6767894 1.9538578 12.26525
-1.9543884 0.66433054 1.9596181 12.77425
-1.845032 0.64431983 1.9674488 13.268167
-1.7515856 0.66721243 1.9696453 17.034063
1.6626356 0.64855391 1.911381 12.60375
1.7241648 0.63903552 1.9543442 12.591429
1.8044251 0.68125933 1.9614196 11.089
-2.2843196 0.71654844 1.9403229 11.0125
-2.0144596 0.79267651 1.9152055 13.25
-1.9594029 0.78259695 1.9797914 14.0535
-1.8510627 0.73811024 1.9658724 14.537179
-1.752248 0.74855477 1.9639547 16.768749
1.6720241 0.72853971 1.9481833 13.9058
1.7396952 0.74666655 1.9465674 13.856718
-3.6391006 0.8254835 1.963828 9.0124998
-1.9833395 0.88942873 1.9739952 16.053249
-1.8362902 0.86533928 1.941661 17.040335
-1.7453936 0.84527165 1.9509084 21.536499
-1.6759441 0.80737054 1.9085019 22.0355
1.7334518 0.84714764 1.9449607 15.092251
1.8388336 0.83183986 1.9203818 12.0895
-2.0373416 0.93755376 1.9560174 16.592834
-1.9365747 0.95099401 1.9625107 17.03265
-1.8281684 0.95425206 1.9615263 19.519915
-1.7596939 0.96066916 1.9470819 21.545933
0.53883749 0.96001899 1.9586138 17.1185
1.4163539 0.96141982 1.9654602 18.113001
1.681402 0.95096457 1.9556983 16.599499
1.7268962 0.9303565 1.9674014 15.913823
-2.1466701 1.0558611 1.9827164 18.0165
-2.0580485 1.0585198 1.9346163 18.76725
-1.940817 1.0272769 1.9382397 19.359833
-1.8331162 1.0650371 1.9609399 21.691336
1.3615913 1.0835257 1.9944477 21.101999
1.6719805 1.0494648 1.9461339 18.101
1.7497934 1.0449371 1.9390346 17.7355
1.8201578 1.0268184 1.9453409 16.1035
1.917403 1.0908459 1.9049267 15
-2.1236162 1.15079 1.9390533 19.509876
-2.0926528 1.1070766 1.9908123 19.016251
-1.9361155 1.1270195 1.9489355 19.518002
-1.8069813 1.1311642 1.9367386 20.258499
-1.7638979 1.1546037 1.9662781 22.0135
1.695555 1.1538285 1.9766924 18.604126
1.7395175 1.1689113 1.9572837 19.194683
1.8337135 1.1535141 1.9461027 18.104752
-2.142736 1.2376751 1.9892232 20.0165
-2.0449064 1.2803679 1.9299749 21.3395
-1.9716135 1.2518908 1.951578 20.348083
-1.8647497 1.2533783 1.9609191 21.324001
1.7633507 1.2646263 1.9491476 20.185398
1.8324624 1.2541395 1.9605969 18.403084
1.9183586 1.256011 1.945556 17.54265
-2.0765195 1.3388118 1.9499117 22.016832
-1.9819703 1.3546321 1.9873317 21.514374
-1.8669775 1.3376369 1.9369946 23.051498
-1.5802807 1.3822598 1.9588397 23.00975
1.753336 1.3379334 1.9551022 20.8039
1.8557724 1.3399066 1.9439039 19.386251
1.9282305 1.3203837 1.9305773 18.602749
-1.8621724 1.4826365 1.9223908 22.011875
1.7528756 1.4626747 1.9610218 23
1.8755354 1.4308857 1.9247327 19.106501
1.9703288 1.4478506 1.9765922 19.601625
2.0253921 1.471738 1.93099 18.0905
-2.0837924 1.5098659 1.9041288 23.015249
-1.7668796 1.5720161 1.9734645 23.056499
-1.589263 1.5494231 1.9821668 23.0075
1.8704474 1.5775464 1.9233868 22.099251
1.9508232 1.533066 1.9527934 20.701649
1.8735925 1.6501582 1.946964 21.88271
1.9373184 1.6608161 1.938949 22.675394
2.0355549 1.6726897 1.9208441 21.099499
1.8694677 1.7292784 1.9386919 21.5
1.9813055 1.7090874 1.9787452 20
2.0118115 1.7477301 1.9418634 21.937002
1.8223314 1.8874543 1.9911873 23
1.9936672 1.8021768 1.9926354 21.09
2.0442059 1.8144218 1.9372964 22.1035
2.016711 1.9577746 1.9297156 23.102249
1.965808 2.0205383 1.9577909 23.09
-2.9488461 2.2922218 1.9396465 23.009251
-6.4149075 3.0580869 1.97834 16.03125
-6.0555701 3.0345838 1.9268628 17.025999
-5.1993709 3.0388999 1.9584717 19.025499
-4.3127074 3.0597904 1.9073625 22.014
-8.7038622 3.1199942 1.9123087 12.0245
-7.7104244 3.1284268 1.9630258 14.0315
-6.708374 3.1049712 1.9474022 16.013
-4.0536122 3.1054039 1.9495161 23.0135
-7.8490067 3.3008356 1.9249758 14.024
1.244179 -0.11264323 2.0737915 2
-1.515164 -0.018198933 2.0901279 2
-0.70089817 -0.041592214 2.0652645 1.25
-0.21895191 -0.06207823 2.0876782 0
0.15540639 -0.075407252 2.045475 0
1.1157372 -0.09429159 2.0603144 2
0.23600918 0.024677657 2.0213032 3
1.5206401 0.035880279 2.0751946 3
1.6665056 0.048774529 2.0161185 4.5
1.7290126 0.014035818 2.0137308 4
1.5835884 0.1520476 2.0418091 4.7857141
1.6342186 0.1289234 2.0466058 5
1.5873269 0.27355385 2.0717027 7.5361667
1.6215383 0.26250061 2.0701964 7.7408333
1.789607 0.28447834 2.0116575 8.1105003
-8.0686483 0.31117028 2.0409789 2
-2.0520182 0.37111095 2.059427 8.0306664
-1.8539474 0.36011836 2.0273144 8.0991802
-1.7893934 0.35384065 2.0461757 9.0255833
1.2080204 0.32581261 2.045017 10.1005
1.3671542 0.35382712 2.0516193 10.056
1.5776906 0.35304344 2.0482008 9.239583
1.633267 0.36904106 2.0586174 9.3691664
1.782033 0.36935788 2.0552733 8.0550003
-2.0132253 0.49462384 2.0939651 11.017
-1.9635632 0.46089283 2.0454159 9.4355497
-1.8394679 0.4423981 2.0615489 11.029222
-1.7842897 0.44643411 2.0391629 11.023687
1.3311663 0.45676899 2.0741675 11.5
1.5586853 0.43660796 2.0861812 10.607124
1.6575017 0.4607656 2.0654747 10.705375
1.7102892 0.47049576 2.0038297 10.10975
-2.1048815 0.50884557 2.0138586 9.0144997
-2.0443907 0.53614914 2.0155859 11.02
-1.9809878 0.59316736 2.0184374 10.532499
-1.8668246 0.57418549 2.0194085 13.044624
-1.7997742 0.53231889 2.0545449 14.538875
0.43723065 0.52999228 2.0049868 11.11875
1.318445 0.53289151 2.0513778 12.431
1.4819382 0.5309217 2.0514493 12.0765
1.6448455 0.56600064 2.0438988 11.744884
1.7068298 0.53474367 2.0647769 11.10625
1.8054296 0.58010781 2.0515764 9.0885
-2.1616573 0.67973793 2.0894589 12.0155
-2.0868859 0.6856128 2.0255005 13.017375
-1.9352258 0.65494078 2.0551717 13.450429
-1.8370876 0.67106849 2.0296268 15.531124
-1.7747705 0.66463578 2.042134 17.0355
1.4906347 0.64103079 2.035825 13.115
1.6503468 0.65328765 2.0480618 12.702063
1.7934879 0.67172456 2.0452964 10.0885
-2.1311805 0.74559027 2.0354307 12.3415
-2.0921934 0.76836705 2.0487409 13.257375
-1.9349705 0.73582345 2.0459011 13.9373
-1.829538 0.74157077 2.0607679 17.143835
-1.7537048 0.78276122 2.0643666 20.13575
1.2954717 0.72471517 2.0992808 15.862124
1.3042543 0.72777206 2.0078478 15.113
1.4913387 0.74361598 2.0679274 15.11475
1.5856266 0.71368378 2.0221422 14.5
1.6715914 0.74496698 2.0429559 14.028832
1.8232449 0.7383287 2.0685499 11
-2.1308975 0.86681151 2.0696273 16.021
-1.933643 0.87467378 2.0336571 16.681915
-1.8399689 0.83758259 2.0009513 13.5
0.31403571 0.87792969 2.0284183 17.120001
1.5228547 0.8432011 2.033114 16.115
1.6758593 0.83686596 2.0342669 14.853937
1.7091014 0.8341319 2.0390494 15
1.8362049 0.85153782 2.0046387 12.089
-2.5734735 0.92724586 2.0476251 14.0225
-2.122745 0.91640854 2.0352635 17.0205
-2.0589375 0.94371879 2.0611124 16.6777
-1.9550337 0.95381677 2.0547397 16.836651
-1.8376341 0.95797402 2.0535245 21.668066
-1.7953918 0.93495321 2.0470781 22.032499
0.32587516 0.97289503 2.0618522 18.119751
1.3841915 0.94899499 2.036063 18.112499
1.4773548 0.94637275 2.0976813 18.1115
1.5254755 0.9786911 2.0225976 18.112
1.6805506 0.95170575 2.0464904 16.905708
1.7530479 0.9715187 2.0275035 16.707125
1.819959 0.94503719 2.0883648 13.5
-2.1612632 1.0778327 2.0613713 18.267376
-2.016839 1.0636817 2.0748687 17.013
-1.9486152 1.0547585 2.0469253 18.862457
-1.8453271 1.0408784 2.045222 22.1376
-1.7781239 1.0076557 2.0831814 23.032999
0.29291922 1.0653392 2.0819621 19.120001
1.3300648 1.0687993 2.0459576 21.10125
1.6635344 1.0421511 2.0439553 17.728249
1.7700535 1.0363787 2.0296173 16.06625
1.8457755 1.0630317 2.0544448 15.870999
-2.1487803 1.1302813 2.0290151 20.0205
-2.0027521 1.1941533 2.0598814 22.047501
-1.9388713 1.1345943 2.025286 20.282562
-1.8272328 1.1687899 2.0101871 22.0145
-1.752968 1.1039767 2.0378528 19.011999
1.2852061 1.1338062 2.0925035 22.1005
1.4459612 1.1595538 2.0201669 20.112499
1.6775128 1.1499132 2.0407231 19.405375
1.7239685 1.1659997 2.0566726 19.578312
1.8454591 1.1239182 2.0951843 15.0885
-2.0461149 1.2615228 2.0607333 21.367201
-1.9268522 1.2186801 2.0652666 20.552502
-1.8689523 1.2525033 2.0815885 20.259501
1.6808723 1.2605547 2.0501688 20.605417
1.7397735 1.2653157 2.0314257 20.304852
1.8830659 1.2652447 2.0363071 17.848499
-2.0190012 1.3955021 2.0960653 21.0145
-1.9428426 1.3523248 2.0595129 22.0215
-1.8615872 1.3965815 2.0205352 23.054251
-1.7655754 1.3563666 2.0667124 21.534624
-1.6846203 1.3371871 2.0525279 23.011499
1.6878754 1.3093982 2.0619411 20.0485
1.7567064 1.3326461 2.0526826 21.439917
1.8172562 1.35738 2.0433981 18
-1.669947 1.4178593 2.0084682 23.011
1.6781074 1.4489427 2.0488052 22.60825
1.755408 1.438887 2.0868809 22.106501
1.8534584 1.4656646 2.0577588 20.048374
-1.9641309 1.5009553 2.0842757 23.014
1.7408814 1.509198 2.0635188 23.104876
1.8468949 1.5644029 2.0289967 22.272751
1.95226 1.5393603 2.0252247 20.802
1.8346437 1.6428512 2.0552971 22.572001
1.9325994 1.6482471 2.0479596 21.978687
1.8332596 1.7028468 2.0384562 22.115999
1.9383497 1.7774144 2.0813432 21.548
1.8152781 1.8832755 2.0183451 23
1.9187649 1.802223 2.0950646 21.089001
2.0344424 1.8772192 2.0122902 23.113501
1.8982416 2.0648272 2.0672333 23.089001
1.9328243 2.0758095 2.0132177 23.0895
-3.0481865 2.230406 2.0233064 23.01025
-7.4935279 2.9601576 2.0189991 14.027
-4.0382137 2.9651031 2.0975485 22.009001
-7.7311287 3.0751934 2.0761967 14.02575
-7.1583014 3.0546699 2.0357258 15.025
-7.0826206 3.054337 2.044584 15.038
-6.8678451 3.0744278 2.0347924 15.0255
-6.4837241 3.0405986 2.0382848 16.0245
-6.1517429 3.0247192 2.0360534 17.026501
-6.0409684 3.0889776 2.0136395 17.0375
-5.9450932 3.0442867 2.0420942 17.024
-5.8320065 3.0330563 2.0826616 18.026501
-5.2059131 3.048558 2.0519481 19.025999
-5.1683145 3.014189 2.001972 19.023001
-4.829401 3.0677907 2.096664 21.016001
-4.65839 3.0153019 2.0557332 21.037001
-4.1301084 3.074223 2.011363 23.014
-8.0425291 3.1056376 2.0486243 13.0245
-7.0115242 3.1482608 2.010215 15.0135
-6.5121112 3.1102629 2.0061216 16.026501
0.85436773 -0.14124069 2.130403 0
0.9774636 -0.1408561 2.1345038 0.33333334
1.1898241 -0.12856796 2.1608005 2
-1.3653212 -0.014369952 2.1942146 2
-1.1916146 -0.037834913 2.1781011 1.5
-0.66369224 -0.037636772 2.197521 1
0.48700023 -0.043247659 2.132005 3
0.56708109 -0.030671623 2.180877 2
1.1449122 -0.072019435 2.1383257 2
1.2154517 -0.080540963 2.1215291 1
1.3145854 -0.011511564 2.18803 4.5
-1.9551982 0.092212044 2.178503 4
-1.5175331 0.098662645 2.1560774 3
-1.4079943 0.017847745 2.1942356 2
-1.2111092 0.016825028 2.1897979 2
-0.53324932 0.05444023 2.1762161 3
1.3342675 0.089731485 2.1875896 6
-1.4201332 0.10633309 2.1175566 3
1.5620807 0.14163728 2.1926417 6.75
1.6313535 0.10992032 2.1412764 5.4545455
1.7475392 0.13512297 2.1171148 4
-1.9800525 0.23031628 2.1862524 5.8000002
-0.47441819 0.20826888 2.176523 9.0734997
0.5319435 0.27483934 2.1056931 8.1169996
1.493705 0.26794595 2.1865323 8
1.5633161 0.26073948 2.1636372 7.7624002
1.6252183 0.24278986 2.1674883 8.1064997
1.723579 0.25907648 2.1754544 5.4444447
-2.1221349 0.39998168 2.1185505 8.5179996
-2.032042 0.36604661 2.1663613 7.9040627
-1.9342083 0.38136896 2.1387455 8.7005835
-1.8453087 0.34610406 2.1291926 9.0421667
0.57524222 0.32567385 2.1992807 9.1160002
1.3732319 0.32837987 2.1432858 10.111
1.4626182 0.3686097 2.1673036 10.107
1.5702257 0.3423309 2.1372049 8.8838053
1.6144282 0.31895533 2.1006522 9.1020002
-2.1578352 0.40444505 2.1458814 8.5185003
-2.0775869 0.492165 2.1767132 10.04925
-1.9391943 0.42784455 2.1584203 9.7039499
-1.8520269 0.44242457 2.1404455 11.114417
1.4999816 0.41920799 2.1756473 11.1135
1.5495297 0.43986925 2.1667631 9.9854584
1.6268594 0.43701476 2.1744044 9.2981253
-2.0256488 0.53883922 2.1287127 10.858979
-1.9950104 0.54774535 2.1557982 11.045376
-1.823714 0.50050354 2.1613758 12.4352
-1.5010747 0.54971981 2.1664336 19.0415
1.5421726 0.56631356 2.143544 12.203
1.6525177 0.55384934 2.1384635 11.785466
1.7610129 0.53444475 2.1074262 8.666667
-2.0226343 0.6421603 2.1396689 12.452375
-1.9550749 0.63647264 2.1387646 13.09078
-1.8488578 0.64622313 2.1523638 16.183636
-1.798147 0.60231853 2.1095204 15.034
1.4805931 0.64980364 2.1252427 13.61425
1.5784665 0.65909302 2.1368427 12.976187
1.6515973 0.65465778 2.1484499 12.990966
1.7535328 0.62918568 2.1834149 9.5625
-2.0356793 0.76072359 2.1765172 15.139361
-1.9675101 0.75991988 2.1387503 14.419583
-1.8416023 0.7365396 2.1280518 17.033834
0.52574307 0.79828274 2.1719451 16.117001
1.4457428 0.73569942 2.1966109 15.6105
1.5981605 0.73607963 2.1619968 14.80575
1.6566101 0.75501049 2.1479459 14.5043
1.7190448 0.76890403 2.1527498 15.102
-2.1078587 0.8070876 2.1954684 15.049
-2.0147038 0.85811263 2.1981146 15
-1.9621538 0.82930046 2.141082 14.255096
-1.8739363 0.84038574 2.1697898 19.33065
-1.7866597 0.80858004 2.1744382 20.035
0.49623185 0.88849932 2.1482272 17.1175
0.52566069 0.81906176 2.1078625 16.1175
1.4932526 0.81487209 2.1018701 16.1145
1.6430125 0.82870334 2.1494911 15.484103
1.7841128 0.89333045 2.1275306 13.088
-2.0280826 0.97241753 2.1433201 17.272062
-1.9487101 0.94643098 2.1637259 18.690916
-1.855181 0.95710015 2.1607187 21.281668
-1.7886627 0.95104021 2.13129 23.040001
1.3184795 0.92666972 2.1691465 19.1115
1.5584702 0.94545937 2.1528833 17.10775
1.6335143 0.94629371 2.1470778 16.893093
1.8699119 0.93213713 2.1456826 16.109501
-2.0320916 1.0442845 2.1706777 19.45425
-1.9361629 1.0476764 2.1620312 20.192396
-1.8555229 1.0452068 2.1276 21.4286
0.39755768 1.0786953 2.1953375 20.11825
1.5537974 1.0227525 2.1549082 17.476814
1.6420748 1.041754 2.1303492 17.93729
1.7559526 1.0390126 2.1329794 16.10475
1.805493 1.0347247 2.1521866 13.901143
-2.0389862 1.1614606 2.1631 19.415699
-1.958756 1.1383917 2.1368666 19.028749
-1.8767762 1.1755918 2.1473341 22.0165
0.29332548 1.1511569 2.1719201 21.119499
1.2400976 1.1604125 2.1332245 22.099751
1.5677131 1.1601927 2.1663485 20.109749
1.6440026 1.1747556 2.1394467 19.63764
1.7318048 1.1511946 2.1395841 17.6633
1.8317189 1.1529491 2.1749494 15.088
-2.044729 1.2561473 2.1520202 20.859499
-1.9819683 1.2447829 2.1691773 20.504999
-1.8628615 1.2369502 2.1582756 20.5
1.5843766 1.2208757 2.1986897 21
1.6354765 1.2493372 2.1361279 20.159679
1.7508934 1.2449191 2.1362979 18.827999
1.8359265 1.2825859 2.1564355 17.092751
-2.1007099 1.3097638 2.1536245 23.021749
-2.0659473 1.3352705 2.198647 22.54875
-1.9558611 1.3506883 2.1520605 21.7575
1.6701096 1.3642422 2.1596458 21.604
1.7945592 1.3935976 2.1491313 18.594749
1.8321636 1.3229618 2.1421335 17.321903
-2.0134361 1.4895525 2.1836743 23.015249
-1.8004827 1.4069688 2.1108799 23.013
1.6311153 1.4735065 2.1675901 23.106874
1.7407442 1.4541198 2.1376765 22.442167
1.8264923 1.4986792 2.1824012 21.1145
1.7689583 1.553233 2.1646044 22.002048
1.8488286 1.5669624 2.1567328 22.305799
1.7499344 1.6301894 2.1516991 22.598251
1.8714167 1.6461732 2.1582432 21.597561
1.8674171 1.7531153 2.1679997 21.67375
1.8693991 1.8637339 2.1763372 21.088249
1.9491386 1.872138 2.1412356 23.098
1.8727169 1.9853896 2.1704402 23.094999
1.8523346 2.0545211 2.1543005 23.088249
-7.4866681 2.9449241 2.166244 14.0275
-6.3850088 2.9676015 2.1260548 16.025499
-5.0933943 2.9960935 2.1890407 20.026501
-4.9728475 2.9888949 2.1590557 20.0245
-4.4174733 2.9882274 2.1792128 22.025999
-4.0680537 2.9829164 2.1848879 22.009501
-8.2295542 3.0578592 2.1882589 13.025
-6.6841397 3.0994995 2.1200161 16.0135
-6.1487513 3.0460277 2.1472864 17.032501
-6.0826187 3.0693583 2.1538973 17.013
-5.9161911 3.0123081 2.1610491 17.0245
-5.5038991 3.0793142 2.1353428 19.026501
-5.1991224 3.0225871 2.1075139 19.0245
-4.8855963 3.0018146 2.1076088 20.025999
-4.7097878 3.0531838 2.1900613 21.011
-4.6445618 3.0199461 2.151047 21.0375
-4.5628009 3.039685 2.1575711 22.0375
-4.2971787 3.0488071 2.1245761 23.014999
-8.1265421 3.1169732 2.1705017 13.0265
-7.0835776 3.1156352 2.1961601 15.0385
-6.5487871 3.1028054 2.1297355 16.027
0.84936327 -0.15405007 2.2642279 0
0.92739272 -0.10278296 2.2808988 1.3333334
1.2618715 -0.13099584 2.2601266 2
-0.83435023 -0.047094673 2.2265129 2
-0.43371901 -0.06260179 2.2519484 1
-0.12717807 -0.0079182386 2.2745428 3
-0.036731899 -0.036881547 2.2699823 2
0.17529887 -0.051887292 2.2037835 2
0.26107419 -0.025734479 2.2215734 2.5
0.40564096 -0.037404321 2.2109921 3.5
0.67057967 -0.066322893 2.2487183 2
1.0146399 -0.093268037 2.2479866 2
1.2110455 -0.06874425 2.25594 2.5
1.4587867 -0.018277772 2.2715025 3
1.5161823 -0.094657496 2.225564 2
-0.82977659 0.083742559 2.2996793 3
-0.42222241 0.009429574 2.287899 3
1.3344842 0.049303085 2.2408011 5.6666665
1.4808486 0.067204744 2.2089634 4.5
1.6714807 0.018869124 2.2570298 5
-5.1830897 0.16297135 2.2865934 2
1.1396432 0.18903621 2.2827027 8.1169996
1.4326411 0.12725487 2.2678158 5
1.5113602 0.15971771 2.2373536 6.0833335
1.6913232 0.14378563 2.2395151 4
-1.9642498 0.23394895 2.2258511 5.75
0.5350011 0.28865907 2.2355042 8.1160002
1.3555372 0.29029241 2.2862265 10.1095
1.4705584 0.29497448 2.2450457 9.1094999
1.5334641 0.2638295 2.2439322 7.9190359
1.6913517 0.28796083 2.2296226 5.5
-2.0347021 0.32986099 2.2686388 8.0192499
-1.9921058 0.36337146 2.2472305 9.0295
-1.8980263 0.32495433 2.2307873 8.5422497
0.50456065 0.32075742 2.2110772 9.1164999
1.3490466 0.32885885 2.2330499 10.111938
1.4759244 0.33636135 2.2758012 9.2845001
1.512511 0.32099926 2.2360547 8.5802498
1.6231871 0.34376302 2.2535045 9.4366665
-2.0593264 0.46264365 2.2488496 9.2056246
-1.9561985 0.44747677 2.2507987 10.234751
-1.8598189 0.43777299 2.2475648 10.015
1.2929085 0.46736249 2.2491999 12.240167
1.3717308 0.47992504 2.2292099 12.11375
1.4824826 0.46226975 2.2514489 11.570999
1.5566438 0.45768028 2.2353237 10.270815
1.6352875 0.45489842 2.2482159 9.2010002
-2.7076435 0.58006215 2.2599423 9.0102501
-2.1358271 0.59685713 2.2876055 11
-2.0472193 0.54142457 2.2507296 10.742846
-1.8697042 0.53709674 2.231148 13.204646
-1.461159 0.58404446 2.2992988 20.045
1.2616518 0.51345623 2.2757225 13
1.45898 0.5521121 2.2541797 12.702167
1.5495864 0.54512358 2.24523 11.163049
1.6171172 0.55788612 2.2668726 10.093
-2.7582111 0.67844445 2.2621093 10.0105
-2.1113348 0.61764902 2.2272816 12.0165
-2.0428019 0.62981707 2.2695489 12.101054
-1.9824126 0.63873792 2.2360983 12.453562
-1.8660589 0.64323443 2.2337484 15.393014
-1.5060031 0.63771838 2.2652638 21.035999
1.3866576 0.60898948 2.2562859 14.1135
1.4990757 0.6440531 2.2597914 13.855249
1.5451752 0.6647656 2.2783551 13.269417
1.6435999 0.67911285 2.2433369 12.803375
-2.0213034 0.74902946 2.2388203 14.018001
-1.9540908 0.76712543 2.2309277 15.521
-1.8479815 0.75490713 2.2424929 17.693499
1.1390235 0.73329848 2.2821076 16.1175
1.2781326 0.73757267 2.2378783 16.61075
1.3589051 0.74425423 2.2848632 16.113501
1.4358159 0.74664545 2.2497783 15.719791
1.5697254 0.74040794 2.2514229 14.102084
1.635787 0.74647748 2.2295282 14.729884
1.7344985 0.72682673 2.2545242 11.087
-2.0323777 0.85964328 2.2751727 15.657633
-1.9239415 0.8217696 2.2253644 18.293999
-1.8380699 0.84354305 2.2212806 20.035999
0.53283721 0.85372961 2.2067492 16.616751
1.4513332 0.88247561 2.2548993 16.85375
1.5624619 0.85761523 2.2589142 15.736417
1.6305767 0.88348711 2.271466 16.1005
1.7530596 0.87557828 2.2480562 14.098
-2.1088004 0.96748853 2.2963579 17.049999
-2.0624919 0.93591225 2.2786508 17.518501
-1.9551778 0.94444513 2.2325814 18.52725
-1.85563 0.95031631 2.2687087 22.164688
-1.7582622 0.98420453 2.2279384 22.047001
0.5542081 0.94230831 2.2907593 18.115999
1.3064673 0.92052245 2.2427933 19.11075
1.4559226 0.99723989 2.2038093 18.114
1.5528188 0.92807168 2.2401214 17.127234
1.6334888 0.96184391 2.2393656 17.5215
1.7454094 0.98805302 2.2360399 13.758334
-2.1172035 1.029192 2.2323625 19.018999
-2.0381465 1.0632589 2.2611587 19.77107
-1.949357 1.0777712 2.245049 22.780188
-1.8723539 1.0357828 2.2008414 19.0145
1.3421891 1.0771128 2.2410402 21.11075
1.5607499 1.0650262 2.2539611 17.88335
1.6443975 1.0546353 2.2436922 17.836552
1.7598726 1.0675082 2.2164192 14.59075
-2.1129599 1.1367269 2.235646 18.699554
-2.0580368 1.1623007 2.2648416 19.351801
-1.9731016 1.1433026 2.254823 19.326801
0.62113911 1.1090021 2.2410429 20.115999
1.4216779 1.1866765 2.2634947 21.11375
1.5626688 1.1636666 2.2580457 19.897472
1.6240904 1.1556821 2.2282917 19.412334
-2.1338844 1.2209195 2.2264488 21.018999
-2.0430257 1.2721124 2.2428939 21.607626
-1.9421742 1.2343946 2.266664 21.277
-1.8565469 1.2465909 2.2022889 20.056
0.37391859 1.2193714 2.2171867 22.1185
1.5708061 1.2428274 2.2562215 20.691586
1.6253108 1.2586255 2.2227359 19.854
1.7582718 1.2205443 2.2242355 17.095249
1.834666 1.2535858 2.2305863 16.043999
-2.1126616 1.3396465 2.2839453 22.547749
-2.0300725 1.3363228 2.2550316 20.949612
-1.95506 1.3730944 2.2480154 21.38125
0.28365284 1.329138 2.210547 23.119499
1.6237895 1.3451991 2.2620718 22.107376
1.7652957 1.3761389 2.2593923 18
-1.9282571 1.4078455 2.2416911 23.0525
1.588591 1.4772413 2.2905858 23.105499
1.6636511 1.4533342 2.2523053 22.802263
1.7651253 1.4569367 2.2619207 20.263834
1.8235717 1.4341511 2.2831321 17.363636
-1.9739583 1.5360001 2.2939377 23.013
1.6756809 1.5163894 2.2690349 22.101501
1.7591816 1.5397056 2.2694855 22.098751
1.8322777 1.5563084 2.2805872 18.5875
-1.9898257 1.6226345 2.2217669 23.012501
1.6888138 1.6760888 2.2540581 23.098499
1.7768527 1.6492299 2.2545683 22.096418
1.8384508 1.6464931 2.2649825 19.89625
1.8104839 1.7854733 2.2910101 22.094
-2.8322315 1.802315 2.2744477 22.021999
-1.9877112 1.8600106 2.2816968 20.5
1.8552954 1.836689 2.2102175 23.097
1.7604539 1.9641228 2.2891164 22.087
1.8196671 1.9524871 2.2573838 22.590874
-1.9498544 2.0210814 2.2655513 22
1.7537606 2.0299156 2.2807331 23.087
1.8020983 2.0455899 2.2388427 23.0875
-6.4196334 2.9669201 2.2576318 16.025999
-6.272377 2.9506681 2.2985361 16.024
-4.6201234 2.9776423 2.2513576 21.026501
-4.3919516 2.9870992 2.2798767 22.026501
-7.7636337 3.0463743 2.2296367 14.0265
-7.6833496 3.0479069 2.2749968 14.026
-7.1643214 3.0604541 2.2033796 15.0255
-6.5469799 3.0889926 2.267292 16.0275
-6.3339095 3.0401325 2.2200224 16.025
-6.2851419 3.0523286 2.2317095 16.5385
-6.115232 3.0647213 2.2818463 17.0135
-6.0764074 3.036037 2.2992966 17.0275
-5.8276114 3.0501528 2.2395799 18.013
-5.6414719 3.0785758 2.2091823 18.023001
-5.5253296 3.0975783 2.249507 19.027
-5.2501621 3.0630035 2.2112377 19.025
-5.142262 3.03528 2.2238097 20.025
-4.8773375 3.0677435 2.2803712 21.025
-4.6587958 3.0438583 2.24436 22.038
-4.1826992 3.0015368 2.2355266 23.024
0.10251927 -0.12689698 2.3836913 0
-0.24331847 -0.043415103 2.3039718 2
0.010937393 -0.0094164759 2.3008394 3
0.27411759 -0.0033313185 2.3642318 3
0.39148408 -0.07840398 2.3755956 2
1.1741244 -0.09095335 2.3066945 2
-2.0212491 0.082437098 2.3492489 2
-1.2527103 0.0061129108 2.3123207 2
-1.1537321 0.07629104 2.3205028 3.5
1.3426957 0.058788445 2.3596113 5
1.4588017 0.068240114 2.3787565 4.8095241
1.6114385 0.038743302 2.3782067 5
-3.7607861 0.1430718 2.3585942 2
1.4363279 0.14407863 2.3527584 6.0499997
1.5341594 0.14612937 2.3467951 5.833333
1.0932403 0.23574154 2.3808327 9.1164999
1.3519461 0.2447089 2.3813813 8.0543747
1.4514856 0.24880484 2.3515816 8.3732843
1.6915596 0.21735474 2.3214877 8.1079998
-2.0490661 0.36944303 2.3548143 8.3998756
-1.9984864 0.39859265 2.3286512 10.02425
1.2716703 0.39423636 2.3393571 11.5
1.3443139 0.31280139 2.3853245 10.11225
1.4472612 0.34797624 2.3399594 9.4748545
1.5624187 0.31996211 2.3461368 9.0994997
1.6425802 0.33892074 2.36199 9.7755833
-2.1575313 0.46478739 2.3634815 9.0509996
-2.0275874 0.47782394 2.3660769 10.037001
-1.9522064 0.45687476 2.3350935 11.035666
0.84839183 0.44086826 2.3936584 11.111
1.2533863 0.42937386 2.3809836 12.109
1.3673565 0.45673138 2.3888931 12.1085
1.4574448 0.47131744 2.3487945 11.356766
1.5548381 0.45537376 2.3532863 10.599375
1.6387521 0.47169515 2.3700056 8.0892506
1.7496833 0.44203275 2.3946161 11.1105
-2.7496696 0.58149654 2.324254 9.0109997
-2.146575 0.56958342 2.3286459 10.532499
-2.0534363 0.56124753 2.3352444 10.219833
-1.9527756 0.54298288 2.3473711 12.583167
1.2447846 0.50729346 2.3051462 13.11
1.3721064 0.53312337 2.3143256 12.8
1.4764721 0.54434848 2.3443599 11.981
1.5446976 0.56929398 2.3763285 11.931666
-2.1101546 0.639893 2.3421454 12.0145
-2.061769 0.64916229 2.3736684 13.534125
-1.9415063 0.63742113 2.3252292 14.01925
-1.8783327 0.61960924 2.3169289 15.0235
0.74569374 0.66258258 2.3192964 14.114
1.456421 0.64930159 2.3627408 13.548288
1.5530536 0.65042019 2.3562274 13.481688
1.6135383 0.67790866 2.3504124 14.60825
-2.7060826 0.72129476 2.3577232 11.011
-2.1387696 0.72344285 2.3201296 13.523499
-2.0950034 0.73872507 2.3299956 13.826401
-1.9652276 0.73665345 2.3495007 17.041248
0.52254492 0.73676777 2.3591743 16.115499
1.1267009 0.71283031 2.3450961 16.117001
1.2426064 0.74532306 2.346257 17.109751
1.3674626 0.71325374 2.3317161 15.482944
1.4609761 0.75833088 2.3392749 16.605373
1.5570952 0.75612712 2.3569684 14.102417
1.6143292 0.73030531 2.3155386 14.55275
1.7242374 0.78679937 2.3556392 11.0865
-2.5219896 0.87059361 2.3909276 14.0225
-2.1240959 0.85981655 2.3774226 15.021916
-2.0452416 0.845011 2.3500974 16.515583
-1.95293 0.84554148 2.3519497 19.041248
-1.8307239 0.88389301 2.3093963 21.023001
1.3573437 0.85296458 2.3314946 17.906418
1.4686748 0.87496018 2.3508506 17.071751
1.5559899 0.86982489 2.3409657 16.274023
1.6748784 0.82700288 2.3530159 14.202312
1.7214545 0.88258237 2.3386629 12.0865
-2.9703236 0.94347954 2.3190403 12.012
-2.1616395 0.94306487 2.3175936 16.049999
-1.9473188 0.93092334 2.3606482 20.029125
-1.8466983 0.99213308 2.3325324 22.543499
0.56693488 0.90154815 2.3961465 18.115
1.3381711 0.9554618 2.3714333 19
1.4419211 0.9144243 2.3701351 16
1.559994 0.94604439 2.3320272 17.362072
1.6068846 0.92755675 2.3428893 18.105249
1.7357422 0.94424146 2.3757451 12.5
-2.1177597 1.0367543 2.308146 18.548248
-2.0642257 1.0508182 2.3551817 19.067591
-1.963203 1.0669329 2.3243034 20.352415
0.38861436 1.0175619 2.303113 20.1175
0.61014438 1.0527461 2.354311 20.115124
1.322179 1.0507555 2.3371487 21.109751
1.5324123 1.0311444 2.3383307 18.104126
1.6729903 1.0040921 2.3246927 14.093
1.7684653 1.0486766 2.303452 13.587
-2.1347251 1.1341528 2.3939106 19.548584
-1.9918602 1.1541601 2.3699789 18.056499
0.37382573 1.1527559 2.3392715 22.1175
1.4952652 1.1735337 2.3623152 19.048126
1.5550901 1.135563 2.346935 19.722334
1.6531899 1.1130033 2.3445814 20.1085
1.7366545 1.162153 2.3780832 15.08975
-2.130439 1.248667 2.3951066 20.550751
-2.075316 1.2421707 2.3604567 23.0245
-1.9942203 1.2285831 2.3619242 22.143375
1.3897836 1.2549123 2.3679159 22.613001
1.4536257 1.2749826 2.3521886 21.104876
1.535494 1.2315133 2.3309565 21.077188
1.6187379 1.2556448 2.3058143 18.094999
1.7540641 1.2570858 2.3237295 17.091251
-2.0578058 1.3367999 2.3373325 21.781189
-1.9336803 1.3767825 2.3288097 22.026749
1.5397251 1.3525231 2.3703358 22.357689
1.6107012 1.3499564 2.3443902 22.217249
-2.1044326 1.4138695 2.3738289 23.050501
-1.911955 1.4699523 2.3621945 23.053749
1.5516527 1.4421084 2.3653021 23.107815
1.6512625 1.4670818 2.33443 22.601498
1.7584834 1.4323884 2.3284807 18.591251
-2.0385046 1.53643 2.3441854 19.504499
1.6323302 1.5965792 2.3492746 23.0975
1.7150954 1.5277662 2.3691387 21.59775
-2.0152991 1.6947851 2.394938 19.056
1.670204 1.6094916 2.3017147 23.098
1.7531253 1.6515889 2.3506603 21.348751
-2.0164967 1.7572021 2.3240385 19.25
1.7878939 1.7538629 2.3337309 20.59025
-2.0100951 1.8292326 2.3524203 20
1.7834105 1.8379722 2.3579817 22.046749
-1.9907118 1.9092892 2.3270104 21
1.7821229 1.9626806 2.3344564 23.0935
-7.3217273 2.000752 2.3955986 10.0395
1.6748216 2.0340152 2.3868871 22.586
1.7122406 2.0181026 2.3244488 22.0865
1.6949307 2.1164584 2.3033335 23.0865
-7.4606209 2.9227448 2.3248358 14.028
-6.4972405 2.9592786 2.3805895 16.026501
-6.3148489 2.9537067 2.3534164 16.025499
-6.0350041 2.988688 2.361696 17.024
-4.8403149 2.9804137 2.3133469 20.027
-4.7349224 2.9908819 2.3273411 21.027
-4.3753476 2.998369 2.3719916 22.027
-4.2674093 2.9893732 2.3945456 23.025
-4.0652995 2.9839118 2.3712134 23.0105
-7.8086948 3.0496714 2.3677988 14.027
-7.6017756 3.0295689 2.3153801 14.039
-7.131526 3.0692184 2.3356309 15.032499
-6.8580871 3.0664384 2.317071 15.0245
-6.2586756 3.0287554 2.3646123 16.039
-5.7673192 3.0396421 2.3412654 18.021502
-5.6353898 3.0736506 2.3813393 18.039
-5.5642571 3.0592806 2.3423908 19.0275
-5.3441076 3.0262089 2.3035579 19.0245
-5.0870986 3.0093949 2.3598557 20.026501
-4.8566475 3.0618186 2.3871074 21.025499
-4.6610422 3.0331297 2.325803 21.525
-4.2581577 3.0593705 2.3381362 23.026751
-4.1732035 3.019506 2.3603935 23.024
-4.0486403 3.0112429 2.3172598 23.0165
-8.0565681 3.1056876 2.3766317 13.0265
0.3832505 -0.1735855 2.4980562 0
0.53751481 -0.1631019 2.495738 0
0.80254436 -0.15142328 2.4939709 0.5
0.99323487 -0.16760418 2.4899576 0
1.1436754 -0.13371889 2.4347849 1.4444445
-1.5781163 -0.020709485 2.4383183 2
-0.41516346 -0.058520533 2.4486513 0.5
-0.21771967 -0.067816101 2.49927 1.5
-0.029004991 -0.022316966 2.4690647 2.5
0.024175793 -0.062084794 2.4068687 1.3333334
0.44170913 -0.079327375 2.4041591 1.5
0.76567322 -0.070682801 2.4346952 3
1.2975143 -0.050782796 2.4822912 3.75
-1.6680282 0.0058769602 2.4525933 1.6
-1.3893501 0.03582336 2.4825191 2
1.2665676 0.065091655 2.4799471 5
1.3382365 0.075408235 2.4471927 5.6785717
-4.1562815 0.13661844 2.4023397 2
-2.1246841 0.10104488 2.4277368 3
1.1915092 0.16952933 2.4381185 8.1152496
1.5177102 0.17695679 2.4986613 5
1.6471338 0.12916724 2.4785941 3.5
-2.055275 0.26871234 2.4255724 7
0.56000704 0.2133261 2.4386406 8.1140003
0.81621128 0.28829485 2.4155531 9.1110001
1.1181316 0.20345251 2.4106894 8.1160002
1.2686474 0.26669386 2.4588993 9.6078749
1.3797282 0.27383637 2.4817924 8.7405834
1.4373521 0.23393434 2.46942 8.0771255
1.5859809 0.2069609 2.4056778 5
1.6622021 0.23597679 2.4327719 8.1070004
-7.2800035 0.34825918 2.421689 2
-2.0996251 0.38505685 2.4235842 8.0185003
-1.9883351 0.30148467 2.4218404 8.0209999
0.5058952 0.31157672 2.4439926 9.1145
0.78609198 0.32638428 2.4318948 9.1125002
0.83502609 0.35197139 2.4040451 10.111
1.2346913 0.36006552 2.4615226 11.1115
1.3822536 0.36189047 2.4581404 9.6813755
1.4351591 0.35009858 2.4631355 9.5740004
1.5552542 0.36431479 2.4394135 8.5535002
-1.9796667 0.44780087 2.4303038 10.029125
1.1879632 0.40432069 2.4855003 12.108
1.2673678 0.40303326 2.4946451 11.1145
1.3660816 0.45520303 2.4338677 11.941625
1.4512949 0.44913229 2.4471064 10.912289
1.5640981 0.48082659 2.4780636 8.0915003
-2.0153482 0.5338254 2.4518039 11.372167
-1.9240258 0.56027377 2.440599 13.02075
1.2496797 0.5506326 2.4503772 13.615125
1.3989313 0.54421473 2.4622748 11.25
1.4380119 0.55537421 2.4474356 12.639031
1.5601665 0.53746474 2.4338713 9.0917501
1.6396019 0.54094398 2.4133148 13.1075
-2.5836573 0.69290394 2.4239864 11.0465
-2.2026589 0.60384923 2.4035554 11.051
-1.924613 0.65262085 2.4612474 15.021
-1.5372157 0.63568515 2.4435127 20.7075
-1.3646938 0.62862647 2.4468031 23.023251
0.67670518 0.64385432 2.4422419 14.1135
0.83980572 0.66631317 2.4676702 14.61075
1.3778586 0.64952683 2.4500666 13.953024
1.4499382 0.66140079 2.4708462 14.112882
1.5393717 0.64438957 2.4502869 13.102249
1.6477952 0.64891601 2.4033432 10.046125
-2.8998947 0.7657792 2.4226773 11.0125
-2.7093651 0.72285271 2.4182734 11.0115
-2.0358067 0.75502419 2.4659905 12.55575
1.2464906 0.75774938 2.4460118 17.444166
1.3742545 0.73321456 2.4996848 15.10075
1.4430913 0.75979173 2.4599748 15.529682
1.5291224 0.76571375 2.4490609 13.598249
1.6602859 0.77110493 2.4752638 11.0855
1.7533776 0.74071568 2.4705014 15.11
-2.5481126 0.83125806 2.4263997 13.0465
-2.1505671 0.84996927 2.4490438 15.049875
-2.0467868 0.84048033 2.447978 14.840333
0.55558544 0.8766796 2.4621432 18.1145
1.0234661 0.891451 2.499897 18.0945
1.1336482 0.85713118 2.466749 18.115999
1.3349493 0.89591235 2.4425697 18.612249
1.440109 0.86262321 2.4581211 16.528374
1.5240639 0.85291004 2.4334106 15.434583
1.7031745 0.88015336 2.4245439 12.086
-2.0123801 0.96823883 2.4945796 20.021749
-1.9900125 0.95114303 2.4285567 19.27075
0.34801847 0.96705019 2.4129817 20.117001
1.2869234 0.9067235 2.4293895 19.108749
1.3810792 0.95219851 2.4565072 16.547501
1.4517146 0.960868 2.444248 17.939524
1.5269767 0.92268687 2.4373813 17.50485
1.6237561 0.94444895 2.444685 15.657786
-2.1481647 1.0118364 2.4527209 17.0515
-1.7949409 1.0193472 2.4234684 22.019501
1.210628 1.0228897 2.4301896 20.115999
1.3212548 1.037203 2.4535773 20.610998
1.4620322 1.0479844 2.4533939 18.397215
1.5282974 1.0509524 2.4549534 18.734251
1.6594768 1.0685072 2.4956388 15.092
1.7119188 1.001912 2.4486444 13.086
-2.1654034 1.1216594 2.4903255 19.0485
-1.9752269 1.1578859 2.4376011 18.527126
1.3258734 1.1865526 2.4555557 22.943167
1.4760489 1.1509844 2.4572294 20.157967
1.5424093 1.1484917 2.4309971 19.484833
1.6475358 1.1179419 2.4136879 17.60025
1.7313869 1.1197898 2.424808 14.043
-2.1127932 1.2734629 2.4347172 21.05125
-2.0315263 1.2418655 2.4534414 22.3535
-1.9698052 1.2170639 2.429184 19.387501
1.3799295 1.2583635 2.4228671 23.112499
1.462903 1.2280115 2.4545867 20.274168
1.5473902 1.2485781 2.4172893 19.599751
1.6511767 1.2830095 2.4088001 18.0945
1.7244518 1.2582507 2.4028282 16.5
-2.0655911 1.3795242 2.4280653 17.78261
1.4788955 1.3504912 2.4648998 21.935083
1.5331712 1.3522935 2.456485 22.523748
1.6421345 1.3610818 2.4387941 21.099499
1.7064977 1.385085 2.4260237 17.625
-1.9582095 1.4011946 2.4146576 22.054001
1.4849348 1.4235275 2.4696581 23.101749
1.5422639 1.4318342 2.4577746 22.603436
1.6635826 1.4600866 2.4524238 19.796749
1.7368855 1.4660547 2.4216475 18.046375
-2.0518894 1.538599 2.4158444 17
-1.9701529 1.501637 2.4875703 22.054501
1.6632977 1.5500271 2.4475236 21.850124
1.7235732 1.5785589 2.4294937 22.598499
1.6562084 1.6468607 2.4558921 21.297874
1.7543186 1.7274354 2.4155657 21.547501
1.7299898 1.8853817 2.4411592 23.094749
1.7593486 1.9618053 2.4010389 23
-7.1000099 2.045449 2.4405661 10.0285
1.5869504 2.0034618 2.4942822 22.084999
1.624458 2.0441031 2.4240885 22.585501
-4.7934132 2.1945589 2.4883273 17.018
1.5464903 2.135181 2.4881113 23.084749
-7.164607 2.5928862 2.4828854 13.0285
-6.1696877 2.8835626 2.4569955 16.0245
-6.351078 2.9530482 2.4845607 16.025999
-5.0500598 2.9928725 2.45222 20.025999
-4.2573495 2.9869967 2.4792614 22.518499
-4.1139908 2.9843047 2.489779 23.024
-7.6945152 3.0345302 2.440176 14.0265
-7.3472257 3.0596998 2.4942405 14.0285
-7.2943759 3.0918422 2.4624095 15.0395
-6.7503657 3.0254476 2.4664488 15.025
-6.2065578 3.0207267 2.4928665 17.039499
-6.1704836 3.0671313 2.4033134 17.014
-6.0593176 3.0394826 2.4483414 17.026249
-5.9802642 3.006211 2.4095731 17.025499
-5.7113352 3.0546045 2.4640434 18.02725
-5.180985 3.0473824 2.4524724 19.025
-5.0732884 3.0194938 2.4663548 20.025
-4.8457956 3.0719745 2.4468684 21.025249
-4.7083817 3.0114474 2.4045584 21.039
-4.6391892 3.0338101 2.4254537 21.525499
-4.3026538 3.0562134 2.4392874 23.039
-4.2774057 3.0126839 2.438833 22.024
0.014206827 -0.10685463 2.5231464 0
0.57298243 -0.14318323 2.5413673 1
0.76046896 -0.13907051 2.5506322 0.5
0.82448167 -0.16054992 2.5757999 2
1.1094167 -0.10197029 2.5005162 3.25
-0.74435377 -0.074994482 2.578454 1.6666666
0.30124357 -0.039426237 2.5150683 2
0.44547677 -0.071283616 2.5456705 3
1.2947645 -0.030763768 2.5382447 5
1.3293368 -0.03874905 2.553627 4
-2.1305294 0.054654587 2.5873358 2
-2.0918524 0.09390188 2.5562699 2
-1.7980747 0.021260355 2.5545835 1
-1.6639657 0.050968211 2.5545464 2
-1.1178372 0.010650925 2.5881438 2
-0.73226953 0.035147242 2.5100341 3
-0.38998336 0.010930065 2.590239 3
1.2912266 0.036870725 2.5571702 5.8571429
-2.0632041 0.11269821 2.5001523 2
1.1839359 0.16742094 2.5214872 8.1145
1.2883184 0.13526927 2.5909588 5.5833335
1.3574222 0.1553169 2.5864666 6.6757579
1.454953 0.16387129 2.5522017 8.1043749
1.0357757 0.24670343 2.5334768 9.1155005
1.2997184 0.24636488 2.5096827 9.1140003
1.3478973 0.26038665 2.565938 8.7073746
1.4205184 0.25059834 2.5288711 8.6052494
1.5365981 0.26798949 2.5344696 8.0365
1.6267784 0.21467105 2.5284486 4.8000002
1.1845951 0.31054711 2.5224624 11.1075
1.3495147 0.35028595 2.5708899 9.6806002
1.4370729 0.32566684 2.5207698 8.8241253
1.5223993 0.35628843 2.5726171 10.615499
1.2732475 0.47778884 2.5362597 13.112625
1.3521023 0.45986259 2.553195 11.704375
1.4274035 0.45110017 2.5659842 11.4832
1.5273836 0.40597048 2.5429795 8.0909996
-2.034883 0.51334655 2.5458064 11.0195
-1.9708703 0.56432647 2.5121095 13.522
-1.4032319 0.58906209 2.5202134 22.025499
0.889229 0.5236221 2.5391662 12.111
1.253242 0.59649062 2.5533473 14.447499
1.3751578 0.58970857 2.553978 12.064
1.4311748 0.54422915 2.5555654 12.358642
1.5482161 0.54779345 2.5461738 10.322124
1.6382474 0.52709478 2.5684307 8.085
-1.7702405 0.68907768 2.5836914 18.021999
1.0873134 0.65225875 2.5284777 16.115499
1.3365203 0.65617013 2.5597541 14.80125
1.4526424 0.64883983 2.5554388 14.351719
1.6257001 0.6285522 2.5530829 8.9313889
0.4082498 0.74893624 2.5342712 17.115
1.1603658 0.76166779 2.5387158 18.60775
1.2758788 0.72961187 2.5454144 16.11425
1.3579651 0.75825357 2.5708847 15.419624
1.4298391 0.74110401 2.5598831 15.100101
1.5344591 0.78752983 2.5906084 12.09075
1.6702985 0.74637002 2.5033014 10.0855
1.1256719 0.81675416 2.5727482 18.115
1.2303033 0.88358063 2.5694492 20.10725
1.3612171 0.86303061 2.5465147 18.4405
1.4610143 0.85336256 2.5404272 16.584101
0.61243695 0.97516155 2.5264854 20.113501
1.1776966 0.96729821 2.5394619 20.115124
1.2885485 0.99928939 2.5617485 21.10725
1.3514075 0.94756156 2.5452261 18.569582
1.4328923 0.95015508 2.5447996 17.976189
1.6228629 0.9622072 2.5691316 16.053001
-2.051574 1.0088563 2.5113597 19.018999
1.1794108 1.0537723 2.5315008 21.11525
1.3686163 1.0046458 2.5756671 19.106501
1.4759952 1.0648739 2.5322623 18.749792
1.5364652 1.0391549 2.5130641 19.105165
1.6521653 1.0002508 2.5767725 12.555555
-2.0106821 1.1571376 2.5768728 21.019501
1.3011291 1.1646655 2.552371 22.6115
1.4452507 1.1601762 2.5388544 20.401781
1.5510726 1.1734802 2.5136566 17.09325
1.6544824 1.1813046 2.5568063 15.758332
-2.2919257 1.2741563 2.5090823 20.048
-2.0678937 1.2006099 2.5052888 21.018999
1.3627191 1.2261606 2.5581791 21.702667
1.4547647 1.2464193 2.5590546 20.83914
1.5382124 1.264425 2.5166502 19.600376
1.6627674 1.2532536 2.5451486 18.846001
1.3897951 1.3481103 2.5875611 23.106501
1.4636911 1.3494564 2.5445251 22.28335
1.5299435 1.3203723 2.5660107 20.598
1.4462705 1.4331425 2.5500972 23.086584
1.5749692 1.453164 2.5762699 21.095501
1.6487356 1.4179112 2.5374949 17.613832
1.5592352 1.5450184 2.5521538 22.096001
1.6633788 1.5179288 2.5009382 21.0965
1.5864767 1.6020012 2.5042331 22.096001
1.6551497 1.6490986 2.5400505 20.637892
-7.0867205 1.7229869 2.5730495 9.0290003
-2.7659011 1.7830443 2.5448976 22.021999
1.553516 1.7338427 2.5504022 23.095501
1.6138045 1.7343704 2.5595167 20
1.6684226 1.8466361 2.5292006 22.319603
1.7668504 1.8088763 2.5125303 23.097
1.522961 1.9991524 2.5659683 22.084249
1.4898237 2.0928206 2.5801189 23.084
1.5445681 2.0536237 2.5912278 23.04525
1.6104219 2.0098097 2.5472784 23
-7.0222225 2.1698339 2.5529399 11.04
-4.6935444 2.5010149 2.5288298 19.018
-7.4479322 2.8538234 2.5535975 14.0275
-6.3000278 2.8704298 2.5949936 16.040001
-6.1878591 2.8730907 2.5880623 16.025
-6.5308666 2.9600391 2.51475 16.027
-5.2494774 2.9817991 2.5511951 19.025499
-5.0167713 2.9857638 2.5725894 20.026001
-4.938448 2.9381075 2.5509677 20.02825
-4.6571426 2.9932883 2.5285158 21.012501
-4.4468451 2.9873109 2.5569713 22.012249
-4.2206793 2.991231 2.5803754 23.025999
-4.0609684 2.9885356 2.5172758 23.01125
-7.7412548 3.037864 2.5777788 14.027
