# .PCD v0.7 - Point Cloud Data file format
VERSION 0.7
FIELDS x y z intensity
SIZE 4 4 4 4
TYPE F F F F
COUNT 1 1 1 1
WIDTH 1225
HEIGHT 1
VIEWPOINT 0 0 0 1 0 0 0
POINTS 1225
DATA ascii
-1.9215128 0.6290707 -0.33755681 13.032
-1.7616733 0.6209144 -0.31315958 17.0205
1.0318639 0.62988377 -0.34073496 15.889959
-1.7677652 0.71521074 -0.35469818 18.02
1.0364758 0.73437953 -0.33892605 18.113186
-1.7510694 0.82519704 -0.34013438 20.02
1.0741874 0.94668221 -0.3355667 21.612625
-1.8575097 1.0191891 -0.32422733 18.532
-1.7256215 1.0519913 -0.3141067 23.02
1.0978152 1.0644891 -0.30873036 23.112
-1.8055203 1.1956486 -0.31351358 21.032
-1.7899693 1.2532024 -0.37317511 22.03125
9.9686909 2.011106 -0.38741034 9.1090002
8.7787657 2.1250186 -0.36043411 10.109
4.3181005 2.2875099 -0.36650756 18.110001
4.8499851 2.2986069 -0.30375072 17.109501
5.3398356 2.2793303 -0.32831174 16.109501
5.5836215 2.2656996 -0.35212129 15.1095
3.98176 2.3932726 -0.33340231 20.110001
3.5645413 2.4080637 -0.33765644 22.11025
3.8355727 2.448719 -0.32545266 21.110001
-0.82738495 0.051811375 -0.29276669 8.0144997
-0.79141074 0.053812429 -0.24425769 9.0150003
-1.6490384 0.14142263 -0.21990168 10.0215
-1.9045312 0.22050226 -0.25646177 6.1999998
-1.7146009 0.25511074 -0.28078461 11.021
-1.131722 0.25519788 -0.28250265 13.0175
1.0587193 0.29749882 -0.26980984 8.1122503
-1.9278569 0.3402918 -0.29275575 8
-1.0808436 0.33385372 -0.29465467 15.01675
-1.925697 0.42005917 -0.27016476 9.1831665
-1.9169682 0.52540112 -0.29021972 11.0325
-1.7227794 0.5588057 -0.22179568 16.5215
1.0333056 0.54735655 -0.26639724 14.362249
-1.7292761 0.68733096 -0.29628551 18.0205
1.0730329 0.6530453 -0.20922202 16.5
-1.6857762 0.72260928 -0.27731526 19.0205
1.0321556 0.74655265 -0.20080447 19.111
-1.7549666 0.83489591 -0.21735215 21.0215
1.0478735 0.85672104 -0.26507127 20.611832
-1.8596319 0.99591231 -0.205707 18.5
1.0576515 0.93130332 -0.22091401 22.111
-1.7238278 1.0468709 -0.27527404 23.0205
-1.8215029 1.1757698 -0.27216631 21.016251
-1.8187499 1.2131577 -0.23841837 21.875
-1.7958736 1.2498844 -0.27074888 22.032499
11.613445 1.889153 -0.23547658 8.1084995
10.383801 1.9753054 -0.21829581 9.1084995
5.3422937 2.2538769 -0.21087869 16.108999
5.5969148 2.2485218 -0.22808513 15.109
5.7564073 2.2045567 -0.24392428 14.109
6.355114 2.212244 -0.25433257 13.109
4.0153909 2.3843305 -0.24650328 20.109501
3.6521423 2.4172318 -0.2236511 22.109501
3.929481 2.4201334 -0.24409972 21.109501
-1.5899903 0.041670941 -0.13001251 8.0225
-1.6198413 0.1506297 -0.1733364 9.5220003
1.0757958 0.29523444 -0.15002972 8.1099997
-1.8873696 0.30956864 -0.1431167 8.0342503
-1.8922662 0.44944847 -0.14242664 10.03425
-1.8851889 0.54368466 -0.16690503 12.034
-1.713925 0.56605315 -0.16893068 16.522125
-1.6991651 0.50560516 -0.1364578 16.022499
-1.9039111 0.61026454 -0.18150364 12.466666
-1.8909622 0.66935802 -0.16314816 13.534
1.058799 0.65070271 -0.16518532 17.0825
1.1002573 0.62880987 -0.11295286 16.109001
-1.7257668 0.70444638 -0.13256213 19.022499
1.0721477 0.73317438 -0.14488554 18.609709
-1.7012726 0.97419596 -0.11886486 23.022499
-1.7733332 1.2931575 -0.11306655 23.0345
-1.7656095 1.3121332 -0.15209223 23.034
7.8199558 2.1158307 -0.14394531 11.1085
8.8203926 2.1262224 -0.16611145 10.1085
4.4511366 2.2883484 -0.13184933 18.108749
4.8731389 2.2795167 -0.196934 17.108999
5.2748842 2.2962019 -0.10563985 16.1085
5.6613231 2.2521806 -0.11369044 15.1085
3.3741369 2.4007699 -0.13891721 23.108999
-1.5757027 0.25360438 -0.063122436 12.273251
1.1059338 0.26888424 -0.052353472 8.1079998
-1.8380487 0.31644762 -0.079215117 8.0349998
-1.860472 0.42865908 -0.059535079 10.03525
-1.6536074 0.48361236 -0.034225553 16.02375
1.0845864 0.44557881 -0.0019772649 12.607124
1.0681525 0.51773101 -0.08139053 14.308699
-1.7005432 0.69849348 -0.012959331 19.024
1.0924101 0.62325746 -0.017686129 16.774
-1.87262 0.73055232 -0.077919729 15.035
1.093854 0.74670118 -0.056664944 19.108
-1.7340087 0.86717939 -0.033324301 21.690416
1.0792162 0.81382179 -0.051348478 20.108
1.1048448 0.8672328 -0.0091906488 21.107
-1.8525332 0.99069732 -0.080219992 19.035
-1.7076393 0.9785583 -0.076434165 23.023001
1.1052659 0.96707249 -0.048073936 22.552111
-1.7785215 1.2629193 -0.05674959 23.03525
4.9475431 2.2844138 -0.09812136 17.1085
3.8591378 2.4710672 -0.027876658 21.10825
-1.8168372 0.041885376 0.018421832 3.5
-1.5046945 0.085463583 0.098196685 9.0255003
-1.7970699 0.13764007 0.088701338 4.875
-1.8332314 0.24901363 0.05142419 7.0184999
-1.5477247 0.25036019 0.057939827 12.399876
-1.8618515 0.33976987 0.023147533 8.0362501
-1.5559753 0.3220551 0.051792175 14.02475
1.1295928 0.38382244 0.019341141 11.1065
-1.8348233 0.47448105 0.083320946 11.037
-1.5725391 0.43993703 0.071063608 15.525
-1.8455567 0.50040382 0.044342823 11.0365
-1.6302354 0.50970191 0.061968774 17.025
1.0984516 0.51326829 0.0380705 14.10625
-1.8706114 0.66543412 0.044993434 14.0365
-1.865834 0.75448287 0.044541717 14.8684
-1.8767563 0.88278085 0.041153207 17.036501
-1.7077653 0.87913644 0.06443876 22.358332
1.0885011 0.84149027 0.076867566 21.605499
1.0986015 0.94044983 0.049596816 23.106001
1.1209136 0.96375561 0.068274289 22.772165
-1.775762 1.1838176 0.081810102 22.037001
-1.7910069 1.2281873 0.022700531 22.036251
9.7192955 1.9920442 0.024475805 9.1079998
10.752935 1.9234453 0.034997985 8.1079998
7.9125595 2.1267226 0.030493168 11.108
8.7924471 2.1122143 0.029703086 10.108
4.4031343 2.2550445 0.012654858 18.108
4.8804512 2.2629015 0.021130528 17.108
5.0072527 2.2830412 0.011599783 16.108
5.7234397 2.2554867 0.012362417 15.108
6.1694651 2.2113481 0.0079688672 14.108
3.9067814 2.3856041 0.00726551 20.108
4.0907125 2.3402936 0.0089477673 19.108
3.4144585 2.4894478 0.081650212 23.1075
3.7952487 2.5132327 0.090080172 22.1075
-1.7153504 0.10039754 0.17488268 4.5
-1.4732814 0.22480133 0.15861332 12.02625
-1.7882155 0.3162235 0.13965502 8.2688751
-1.5342495 0.34826607 0.13163184 14.525875
1.1446869 0.36390588 0.14613438 10.104
-1.8267273 0.47902629 0.12069068 11.0375
-1.7779377 0.46116328 0.18538526 10.704999
-1.5771722 0.4651978 0.10250977 16.025499
1.099569 0.46763128 0.10195357 13.105
-1.8075378 0.51797712 0.15872121 12.038
-1.7945327 0.52600074 0.19788441 12.0385
1.1286095 0.56783754 0.13475271 15.278846
-1.8252685 0.63331705 0.14763093 13.26875
-1.7407182 0.60382807 0.15080318 13.038
-1.6464143 0.694004 0.1554406 20.026249
-1.8334317 0.75258762 0.12256071 15.5375
-1.7158954 0.88482308 0.15499261 22.026249
-1.6867322 0.80046827 0.13865924 21.025999
1.1416793 0.85585773 0.16883208 20.77025
-1.8002415 0.96707988 0.19802113 19.0385
1.1532289 0.96016335 0.18072174 22.769999
-1.8156173 1.0322083 0.11999397 19.5375
-1.7805244 1.0518872 0.19979154 20.0385
-1.7863355 1.1670754 0.12214038 21.0375
7.9383578 2.127424 0.18211965 11.1075
4.4087029 2.2457907 0.11094961 18.1075
4.9498653 2.2810252 0.12318124 17.1075
5.0496416 2.2654269 0.1235704 16.1075
5.7079897 2.2301297 0.13937552 15.1075
6.0446143 2.2051528 0.16144173 14.1075
3.9517555 2.3762176 0.10145526 20.1075
4.0250635 2.3878212 0.19285062 20.107
4.1650324 2.3257384 0.19663472 19.107
4.2268071 2.3073788 0.10589109 19.1075
3.9454937 2.4481139 0.19068339 21.107
3.5239732 2.5085688 0.16671303 23.107
3.7359943 2.5176339 0.17188224 22.107
-1.709359 0.0019426793 0.20572372 2
-1.420808 0.13210577 0.20798606 10.527
-1.3868575 0.14107327 0.28932518 10.52825
1.1542015 0.26984936 0.27249715 8.1014996
-1.7559859 0.33944771 0.23063776 8.2694998
-1.5126402 0.39040428 0.22781591 15.277313
-1.4714309 0.30345398 0.21168616 13.693667
-1.5483878 0.41237408 0.27525267 11.04
1.1434042 0.43148369 0.2360543 12.102249
-1.7737503 0.51246721 0.23548119 11.5
-1.5207734 0.50188804 0.2299175 17.52725
1.1705834 0.57961124 0.2986629 15.101
-1.7861755 0.63872981 0.23110196 13.7695
-1.6341245 0.67514616 0.27113175 17.533751
-1.7905145 0.75177914 0.23616207 15.539
1.1559892 0.75491035 0.22227544 19.102501
-1.8018094 0.83529639 0.23976555 17.039
-1.7929826 0.88573289 0.20159048 17.0385
-1.6857259 0.89394403 0.24551868 23.0275
-1.802912 0.96484983 0.211871 18.428572
1.1678671 0.95424396 0.24831443 22.435417
-1.7708473 1.1010001 0.23199366 21.039
10.976467 1.9192245 0.28089204 8.1075001
9.7346125 2.0033944 0.24126862 9.1075001
8.7815781 2.103214 0.22472474 10.1075
4.469337 2.2603934 0.21213688 18.107
5.1248345 2.2764637 0.23902808 16.107
5.7249455 2.2131188 0.26731086 15.107
5.9446664 2.2022629 0.28167388 14.107
4.0830326 2.3496008 0.26535273 19.5
4.9677687 2.3135717 0.22998543 17.107
3.6046398 2.4825311 0.25214842 22.106501
3.94719 2.4278486 0.25120816 20.702166
3.4991302 2.5344055 0.24360801 23.106501
-1.3473893 0.054006118 0.34048331 8.6958342
-1.3611773 0.14940526 0.36281496 11.0295
-1.4545832 0.29292554 0.30683237 13.695167
-1.3369077 0.27810615 0.39065155 14.03
-1.6163918 0.34759143 0.36312807 9.0410004
-1.5439156 0.36673972 0.3102366 9.5404997
-1.4709783 0.38127965 0.30560076 15.361833
1.19023 0.32043499 0.37243184 9.0994997
1.1689018 0.42507038 0.35380024 11.766584
-1.5080875 0.52422047 0.35787797 18.029249
1.1981831 0.57396078 0.3797335 15.0995
-1.6342094 0.63661951 0.36495802 14.041
-1.558854 0.64894581 0.32764634 20.028749
1.1832349 0.64255106 0.34776142 16.433458
-1.7563939 0.71930468 0.37140828 15.040751
-1.5852387 0.7057752 0.34447151 21.028999
1.1745577 0.7600596 0.31508943 19.35075
1.2009 0.75322533 0.38338014 18.099501
-1.7767928 0.87072396 0.34093687 17.270374
-1.6496572 0.83731097 0.38597825 22.029499
-1.8005981 0.92712492 0.31843421 18.040001
-1.6623611 0.91291195 0.36052546 23.029165
1.1971124 0.93020403 0.3318277 22.1005
-1.772536 1.0332638 0.3396574 19.373667
1.2356063 1.0796111 0.30454728 23.101
-1.7427614 1.1079832 0.39037415 21.041
-1.6945735 1.2876469 0.37795672 23.041
7.9685073 2.1237185 0.36043507 11.107
4.4538074 2.2895894 0.30961481 18.106501
4.9303613 2.290364 0.33896852 17.106501
5.1707354 2.2708106 0.35607263 16.106501
5.5823603 2.2259283 0.37400925 15.1065
3.1522961 2.3651006 0.36135262 23.105499
4.180469 2.311799 0.38179255 19.106001
3.9649451 2.4045343 0.35607302 20.106001
-1.3410344 0.19197088 0.45244795 12.031
1.2276745 0.28856009 0.47966722 8.0974998
-1.7052467 0.3245517 0.492643 8.2712498
-1.692026 0.38606173 0.49168387 9.0424995
-1.3986452 0.35132411 0.42890501 15.459107
1.1795799 0.32287556 0.45021841 9.0979996
-1.7249541 0.46846682 0.46823347 10.770875
1.1604716 0.40324378 0.42245346 11.0985
1.2205487 0.41491354 0.4720391 10.59775
-1.739254 0.55815959 0.45043036 12.54175
-1.4678954 0.53971803 0.44761807 18.364042
1.2091452 0.57475942 0.47708076 14.697699
-1.7577665 0.67361039 0.45435187 14.04175
1.1956886 0.66095209 0.47206849 16.431166
-1.7573216 0.74553394 0.47091028 15.542
-1.6051972 0.76283544 0.48425448 21.031
-1.5523895 0.71061039 0.41061017 21.030001
1.2192264 0.72580057 0.47778583 17.7645
-1.7663486 0.84346962 0.42489421 16.791374
-1.5754689 0.8394677 0.44409066 23.0305
1.2317752 0.9229151 0.42065471 21.099001
1.2748883 1.0627099 0.45342168 22.431833
-1.7401322 1.1410729 0.46635464 21.042
-1.7032574 1.2882047 0.41989428 23.0415
-1.686823 1.2702487 0.47619992 23.04225
8.8308811 2.101831 0.40827876 10.107
4.1743264 2.2928777 0.47500023 19.105499
5.2551794 2.2773006 0.47897515 16.106001
5.8149986 2.2292237 0.40123031 14.1065
3.9998572 2.3812435 0.45614195 20.105499
3.2829514 2.4012494 0.4460834 23.105
-1.6368022 0.13133207 0.53334987 5
-1.2988112 0.12162751 0.54896486 10.532749
-1.3519065 0.26462975 0.55680776 13.51675
-1.5684675 0.3033326 0.53458893 8.0434999
-1.4591038 0.37454012 0.53465092 10.044
-1.3676891 0.36145124 0.51002342 15.554599
1.2170031 0.3448655 0.55121899 9.0962505
1.1985261 0.41534233 0.52267623 11.09675
1.216761 0.42399448 0.56660968 11.096
-1.5035756 0.50485283 0.51384234 13.0435
-1.4542912 0.5014106 0.53196448 13.044
-1.714445 0.6039058 0.59523761 12.9
-1.582595 0.67247069 0.55895323 15.04375
-1.4563723 0.65000218 0.56868792 15.0445
1.2662691 0.62895554 0.58455318 14.762668
-1.5351903 0.72728258 0.51251245 18.5375
1.2726295 0.76281655 0.56151468 18.0965
-1.6550649 0.87340832 0.56271237 20.03775
-1.5710198 0.80749959 0.56180286 22.032249
1.2639697 0.83038497 0.54984462 19.09675
-1.7242205 0.96896714 0.54772866 19.042999
-1.634096 0.90771478 0.50308979 23.03125
1.3009995 1.0578609 0.55095196 22.097
-1.7198005 1.1614927 0.52476794 21.042749
-1.6871841 1.1726747 0.5758912 22.043501
-1.6283543 1.2746977 0.59195709 23.044001
-1.6647216 1.3095014 0.56937867 23.043501
5.7942677 2.1999764 0.52955967 14.106
7.4791102 2.1604342 0.51668459 12.1065
8.0203781 2.119936 0.54190063 11.1065
4.1643448 2.2771878 0.56788296 19.105
5.2437844 2.2491751 0.59966791 16.105499
5.6591878 2.2343621 0.5056507 15.106
3.9847562 2.366519 0.54365152 20.105
-1.2584273 0.041181486 0.63387519 8.3676672
-1.6635352 0.16075048 0.61295831 5.3000002
-1.2968011 0.15815414 0.69317311 11.035167
-1.3163898 0.26736975 0.68763041 14.035
-1.360912 0.35551849 0.64001787 15.4785
1.2844433 0.33359325 0.66492093 8.0944996
-1.3822485 0.44204527 0.60916126 17.033501
1.2605097 0.42538136 0.68330991 10.4275
-1.430174 0.55814934 0.61807847 19.033501
1.2797916 0.56264412 0.67693794 13.5945
-1.5096143 0.65665835 0.60175049 20.033001
1.272104 0.67940372 0.62862736 15.762
-1.6360431 0.85496581 0.6536696 20.039001
-1.5556029 0.80749404 0.64192927 22.033501
1.3337107 0.86914152 0.65745312 18.595249
-1.7107599 1.0037413 0.60623854 19
-1.6823843 1.0960127 0.61517435 20.044001
1.3443651 1.0672616 0.65207028 21.095501
-1.6795805 1.1896574 0.61551094 22.044001
-1.6415198 1.2703857 0.65353942 23.022251
6.0487614 2.1771672 0.67880321 14.1055
4.1673756 2.2730684 0.65614963 19.1045
4.38556 2.277122 0.69319004 18.1045
4.5589347 2.2476606 0.6115911 17.105
5.7036705 2.2166216 0.65321839 15.1055
4.0057158 2.3561964 0.62441432 20.1045
3.8356855 2.405391 0.64745212 21.10425
-1.6425494 0.09089911 0.78993779 4
-1.2386888 0.031968564 0.74934286 8.3696671
-1.6514419 0.22571129 0.79980391 6
-1.6602755 0.36103883 0.73261029 9.0454998
-1.3460265 0.34536958 0.75345469 15.035916
1.2715926 0.35660997 0.73204702 9.0933752
-1.6460418 0.42723042 0.7474373 10.04575
1.286801 0.46439189 0.73330224 11.0935
-1.6861823 0.58205199 0.72193682 12.54525
1.3295312 0.58944517 0.72241998 13.094
-1.6875888 0.64736372 0.76634437 13.04575
-1.4658967 0.65083718 0.76791602 20.235699
-1.6701117 0.76503831 0.779921 15.046
-1.5282488 0.76002872 0.75691831 21.53525
1.3500615 0.75673318 0.73751974 16.594
-1.6882093 0.83988899 0.74721056 16.5455
-1.553305 0.87044114 0.76051122 23.03525
1.3677713 0.86758727 0.7843532 18.0935
-1.6866347 0.96146172 0.71698058 18.711832
1.3646668 0.96506643 0.72052455 20.0945
-1.6731287 1.0058672 0.78572458 19.046
1.3709897 1.0659626 0.7591604 21.094
-1.6142744 1.1698755 0.79745501 21.046499
-1.6145809 1.2220197 0.75897604 22.273251
-1.5950984 1.2543547 0.78673953 23.046499
8.0176764 2.1162333 0.72135133 11.106
4.1682281 2.2693496 0.75155598 19.104
4.2639818 2.2781329 0.77179682 18.104
5.2904563 2.2504733 0.71963161 16.105
5.644804 2.2193916 0.75566518 15.105
3.8808825 2.3923914 0.79195225 20.1035
4.0216041 2.333226 0.7652145 19.60375
-1.2321874 0.083476305 0.85042816 9.0380001
-1.2402313 0.13916869 0.89652419 10.705333
-1.2876158 0.27362442 0.83379233 14.0375
-1.6505246 0.39339626 0.86055624 9.0469999
1.351428 0.35898709 0.84808397 8.592
-1.6534477 0.46220425 0.81611103 10.0465
-1.3693815 0.45433342 0.8293587 16.787001
1.3341473 0.44866121 0.84980971 10.342
-1.4361528 0.62908119 0.84879017 20.037001
1.3990599 0.60190427 0.8467505 13.0925
-1.5183915 0.75469327 0.85810947 21.036751
-1.5314351 0.88974774 0.85796332 23.036751
1.4220544 0.83063352 0.86930811 16.092501
1.4051377 0.98467815 0.83938688 19.093
1.3978783 1.0292021 0.82058537 20.09325
-1.6085826 1.178463 0.83985013 21.547001
-1.5976954 1.1975732 0.80100566 22
-1.6122769 1.2112012 0.84003043 22
-1.5941893 1.2701249 0.81511676 23.0235
1.38344 1.289443 0.84684622 23.093
6.1324358 2.190912 0.82661492 14.105
4.6624889 2.2683189 0.83826572 17.104
5.1708817 2.2587745 0.80429941 16.1045
5.3468285 2.2513046 0.83959156 15.1045
3.0481088 2.3272448 0.89828086 23.1015
3.6746817 2.4242857 0.82563663 21.103001
-1.1847404 0.014134236 0.99914473 8.0404997
-1.2403736 0.11110455 0.9873417 10.04
-1.28142 0.22487448 0.91926253 12.53875
-1.6185056 0.39327663 0.98843253 9
-1.3175421 0.34413058 0.91159272 14.5385
-1.6374278 0.46068719 0.94795239 10.024084
-1.37115 0.44115016 0.93995994 16.470222
-1.6322379 0.59076118 0.9658888 12.285714
1.4115435 0.50329071 0.95502877 11.091
-1.4276392 0.63262928 0.95190954 19.5385
-1.387032 0.60470182 0.93241727 19.0385
1.435084 0.60488236 0.93531203 12.0915
-1.5160209 0.74104959 0.91339326 21.0375
-1.48184 0.77447933 0.97146213 21.0385
1.4461168 0.73297954 0.92759013 14.59175
1.4367006 0.87012446 0.97268438 16.841249
-1.6272864 0.96910489 0.92173415 18.125
-1.5250506 0.90437853 0.98357165 23.0385
1.4538201 1.0241153 0.96964687 19.091499
1.4512998 1.1364799 0.92081547 21.092251
-1.5152739 1.2670809 0.99358368 22.5
1.39354 1.2929014 0.92356926 23.091999
5.8749833 2.1852105 0.92564517 14.1045
6.8905535 2.1826663 0.94082421 12.105
4.1632028 2.2649899 0.93641537 18.103001
4.6909385 2.2725987 0.94391388 17.1035
5.0978775 2.2498529 0.90949214 16.104
5.3862643 2.246335 0.96844852 15.104
6.3063326 2.209156 0.99648798 13.1045
4.1426167 2.3325739 0.92830288 19.103001
3.7444298 2.4238441 0.92588758 21.102501
-1.2152331 0.11739734 1.0115402 10.0405
-1.3137308 0.355582 1.0044171 14.7065
1.4532965 0.39768583 1.0639975 8.0897503
-1.373363 0.44027671 1.0347807 16.071899
1.4383847 0.46369922 1.0213736 9.59025
-1.3699702 0.55178356 1.0365406 18.040001
1.4778564 0.59860718 1.0126244 11.59075
-1.620979 0.66614079 1.0333828 13.049
-1.6029093 0.73673904 1.0202245 15.049
-1.4576021 0.70293933 1.0469898 20.039625
1.483853 0.77969974 1.0486499 14.5905
-1.5297296 0.89978713 1.0679951 23.039499
1.4540787 0.86758018 1.0184231 16.59075
-1.550396 0.9518379 1.0428305 20.733786
1.4697365 1.0855862 1.0245483 19.757666
-1.5095394 1.2574713 1.0108347 22.5495
-1.4731587 1.2867889 1.0762205 22.69175
1.4417938 1.2376211 1.0503658 21.479528
-1.4738677 1.3125479 1.0798614 23.050501
4.1452675 2.2485642 1.0629702 18.05125
5.0756955 2.2736104 1.0308217 16.1035
5.4036694 2.2274969 1.0842063 15.1035
5.9678016 2.2005148 1.0767143 14.104
3.9433537 2.3508105 1.0939817 20
4.0664315 2.3154008 1.0102006 19.102501
3.4837825 2.4414601 1.0236598 22.1015
3.5908558 2.4238958 1.0699311 21.1015
3.6822085 2.4157622 1.0081815 21.101999
-1.5827957 0.14151369 1.1611334 5
-1.2413635 0.13667563 1.1004806 10.0415
-1.5819349 0.20578036 1.1632526 6
-1.2669408 0.21327503 1.1079713 11.708167
-1.5907044 0.30721632 1.1403096 8
-1.3531972 0.38165259 1.1245334 14.791125
-1.2984964 0.35237157 1.1190159 14.0415
-1.5632362 0.44030875 1.1999966 10.051
1.5167885 0.45656693 1.167127 8.8390007
-1.4056579 0.53853285 1.1632936 17
-1.3794298 0.51529121 1.1300882 17.041084
1.4889187 0.52178353 1.1153413 10.0895
-1.582294 0.61390811 1.1377021 12.5
-1.4344634 0.64437038 1.1476662 19.041
1.5430508 0.62887836 1.1471533 12.0895
-1.451786 0.74336219 1.1539741 20.541
1.4955517 0.84584415 1.1436565 15.5895
1.5306264 0.82024455 1.1544265 14.711584
-1.494055 0.93411326 1.1646823 22.791
1.4964144 0.93577278 1.1309125 17.08975
-1.509347 1.0569645 1.1593285 19.051001
-1.4872514 1.0879596 1.1462039 20.051001
1.4767594 1.0469605 1.1067038 19.09
1.4924601 1.1244084 1.1662018 19.0895
-1.4463948 1.259286 1.1098076 22.051001
1.3871301 1.356846 1.1697242 22.755667
1.4221895 1.3024178 1.1855664 22.089001
4.0934706 2.2659473 1.1538963 18.5
5.020247 2.2177763 1.1331509 16.103001
6.2115622 2.2062871 1.1204497 13.104
3.874438 2.3560071 1.1448215 20.1015
3.3244052 2.4229436 1.1388398 22.1005
-1.5585638 0.032948595 1.2578292 3
-1.2244853 0.09551166 1.2719901 9.0437498
-1.2681494 0.18264663 1.2232953 10.542875
-1.5822103 0.32273906 1.2156434 8.0509996
-1.3428624 0.3234874 1.2791308 13.043
-1.2992011 0.35584199 1.2038373 14.0425
-1.3436875 0.42356247 1.2189497 15.4424
-1.5301532 0.53184813 1.2858984 11.052
-1.4041479 0.51715738 1.2883929 16
-1.3851789 0.51893252 1.247955 16.709166
-1.412871 0.63406014 1.2748913 18.181
1.562125 0.63511932 1.2225966 11.422166
-1.5215896 0.7299338 1.2238365 14.0515
1.5541511 0.7580837 1.2566105 13.0885
-1.4870265 0.8515408 1.2302773 21.54175
1.545653 0.84262055 1.2462579 14.696334
-1.4773452 0.93974251 1.2701129 22.709
1.5278267 0.96156836 1.2164997 17.089001
1.5047195 1.0609653 1.2340485 17.799999
-1.4139524 1.1855518 1.2372741 21.0525
1.4788449 1.1170974 1.2003515 19.089001
-1.427187 1.2388672 1.2030388 22
1.4034649 1.2851855 1.2394327 22.088249
-1.4169497 1.3825583 1.2687207 23.05275
1.3620012 1.3773448 1.2654076 23.087749
5.9976897 2.1939681 1.2203996 14.1035
4.034843 2.2716734 1.2790464 19.101
4.8192835 2.2917666 1.2003363 17.102501
5.0457196 2.2401209 1.2580773 16.102501
5.4358978 2.226927 1.2280873 15.103
5.6944766 2.2116735 1.2832075 14.103
3.8226559 2.3910797 1.2294209 20.101
3.225774 2.4187624 1.2724962 22.099501
-1.2737525 0.18125759 1.30445 10.54375
-1.5256934 0.26124814 1.3437682 7
-1.2919441 0.21167399 1.3868527 11.0445
-1.5582058 0.3421939 1.3109858 8.052
-1.3660408 0.3598544 1.3870997 13.044
-1.5502257 0.48750642 1.3025618 10.052
-1.3559039 0.44748157 1.3516227 15.271875
1.5739456 0.46656266 1.340284 8.5584993
1.6214248 0.42107314 1.384326 7
-1.4162083 0.58261156 1.3091656 17.042999
-1.4021538 0.62095958 1.3015583 18
1.5692644 0.64107972 1.327745 11.087749
1.5616286 0.76226032 1.3099737 13.088
-1.451529 0.81763238 1.3670301 20.376833
-1.426932 0.95158821 1.384815 19.885511
-1.4326214 1.0020387 1.3615012 23.043751
1.4846296 1.0616245 1.3550482 17.833334
1.507638 1.0578653 1.3050779 18.087999
-1.4073902 1.1741093 1.3454295 20.053499
-1.3778795 1.1952237 1.3359307 21
1.473268 1.1208797 1.3625257 18.58725
-1.3904347 1.2913464 1.3887764 21.554001
1.3906518 1.275931 1.3954282 21.0865
1.4036542 1.2837483 1.3315648 21.08725
5.5876894 1.272658 1.3887784 10.1025
1.3282595 1.3816047 1.3825519 23.08625
-1.383261 1.4332711 1.3583928 23.053749
5.5514345 2.043108 1.3861933 13.55125
4.01192 2.2586818 1.3705989 19.1005
4.1282101 2.231674 1.3157194 18.101
5.0341473 2.2458997 1.3582004 16.101999
5.4518614 2.2173233 1.3572686 15.05125
3.0037301 2.3723927 1.3417583 23.098499
4.8176866 2.3070316 1.3018183 17.101999
3.1478536 2.4142904 1.311932 23.099001
3.6843183 2.411932 1.3554983 21.1
-1.2404269 0.092188179 1.4248524 8.5452499
-1.4787984 0.19328621 1.4404823 5.4285712
-1.3515987 0.37549311 1.4137523 14.0445
-1.3731252 0.44633827 1.4612335 14.633881
1.584905 0.42459756 1.4242562 7.5
-1.4378902 0.6139251 1.4490235 14.52225
-1.3929827 0.65528572 1.4760884 17.666668
-1.3958737 0.704988 1.4272132 18.5445
1.5601828 0.73316997 1.443296 12.54325
-1.4154557 0.91077787 1.4284855 21.5445
-1.3919266 0.94245505 1.4522097 22
1.4953951 0.93232679 1.4355412 16.0865
1.5256015 0.9066599 1.4512311 15.0865
5.3419623 0.97531003 1.4394386 8.1020002
-1.4100522 1.0359377 1.4376768 23.04475
-1.3711282 1.0903935 1.4379249 19.054501
1.4887354 1.0425863 1.4317273 17.333334
-1.37501 1.1436001 1.4701022 19.52725
1.4484916 1.1320403 1.4688661 19
1.3881572 1.2733682 1.4703935 21.085751
5.3510623 1.2106538 1.4574556 9.1020002
-1.358132 1.3079888 1.4732338 21.584833
1.3746486 1.4153796 1.498361 22.085501
5.4287729 1.9404635 1.4466147 13.25
5.5506201 1.9541073 1.404169 13
5.429636 2.0948524 1.4721947 14.102
5.3947001 2.1719828 1.4540709 14.908143
4.039535 2.2535968 1.4431031 18.049999
4.1071792 2.2210388 1.4175729 18.1005
5.0568061 2.2742131 1.4863499 16.1015
2.853106 2.3341973 1.4233899 23.0975
-1.4498342 0.080717042 1.5269797 3.5
-1.245645 0.11605023 1.5040452 9.0459995
-1.3295733 0.39563924 1.5530015 13.546
4.4464235 0.33985212 1.5786083 5
-1.3683029 0.49244195 1.5553076 15.04575
-1.3590668 0.61445343 1.571157 16.772875
1.5931894 0.65024394 1.5270637 11.086
-1.3775991 0.70557654 1.5434124 18.54575
-1.4020859 0.81248224 1.5130877 20
-1.3819165 0.81384015 1.5612859 20.046
-1.3872029 0.98093057 1.5264919 22.29575
1.4871608 0.93530089 1.564476 15.361667
-1.3490039 1.0516115 1.5751864 20.384499
1.4536601 1.0745881 1.5479633 17.585251
4.5410652 1.0001043 1.5620086 9.1005001
1.429601 1.1355586 1.5605563 18.084999
4.5738916 1.2207209 1.5780823 11.1005
5.1102524 1.2772377 1.5117128 10.1015
1.3786079 1.429991 1.5863785 22.084749
1.3415464 1.5453894 1.5985558 23.084499
4.9296861 1.7113589 1.5751081 13.101
5.1830258 1.7785933 1.5200746 13.1015
3.955761 2.2831478 1.5673943 18.799751
4.8068953 2.2746406 1.5225133 16.101
5.2012715 2.2505116 1.535287 15.1015
2.7615743 2.3456841 1.5223162 23.0965
3.1415133 2.3594463 1.5709609 22.0975
3.3309307 2.4140539 1.5684448 22.098
3.44257 2.4261117 1.5216819 21.098499
-1.3796064 0.052804589 1.6447183 3
-1.3551726 0.19444762 1.69768 5.3000002
-1.2588345 0.18356664 1.6702933 10.0475
-1.3278039 0.37078762 1.6498386 12.796875
1.5924908 0.36301643 1.6592526 6.2727275
4.4318833 0.33067429 1.6132718 5
1.5547422 0.5854646 1.6588743 10.0845
-1.3109424 0.69000071 1.662112 13
1.5571753 0.64307851 1.6455442 11.019463
-1.3521715 0.70464993 1.6451937 18.0469
1.5376512 0.75787294 1.6061878 12.085
-1.3612107 0.8484323 1.6240113 20.046749
1.5251479 0.84216386 1.6313177 13.889832
-1.3304919 0.91746497 1.650905 16.028
1.4682099 0.92956233 1.661191 15.084249
-1.3186876 1.0109318 1.6454515 22.348999
4.3451371 1.0327753 1.6429719 10
-1.2791438 1.2825 1.6712623 20.056999
1.4018228 1.2987179 1.6175907 20.084499
4.2637477 1.2236302 1.683911 11
-1.2838237 1.3540477 1.636866 21.556749
-1.2594218 1.4803591 1.6766943 23.057251
4.3120766 1.46788 1.644052 12.5
4.4067779 1.4801373 1.6205872 12.1
4.4146857 1.5337064 1.6212767 13.1
4.2831049 1.6370629 1.635173 14
4.201097 1.8331552 1.6541083 15
4.1097689 1.9337338 1.6997384 16
2.6861503 2.294415 1.6517507 23.095501
3.9624121 2.2904971 1.6307214 19
4.7677069 2.2497303 1.6278453 16.1005
3.7940631 2.3432875 1.6836643 19.098499
-1.237074 0.10638951 1.7426786 8.3815002
4.4279485 0.1626551 1.7495625 3
1.5861206 0.25255215 1.7951679 4.5
4.269464 0.20944463 1.7938411 3.25
-1.294735 0.34884548 1.7477885 9.3684168
4.1777291 0.31879929 1.7604624 5
-1.3011396 0.41053927 1.7254213 13.04775
-1.2789612 0.41230041 1.7856517 12.982584
1.5576652 0.40419984 1.7890644 7
-1.3317895 0.54734439 1.7126803 15.547501
-1.2931292 0.54000342 1.7147565 10.5
4.093152 0.58784157 1.7900681 7
-1.3013859 0.64135373 1.7769377 12.0575
1.5294528 0.6351648 1.705372 10.584
4.2013993 0.65649015 1.7488081 7.4000001
-1.3008393 0.7411691 1.7671934 17.923077
-1.2945247 0.76426888 1.7624546 13.0575
1.5268109 0.75861073 1.7477934 12.08375
-1.3196473 0.91333163 1.7199794 15.556999
-1.295881 0.95001423 1.7566831 18.303001
1.4471627 0.92837554 1.7271935 15.0835
4.2040172 1.0147781 1.7364907 9.5
-1.257603 1.1245455 1.7463207 19.86875
1.4604536 1.1820506 1.7098053 18.084
-1.2545785 1.2865168 1.7409773 20.278751
-1.2460686 1.335942 1.728094 21.028999
4.1264315 1.3947328 1.7550224 12.166667
-1.2389828 1.4134315 1.7209276 22
1.3864807 1.4625058 1.7426274 22.0835
1.3585879 1.595228 1.7341372 23.0835
4.1195197 1.7727789 1.7072079 14.8
4.0835314 2.0562027 1.7209446 17
3.833607 2.2165258 1.7785712 18.222221
3.1851685 2.3910499 1.7614983 22.0965
3.6983006 2.350975 1.7974776 19.5
2.94525 2.4107471 1.7987032 22.095501
3.0218754 2.4128194 1.7543278 22.096001
4.1378722 0.15673275 1.8933785 2.5
-1.2758226 0.28268102 1.8671666 6.5
3.3288131 0.29635596 1.8790445 4
-1.2585291 0.34770149 1.8505163 10.789
-1.2824894 0.45987514 1.8467004 11.029125
-1.2928951 0.5025869 1.8481197 10.058
1.5754508 0.52863193 1.8637197 9.0830002
-1.2885748 0.63287729 1.846311 11.621982
3.0786006 0.68912369 1.8889432 9.0955
3.2188406 0.69731456 1.8808533 8.0959997
-1.26727 0.78965998 1.8550785 15.803875
1.5506461 0.75858688 1.8858823 11.5415
3.9222302 0.76162165 1.8395183 8.0979996
-1.2417284 0.84931833 1.8421577 17.786001
1.5573272 0.85634553 1.8873026 13.083
3.3501725 0.80494469 1.8508248 9.0965004
4.0999198 0.87418485 1.8095285 8.5
-1.2386261 0.97068787 1.8445858 17.602835
-1.2274767 1.0872461 1.8370149 17.0585
1.5119389 1.0108968 1.8692034 15.083
-1.2226171 1.1514792 1.8247001 18.0585
3.8786333 1.122867 1.8788986 11
3.9311016 1.1136926 1.8500983 11
4.0728717 1.1044565 1.8073056 10
-1.2155426 1.2501135 1.8205788 19.5585
-1.1993434 1.2340523 1.8694538 19
3.7950006 1.2630523 1.897635 12
-1.1853442 1.3211139 1.8660915 20.059
3.7972956 1.4592201 1.897447 13
3.9027786 1.4944288 1.8593408 13.4
3.8351963 1.8200152 1.8606038 15.7
2.678957 2.3649342 1.892711 23.094
2.8502159 2.3935585 1.8290615 23.094999
3.5720942 2.3806422 1.87431 20.097
3.6519802 2.3561604 1.8138615 20.0975
3.422365 2.4127223 1.8856022 21.0965
2.9708922 0.093417019 1.9903862 2.5
3.2924497 0.059844844 1.9281298 2
-1.2070048 0.2219349 1.9413606 10.05
-1.1679244 0.29407948 1.9918599 10.5
2.9648066 0.22951004 1.9603276 4.1999998
3.3064539 0.22500956 1.9158014 3.3333333
-1.2047049 0.31640702 1.9222224 11.05
3.0658636 0.31396478 1.9050382 5.5
-1.2679473 0.47051778 1.9280787 9
1.6042784 0.43444061 1.9559278 7
-1.2038242 0.53501028 1.9591206 14.5505
1.5536907 0.53870022 1.9830343 9.0819998
2.9394188 0.59302747 1.9497052 7.75
3.0821185 0.55311507 1.9001373 7.5
-1.1953168 0.68928289 1.98834 12
1.5746479 0.63317722 1.9389205 9.75
3.0832767 0.69115311 1.9028076 9
-1.2109576 0.76265085 1.9669049 17
1.5505699 0.73592442 1.944068 11.416223
-1.2167916 0.92464644 1.9185903 20.050501
-1.1895062 0.91871881 1.9614764 15
1.5135145 0.94783914 1.9645662 14.332251
2.8035941 0.93547082 1.9755737 11
2.9160004 0.9643603 1.9547706 11.0945
-1.2174585 1.0865227 1.9122577 17.059
-1.1857803 1.0429391 1.96032 16.529751
2.7814226 1.0603733 1.9780223 12
3.1362786 1.0309129 1.9194604 11.0955
3.0328538 1.1427435 1.9241883 12.615001
-1.1763766 1.2112755 1.9356745 19.0595
1.483899 1.244527 1.9447831 18.0825
2.9195812 1.2782924 1.951085 14.04725
3.0827594 1.2978361 1.9163969 14
3.1283898 1.2575228 1.9150785 13.0955
2.7254002 1.3296585 1.9862993 14.666667
3.0299497 1.3242556 1.9426771 14.095
2.8486207 1.4193869 1.958703 15
3.0372424 1.4790685 1.9516834 15.095
3.4989309 1.4195105 1.9378242 14.0965
2.9157121 1.5917895 1.9577264 16.0945
3.6769762 1.5730802 1.9396194 14
3.6649821 1.7363391 1.9360312 15.5
3.5704448 1.9361346 1.9757529 17.0965
3.6507902 1.9798779 1.9386792 17
3.6560998 2.0968988 1.9302105 18
3.5625937 2.1298122 1.9621258 18.0965
2.5699611 2.3693719 1.9798347 23.093
3.4477847 2.4163568 1.9580265 20.596251
-1.1418544 0.13884486 2.0551782 8.2007504
2.8653126 0.17684735 2.0473983 3.25
-1.1723962 0.29668969 2.0312757 10.551
-1.2128083 0.34678671 2.0249383 7
-1.1369656 0.3050645 2.0852914 10.718333
1.5817713 0.3636964 2.0867896 6
1.6171148 0.34193316 2.0693159 5.5625
-1.2175771 0.46398902 2.0256 8.5
-1.1718267 0.43040445 2.0318968 12.517083
-1.180446 0.58196521 2.0392804 10
2.8075774 0.53546244 2.0204923 7.3333335
-1.1010355 0.62991703 2.0854788 15.5
1.5415694 0.68444294 2.0605981 10.0815
-1.1723825 0.7232945 2.0479684 17.0515
1.5414639 0.78859347 2.0090427 12.082
2.6947858 0.74589044 2.0630169 10
2.7956023 0.703107 2.0037599 9
-1.1481298 0.86324215 2.0643308 16.867834
-1.1611218 0.9625209 2.0514011 18.864401
-1.1564204 1.0488372 2.0465145 18.037333
-1.1627144 1.2575998 2.019465 19.059999
2.6612952 1.2886963 2.0180101 15
2.55158 1.3716449 2.0695601 15.375
2.5917325 1.5192018 2.0236371 16.5
2.7414222 1.5321726 2.0288212 16.0935
2.84113 1.5770651 2.0063775 16.094
2.7505488 1.6518046 2.0298221 17.0935
2.4584033 1.8899378 2.0778861 20.091999
2.7210791 1.8953172 2.0111196 19.0935
3.4342937 1.8619784 2.0014811 17.096001
2.6372261 1.9054322 2.0412457 19.093
3.0083356 1.9461721 2.0299103 19.0945
2.4688487 2.0759239 2.079951 21.091999
2.7939005 2.0919721 2.0566719 20.0935
2.3672838 2.3301756 2.0829799 23.091499
2.4769104 2.3663075 2.096859 23.091999
2.5407462 2.3290889 2.052762 23.092501
2.7491715 2.3638601 2.0749519 22.09325
3.0992105 2.3298106 2.0883899 21.0945
3.1373668 2.4452221 2.019798 22.094999
3.249332 2.4348595 2.0345347 21.095249
-1.0176741 -0.049509928 2.1981688 5
-1.1099106 0.06487868 2.1000946 6.7142859
-1.0373839 0.1367892 2.1521592 4
-0.97102165 0.13919805 2.1989415 4
-1.1239613 0.27150804 2.1345568 10.052
-1.0509501 0.23142937 2.1751547 7.6031733
-1.1356387 0.33057544 2.1693914 7
-1.0738039 0.34973514 2.1677094 11.05275
-0.84733623 0.42576215 2.1763203 8.0635004
-1.1210272 0.55630636 2.1265705 12.613636
-1.0824152 0.54089844 2.1416144 14.05275
2.5900764 0.5834235 2.1504138 8
-1.1416188 0.66404432 2.1421714 15.4
-1.1253999 0.76753503 2.1730118 15.388888
-1.1623951 0.89293945 2.1225221 18.5
2.5354676 0.99536264 2.1435432 12
-1.107789 1.0579503 2.1637511 20.5
-0.7734623 1.5986091 2.1043918 23.063999
2.1706238 1.7384671 2.1887298 19.09
2.2458768 1.7747253 2.1586576 19.0905
-1.3112624 1.8575587 2.1611249 23.0595
2.3237793 1.8161649 2.1356537 20.091
2.0835912 1.9641778 2.1682713 21.5
2.1393106 1.9240574 2.1469996 21.09
2.2154138 1.9630044 2.1375055 21.0905
2.2007236 2.0782962 2.1221287 22.0905
1.960165 2.118356 2.1950271 23
2.1521645 2.2596226 2.1615546 23.09
2.4110377 2.2344072 2.132221 22.091499
2.2299912 2.3005919 2.1420798 23.0905
-1.036043 -0.1368299 2.2037601 4
-0.98502982 -0.053928982 2.2286136 5
-0.99692929 0.052257687 2.2295437 6.5
-1.0453998 0.1614105 2.201705 8.0530005
-0.85421008 0.12775157 2.2317281 4
1.8226577 0.19291522 2.2969666 4.2222223
-0.86425161 0.28186566 2.2512875 6
1.6371986 0.27935198 2.2853913 5.5
2.573873 0.21747468 2.2142627 3.75
-1.0375055 0.35275304 2.2949476 10.55375
-1.0972364 0.4951421 2.2699594 9
1.640296 0.42922369 2.2924771 7.5
-1.0809296 0.51631469 2.2553363 13
-1.0986043 0.67524338 2.2068698 11
1.6131729 0.61415064 2.2139063 9.0810003
-1.072955 1.0605303 2.2731309 20.054001
2.2242198 1.0308889 2.2953987 12.6
-1.0690798 1.1596154 2.2941844 21.054251
2.2255294 1.3389392 2.2572255 15.454545
2.2698014 1.4458114 2.2019629 17
2.0547531 1.6906232 2.2650347 19.0445
2.11659 1.7110518 2.217644 19.0895
2.0269623 1.8636805 2.2345746 20.375
-1.3025975 1.9311606 2.2623298 23.059999
1.7758704 2.0602095 2.2533648 23
1.8227302 2.0757604 2.2646654 22.6
1.7589827 0.09993884 2.3549464 2.5
1.885646 0.082485497 2.3439245 2
2.0229616 0.081628948 2.3814588 2
2.3259163 0.0087293237 2.3477104 1
-0.97803307 0.15661803 2.3892875 8.0544996
2.2058556 0.16124195 2.3335292 3.2727273
-1.0470679 0.24701816 2.3410912 8.80375
2.0618773 0.38619968 2.3205647 6
-1.0500987 0.49162263 2.3606205 10.531
1.8253497 0.5700931 2.3290021 8.666667
2.1278179 0.51006186 2.3134565 7.5
1.9139072 0.66041356 2.3435938 9.5
2.160512 0.61991811 2.3112154 8.8888893
-1.0292372 0.74844158 2.3848929 15.5
1.6738908 0.71063125 2.3474524 10.08625
1.7572875 0.74184787 2.3615935 10.58675
1.85366 0.75197482 2.3597555 10.754001
-1.0472256 0.87069511 2.3480208 16.790751
1.7411437 0.83960414 2.3894606 12.0865
1.8577801 0.86920071 2.384052 12.08725
1.92071 0.84597635 2.3838024 11.5
-1.0487454 0.94508171 2.3040786 18.610416
1.9482501 0.98895752 2.3874753 12.5
-1.0327573 1.0569365 2.3575177 19.55475
1.8415377 1.3355105 2.3974118 16
1.8279898 1.4214013 2.3937814 17
1.8771074 1.6322713 2.3562121 19.0875
1.6155063 1.7808454 2.3974411 20.080999
-1.2841295 1.8910278 2.3302631 23.060499
1.8521812 1.8358266 2.321913 20.5
1.5812061 2.0366404 2.3765767 23.085501
1.6201051 2.0189879 2.3843715 22.585751
1.6833233 2.1005805 2.3086827 23.0865
-0.94781446 0.038417861 2.4389355 6
0 0.021545418 2.476526 3
-1.0043042 0.23243013 2.4233832 8.5
-0.98546839 0.2855618 2.4173336 9.333333
-0.98618567 0.35953623 2.4220722 10.2
-0.97088063 0.58132428 2.4520812 13.05525
-1.0073191 0.67320305 2.4413033 14.055
-1.0051185 0.7047528 2.4093266 15
1.6816496 0.80607307 2.4095433 11.086
1.6964331 1.0033396 2.4286857 13.086
1.7456406 1.0779699 2.4439507 13.5
1.6814665 1.1021652 2.4234157 14.086
1.6911989 1.2778256 2.4749665 15.5
1.7384133 1.3656881 2.4957457 16.299999
1.6511332 1.4132642 2.4835651 17.085501
-1.2417343 1.5911852 2.4994655 19.061501
1.6550931 1.5808828 2.4991872 18.085501
1.7046864 1.5427487 2.4500299 18.042999
1.761776 1.6671127 2.4228585 19.333334
1.6397456 1.7509073 2.4624903 20.085501
1.704631 1.7735001 2.414139 20
1.5846918 1.9928453 2.4850829 22.0805
-1.2293406 2.0197899 2.4929531 23.061501
-0.83831859 -0.109405 2.5790288 4
-0.90292114 0.038807496 2.506649 5.8333335
-0.87412226 0.067378789 2.56271 6
-0.92086726 0.27827632 2.5468023 9.0557499
-0.93794966 0.48100102 2.5409431 11.55575
-0.92366678 0.58856267 2.5430427 13.056
1.7761565 1.1057507 2.5000737 13.714286
1.6792734 1.3397886 2.5424356 16.085501
-1.2505356 1.7959093 2.5413258 21
-1.2242957 1.8489666 2.5602787 21.465113
-1.2110338 1.932157 2.5851533 22.062
1.6413184 1.9010885 2.5383785 21.0805
-1.2100388 2.0205979 2.5276651 23
-1.1855836 2.0608985 2.5483189 23.062
1.5815781 2.0234315 2.5928118 22.08
-0.87147379 0.30720121 2.6218753 9.0565004
1.698149 0.83798277 2.6872258 11.085
1.661378 1.1127656 2.6691873 13.5
-1.2214003 1.5957586 2.6112504 19.062
-1.1711322 1.7988243 2.6943145 20.5
1.6264888 1.8464468 2.6185145 20.08
1.6143428 1.9623549 2.6170545 21.08
-1.1406627 2.0806651 2.6398191 22.666666
1.5667523 2.0341721 2.6805439 22.0795
-1.1553195 2.1203899 2.6233749 23.0625
-0.84221369 0.28720385 2.7330365 9.0570002
-1.1545628 1.4264253 2.7814345 17.063
1.7542332 1.4173084 2.7060468 16.08
1.6935946 1.5129682 2.7591507 17.0795
-1.1502606 1.6778982 2.7382514 19.2815
-1.1345756 1.8350697 2.7418957 21.063
1.6157736 1.8440353 2.7419217 19.859833
-1.0792779 1.9989815 2.7799172 22.063499
-1.0651094 2.0518019 2.7337329 23.063499
1.558169 2.047581 2.7342789 21.359667
1.5583445 2.1926928 2.7003071 23.0795
1.4525514 2.2869391 2.740391 23.08325
1.5645968 2.2910557 2.7286415 23.084
-0.28616238 0.2394772 2.8379154 5
-0.92479336 0.57309788 2.8539836 12.057
1.8728136 0.74688011 2.8614824 9.0795002
-1.1627759 1.0122584 2.8082423 13.063
1.8105477 1.1603622 2.8540769 13.0795
-1.1293033 1.3637353 2.8845427 16.063499
-1.1306782 1.4481125 2.8975677 17.063499
1.7577156 1.4388993 2.8261538 16.0795
1.6730059 1.5648608 2.8393784 17.079
-1.115465 1.7434213 2.8422153 19.063499
1.6344452 1.7432952 2.8284428 18.079
-1.0752386 1.8234019 2.8461533 20.063749
-1.0302899 2.0589411 2.8266916 22.063999
-1.1383836 0.63438773 2.9220736 9.0635004
1.8772708 0.79709774 2.9821422 9.0790005
1.7068632 0.8856023 2.9653676 11.084
-1.1362295 1.059021 2.9262388 13.0635
1.6848158 1.0971158 2.9370055 13.084
1.8069543 1.0417236 2.9978974 11.578751
1.7661259 1.1733012 2.960305 13.078751
-1.1046209 1.2939903 2.9600883 15
-1.1201075 1.3192797 2.9722502 19.056499
1.7808151 1.3004397 2.9514565 14.079
-1.1251355 1.4521693 2.909878 17
1.7333416 1.4423302 2.9121041 15.079
1.6446508 1.6293943 2.9322639 17.078501
-1.0046695 1.7646593 2.9361968 19.064501
-0.99504286 1.8577365 2.9265442 20.064501
1.4545521 2.29529 2.9735987 22.0825
1.469534 2.3986449 2.956203 23.077999
1.6760886 2.3183322 2.9325683 22.084
1.5756501 2.4349499 2.9851103 23.078501
1.9123335 0.44147265 3.0428238 5.25
-1.1210817 0.6549527 3.0658927 9.0640001
1.8981831 0.63129425 3.0307765 7.5
-1.1075195 0.78554094 3.054575 10.032
1.8489407 0.73580164 3.034116 8.5
1.8259906 0.84284198 3.0300863 9.5
-1.0971749 0.99407709 3.0412822 12
1.8222665 0.97652423 3.0748963 11.0785
-1.1059525 1.0368228 3.0180626 13
1.7549584 1.0999534 3.0188482 12
1.7397121 1.2036412 3.0092742 13
-1.0267773 1.34671 3.0671253 15.4
1.7494081 1.3016096 3.0149002 14.0785
-1.1112665 1.4345064 3.0274129 20.056749
-1.0374818 1.4509664 3.0439715 16.564501
1.7263149 1.4592409 3.0117896 15.0785
-1.112178 1.564159 3.0655224 21.056999
-1.0876075 1.6513907 3.0962894 21.5
-1.054572 1.8668643 3.0978112 23
-0.95283949 1.8069671 3.0165236 19.065001
-0.96327108 2.0614707 3.0524349 21.065001
-0.75195456 2.2570622 3.0626044 23.0665
-0.64861143 2.2740388 3.0664062 23.067249
-0.43790501 2.2596109 3.0123224 23.06875
0.19370362 2.2777185 3.0707414 23.0735
0.59839445 2.2758822 3.0306959 23.0765
0.663459 2.3204517 3.0549126 23.077
1.2140861 2.3140047 3.0451758 23.076
1.3147744 2.3500583 3.0068679 23.07675
1.6335781 2.3164048 3.0112922 22.0835
1.4427578 2.4349661 3.0574086 23.077499
1.9306122 0.26091361 3.1106606 3.5
1.8941051 0.33163601 3.1925638 4.2857141
1.8622597 0.42455512 3.1984544 5.5
-1.0737019 0.62264216 3.1392405 8.0644999
1.8257321 0.64975989 3.1931791 7
-1.0658275 0.760988 3.1230159 10.0645
1.8194907 0.77230674 3.1597209 8.6999998
-1.0371509 1.0104125 3.1238983 12.142858
1.7871896 1.0360836 3.1203971 11.5
1.7490727 1.106895 3.135 12
-0.95131099 1.268573 3.1502366 15
1.7100519 1.2851269 3.1280358 14
-1.0560716 1.3165598 3.1853809 18.057501
-1.0610057 1.4311883 3.1573346 19.057501
-0.97756886 1.4683547 3.1099188 16.5
-1.1135806 1.5656343 3.1145816 20
-1.0661856 1.5463537 3.1433797 20.057501
-1.0904893 1.6373116 3.1252532 21
-0.92401141 1.6134831 3.1449854 17.0655
-1.0122287 1.8323405 3.1898422 22.25
-0.91642612 1.8993833 3.1803927 23.059
-0.84165305 1.8858244 3.1428418 20.066
-1.0308267 1.9235803 3.1026328 23
-0.96346283 1.964362 3.1813312 21.562
-0.83501065 1.9989185 3.1042418 21.066
-0.83052492 2.2812872 3.1054492 23.066
-0.0067379153 2.2942207 3.1864738 23.072001
0.1335571 2.2796853 3.1474493 23.073
1.1282495 2.3229415 3.1730964 23.075001
1.8538941 0.47639072 3.2841713 6
-1.0289766 0.6231373 3.2244408 8.0649996
1.8142205 0.66776264 3.2600999 8.0775003
-1.0125712 0.70462173 3.2372799 9
-1.0152746 0.84880799 3.2262628 10
1.8088863 0.80292773 3.2830427 9.0775003
-0.94081128 0.94852912 3.2871308 11.466667
-0.91158575 1.1258514 3.2815046 13
1.7408117 1.1438396 3.239552 12.0775
-0.90179259 1.2686176 3.2689519 14.5
-0.88393909 1.2273792 3.2907984 14
-0.96050537 1.3761858 3.2932463 18
1.8432012 1.4181895 3.224447 14.084
-1.0152817 1.5581985 3.2910275 19.4
-0.98293638 1.6518685 3.2489998 20.5
-0.89072478 1.6154727 3.2771924 17.066
-0.91144085 1.7183856 3.2328038 21.059
-0.86460423 1.8951936 3.228034 23.0595
0.66332787 2.2497003 3.2636249 23.071501
0.72262383 2.2568734 3.2282574 23.072001
0.86566031 2.2982545 3.2494662 23.073
0.92469072 2.2943797 3.2090266 23.0735
1.0197031 2.2680159 3.234159 23.073999
-0.15296307 2.3065114 3.2801337 23.070999
1.0870035 2.3115692 3.2240906 23.074499
1.6069371 2.3495212 3.2778764 21.0825
-0.98549938 0.2904723 3.3255985 5
1.8663529 0.26039535 3.340564 4
1.8403448 0.3904382 3.3516061 5
-0.93430519 0.44760549 3.3684034 7
-0.87521052 0.76690048 3.375356 11.02925
-0.97686708 0.87064135 3.3277643 13.058
-0.98696792 0.9941721 3.3154631 15.058
-0.97524691 1.1911751 3.3933856 16.142857
-0.96616983 1.2837584 3.384398 17.0585
-0.9553768 1.3815374 3.3035078 18.0585
-0.8968538 1.4994016 3.3256593 16.066
-0.96920931 1.5831324 3.3769658 19
-0.81484848 1.7440901 3.392096 21.059999
-0.4425661 2.1222317 3.3956752 23.063
0.27659178 2.1913559 3.3256066 23.068501
0.34977323 2.2060852 3.3564351 23.069
0.49099505 2.2347405 3.3736739 23.07
0.57712817 2.2400684 3.3141851 23.070749
1.0191984 2.2823744 3.3277383 22.07375
-0.29704043 2.3216605 3.3701396 22.07
-0.15164033 2.3382988 3.3710959 22.070999
1.5566067 2.3561985 3.3625262 21.082001
-0.91073561 0.29251477 3.4071779 5
-0.86040801 0.47802249 3.4917078 6.5
-0.8663736 0.63312513 3.4565597 9.5295
-0.85389161 0.74648625 3.4751191 10.2795
-0.93708122 0.92276144 3.4137063 13.25
-0.96360731 1.0391345 3.4370339 14.686168
-0.93482137 1.2545602 3.4598141 16.5
-0.92368573 1.3260547 3.4647746 17.059
-0.93765998 1.4686393 3.4490972 18.059
-0.87428921 1.4868909 3.4880383 18.0595
-0.93873703 1.6087497 3.402405 20.059
-0.87147152 1.6258632 3.4186044 20.0595
-0.85637778 2.103143 3.4019918 23.059999
-0.65976679 2.1008623 3.4461012 23.061501
-0.2450643 2.1458242 3.4860303 23.064501
0.059967145 2.1831799 3.4630008 23.06675
0.22036393 2.2353456 3.4175632 23.068001
0.42243385 2.2469127 3.4411716 23.0695
0.88147116 2.2949023 3.4838765 22.0725
0.94815171 2.2931848 3.4488053 22.073
-0.46322381 2.3437412 3.4779592 22.069
1.1613548 2.3430023 3.4306059 21.0795
1.5081637 2.3657179 3.457695 21.081499
-0.84070343 0.27367437 3.5023141 4.5
-0.84804797 0.50722659 3.5670109 9.059
1.8349117 0.69020784 3.5608943 8.0830002
-0.80495936 0.80827719 3.5519381 12.0595
1.8516511 0.94921768 3.5503266 10.5
-0.87002337 1.0311092 3.5437343 14.30925
1.8400811 1.0723641 3.550909 11
-0.83974385 1.1556354 3.5308704 15.0595
1.8484737 1.26004 3.5522127 12
-0.31232983 2.1273167 3.5601768 23.063999
-0.17146336 2.134855 3.5576479 23.065001
-0.076995298 2.1604691 3.5272121 23.06575
0.16868813 2.1868885 3.5527501 22.567499
0.53656697 2.2849045 3.5916343 22.07
0.031352691 2.334331 3.5323467 22.07225
0.83712417 2.3237348 3.5974805 22.072001
1.378966 2.3662577 3.5686579 21.0805
1.4442917 2.3554385 3.5232406 21.080999
-0.8414064 0.34516257 3.6211939 8.059
-0.79249161 0.34794611 3.6986287 8.0594997
-0.81104159 0.54341406 3.6985245 9.0594997
-0.77090931 0.55174208 3.6906629 9.5
-0.80518454 0.69885129 3.6081476 11.0595
1.8756484 0.78230304 3.624934 9
-0.76256639 0.8404479 3.680393 11.833334
-0.78989959 1.1036531 3.6591208 14.06
-0.61751062 2.1382771 3.6951184 22.062
-0.31781954 2.1406209 3.6762006 22.063999
-0.24316733 2.1424985 3.6214054 22.064501
0.039861094 2.1739571 3.6685996 22.0665
1.8931433 2.2906995 3.6562107 19.083
-0.82612216 2.3830309 3.6698718 21.066999
-0.73289782 2.3751338 3.6310663 21.067499
-0.55625361 2.370014 3.6035082 21.068501
-0.40657085 2.3894358 3.6170547 22.0695
-0.17114879 2.3435822 3.6812556 21.070999
-0.088260673 2.3422303 3.6320183 21.071501
0.079223894 2.3917882 3.661298 21.0725
0.63391733 2.3857696 3.6035271 21.076
1.0471088 2.3678422 3.6143754 21.078501
1.3129857 2.3620493 3.6358302 20.08
1.4045771 2.3732827 3.6216938 20.0805
0.72265685 2.4121597 3.6938941 21.0765
1.7139485 2.4636183 3.6304259 21.077
-0.65665329 -0.059871286 3.7801943 3.5
-0.66757894 0.058069333 3.7721498 4.7142859
-0.73674881 0.3424845 3.7386956 7.5
-0.71473241 0.41375208 3.7369752 7.8571429
-0.74715656 0.74185276 3.7090936 11
-0.71202111 0.83359271 3.771493 12.0605
-0.40647095 2.1413095 3.7365365 22.063499
-0.10711227 2.176883 3.7503121 22.0655
1.7483786 2.2990785 3.7615905 19.082001
0.79589009 2.3162463 3.7013524 22.071501
1.1788077 2.3615713 3.781579 20.079
1.2515942 2.3701286 3.7223084 20.0795
1.8238592 2.3090823 3.7207825 19.0825
1.6384687 2.4467969 3.7530897 20.07625
-0.67502236 0.15209092 3.8012791 5.5
-0.64053279 0.44522029 3.8335104 8
-0.88087153 2.1530089 3.862071 22.060499
-0.56458402 2.1675496 3.8754144 22.0625
-0.48272824 2.168541 3.8133175 22.063
-0.18101607 2.1712458 3.8593938 21.065001
1.5485146 2.2878258 3.8832753 19.08075
1.6616505 2.2914262 3.8101852 19.081499
-0.52377707 2.38223 3.8988914 20.069
-0.42762676 2.3552959 3.8237927 20.0695
-0.34138101 2.3738301 3.8166645 21.07
0.66617817 2.3312573 3.8254118 21.570499
0.82789195 2.3599644 3.8142171 20.077
0.9191342 2.3927953 3.8699706 21.072001
1.037081 2.3503439 3.8833258 20.077999
1.1134969 2.351299 3.8267517 20.078501
1.5622127 2.4453003 3.8881578 20.0755
-0.94966364 1.946425 3.960408 20.059999
-0.73499489 2.1675277 3.9905381 21.061501
-0.24804936 2.1657295 3.9071572 21.064501
1.9429406 2.1750269 3.9459476 18.0825
1.3403308 2.2758217 3.9937828 19.0795
1.4330833 2.2662497 3.9756644 18.58
1.644538 2.2502325 3.9986224 18.080999
2.1371791 2.2494969 3.9209039 18.0835
-0.80750173 2.3716052 3.9977331 20.067499
-0.64893794 2.3723052 3.9296107 20.068251
-0.096670128 2.383795 3.9562807 20.071501
0.41598439 2.380754 3.9233823 20.074499
0.60626817 2.3518398 3.9695456 21.07
0.96492392 2.329391 3.9570656 19.577499
1.0488644 2.3427203 3.9641359 19.077999
1.7988603 2.3867676 3.9565055 19.0765
1.1186907 2.4103031 3.9489288 21.073
1.5028621 2.4321914 3.9647889 20.075001
1.9887199 1.5833416 4.0664911 13
1.9612796 1.6824669 4.0923305 14
1.9696831 1.760892 4.0860624 14.5
2.0105491 1.7026774 4.0946031 14
1.9602951 1.8282307 4.0453806 15
-0.8259275 2.143841 4.0006633 21.061001
-0.42346644 2.199136 4.017827 21.063499
1.8836186 2.1873128 4.0514107 17.082001
1.1806492 2.2591739 4.0682216 19.078501
1.2737185 2.2397416 4.0509596 18.579
1.3605995 2.2377124 4.035069 18.0795
1.8948199 2.2234282 4.0809679 18.082001
2.0772667 2.258074 4.0223026 18.083
-0.73331332 2.3651876 4.0983291 19.068001
-0.0087284688 2.3828871 4.055028 20.072001
