# .PCD v0.7 - Point Cloud Data file format
VERSION 0.7
FIELDS x y z intensity
SIZE 4 4 4 4
TYPE F F F F
COUNT 1 1 1 1
WIDTH 560
HEIGHT 1
VIEWPOINT 0 0 0 1 0 0 0
POINTS 560
DATA ascii
0.29975975 2.6646242 -4.5190754 18.134001
-1.7337698 2.4799237 -3.7182496 20.01
-2.0475888 2.4948485 -3.567951 20.011999
-1.9575992 2.5016737 -3.3993671 21.011999
-1.4241587 2.5344906 -3.340328 22.509251
-0.086328492 2.5359392 -3.224458 23.1355
0.10837831 2.5655489 -3.2439828 22.384251
0.23899055 1.9609396 -3.034183 19.133751
-0.0076593049 2.5427032 -3.1758432 23.135
0.20369554 2.4905341 -2.9643018 23.133499
0.39656371 1.8045385 -2.7747905 19.1325
0.47432047 1.690259 -2.6645036 18.506874
11.505632 1.9753596 -2.6575232 8.1132498
0.39046818 2.0561376 -2.5737348 22.132
0.50026971 2.0367804 -2.4159093 22
8.4858227 2.1226223 -2.4613211 10.1145
9.3385019 2.0848842 -2.6825416 9.1145
10.181897 2.002733 -2.7013683 9.1140003
0.64598954 1.5523335 -2.2873111 19.129999
0.59993702 1.8779696 -2.277962 21.629999
0.52275819 2.1269977 -2.3253171 23.130501
7.1594534 2.2102437 -2.2181251 12.115
7.2366056 2.1714478 -2.096951 12.1145
8.6235085 2.1060672 -2.2789841 10.114
8.8066587 2.0937641 -2.1181507 10.1135
9.7026825 2.0556116 -2.242861 9.1132498
10.483869 2.0123322 -2.0331366 9.1125002
10.836986 2.0352845 -2.1381509 8.1125002
0.69551462 0.65326858 -1.8346415 10.729151
0.73994857 0.89353526 -1.7262079 14.346125
0.64510077 1.3099213 -1.6906227 21.482775
-2.1252761 1.8053112 -1.749314 23.00975
11.281337 1.9709435 -1.938935 8.1120005
4.9313183 2.339469 -1.6647482 16.615499
5.3359361 2.299422 -1.7291001 15.11525
6.2985907 2.2143321 -1.8116531 13.1145
6.6078615 2.2013369 -1.9170585 13.1145
6.8163128 2.1711929 -1.6409684 12.1135
7.4891648 2.1412849 -1.8887727 11.11375
7.8129382 2.1565104 -1.7229137 11.113
9.0678873 2.0644097 -1.8766263 10.11275
9.3838701 2.060317 -1.632302 9.1120005
-1.8381089 0.27906302 -1.2552994 8.4523325
-1.9284569 0.62766105 -1.2584201 11.181666
0.90089756 0.62768495 -1.42339 11.317654
-1.8917643 0.88794726 -1.2011702 15.023
0.74631953 0.9901585 -1.4671166 18.675751
0.87902504 0.9529919 -1.365205 16.768412
0.7281577 1.3989131 -1.444698 22.323822
0.80389208 1.3373743 -1.223785 22.5
-2.1246395 1.6785219 -1.5524421 23.011
2.4949155 2.0041423 -1.2195791 23.1185
3.9263163 2.3523123 -1.4440857 19.449499
4.1126537 2.3098202 -1.3290786 18.512583
4.67629 2.3258533 -1.2445927 17.114
4.9804282 2.3488941 -1.5152946 16.614832
5.3784175 2.2977827 -1.3610773 15.447083
6.5191922 2.1801808 -1.421909 13.113
6.9634004 2.1873264 -1.3710879 12.1125
7.9084029 2.1194363 -1.5606962 11.1125
8.1653709 2.1157999 -1.3292899 11.11175
8.7200308 2.1325345 -1.3083476 10.1115
8.9270411 2.1378877 -1.5435789 10.112
9.4325438 2.0180514 -1.4398477 9.1114998
9.926549 2.0973086 -1.2782484 9.1110001
3.1256487 2.4360771 -1.2756457 23.117001
3.2946782 2.4543648 -1.2270515 22.116249
3.7754397 2.4330409 -1.3138578 20.490749
5.0373163 2.4238079 -1.2236367 17.113501
-1.8073629 0.28382972 -1.0360062 9.2275667
0.72143859 0.30046523 -0.92563492 10.851111
-1.8358334 0.59718043 -0.98649877 13.492739
0.39008659 0.59279132 -0.89643919 16.129
0.74506855 0.63302046 -0.94160581 18.265059
0.98479831 0.65538794 -0.98174882 14.108833
1.5320597 0.77993387 -1.0627915 15.122
1.7016891 0.63052195 -1.0742391 12.7475
-1.8557296 1.0005326 -0.97442937 17.922014
0.78694618 0.86835992 -1.0646143 21.879499
0.98772556 1.0057213 -0.97011346 19.685776
1.5008926 1.0254809 -1.0427959 19.097799
1.6276339 0.97589779 -1.0373973 17.580833
-1.8319157 1.3569688 -0.95708382 21.453535
0.91226375 1.3081282 -1.0719904 22.505478
1.3824946 1.2260466 -1.0028902 23.122499
10.643128 1.9381505 -1.0137243 8.1102505
3.1253223 2.383424 -0.94970345 23.114832
4.209836 2.3137112 -1.01327 18.738501
4.5981951 2.2810755 -0.95694542 17.612751
4.988203 2.3156745 -0.89685673 16.778833
5.3762345 2.298378 -1.0044987 15.512299
6.7284994 2.1801207 -1.1790726 13.112
7.4051433 2.176868 -1.1101346 12.1115
8.5917759 2.1357126 -1.0115051 10.11075
10.150616 2.0097413 -0.97638696 9.1102505
3.0716515 2.417871 -1.1426992 23.116249
3.4253676 2.4339411 -0.984945 22.281166
3.7680852 2.4479761 -0.95426071 20.86375
-1.7900131 0.29263416 -0.61031163 10.577187
-0.7705251 0.15624131 -0.48148197 11.0105
0.76059467 0.37337837 -0.77238166 13.459667
0.99888372 0.34748173 -0.55694795 9.1170626
-1.8392335 0.56107771 -0.58444887 13.574529
0.761522 0.5564639 -0.78038645 17.793081
1.0103581 0.60921025 -0.59396797 14.39745
-1.8139375 0.99994802 -0.64176136 19.732399
1.0581412 0.98791713 -0.60162067 20.396986
-1.8341451 1.3564813 -0.64417136 22.361584
1.0673462 1.2197387 -0.64005667 23.116501
10.285332 1.9768645 -0.64007384 9.1094999
10.446477 1.9547819 -0.41617242 8.1090002
3.1514146 2.3774767 -0.54326713 23.112
3.3309863 2.3980067 -0.72136617 22.612999
4.1807761 2.3295939 -0.60787141 19.048876
4.621336 2.2713826 -0.49099192 17.443834
4.9980698 2.3234663 -0.71517009 16.778
5.3858647 2.2805641 -0.57548821 15.6105
6.5120344 2.1906285 -0.54808605 13.110001
7.2481647 2.1254501 -0.46242043 12.1095
7.6942739 2.1452928 -0.57039106 11.10975
8.6804676 2.1286747 -0.72962648 10.11
8.9355946 2.1207242 -0.56286126 10.1095
3.1833353 2.4046485 -0.6891582 23.113001
3.4404926 2.4284019 -0.57758605 22.311899
3.8150043 2.4327531 -0.5844785 21.111563
-1.7679286 0.23630619 -0.22652858 9.0453053
-1.5804652 0.1829599 -0.085419126 10.856334
-1.0016822 0.15715098 -0.30582657 10.849292
-0.79141074 0.053812429 -0.24425769 9.0150003
1.0601845 0.30220294 -0.20402345 8.611063
-1.8039042 0.59015077 -0.19754766 14.738493
1.053528 0.62627989 -0.20591083 16.254803
-1.7716639 0.98704946 -0.20102558 21.126139
1.0817679 0.92589742 -0.17597105 21.685751
-1.7858969 1.2629484 -0.19624217 22.48625
10.383801 1.9753054 -0.21829581 9.1084995
11.613445 1.889153 -0.23547658 8.1084995
3.98176 2.3932726 -0.33340231 20.110001
4.1667457 2.3359203 -0.30650541 19.109751
4.4511366 2.2883484 -0.13184933 18.108749
4.8902225 2.2875125 -0.19960202 17.108999
5.4275098 2.2687259 -0.24500735 15.709101
5.7088652 2.2283688 -0.17880736 14.608749
6.355114 2.212244 -0.25433257 13.109
7.8199558 2.1158307 -0.14394531 11.1085
8.7787657 2.1250186 -0.36043411 10.109
8.8203926 2.1262224 -0.16611145 10.1085
9.9686909 2.011106 -0.38741034 9.1090002
3.4693391 2.4044168 -0.23828682 22.609625
3.8190837 2.4392879 -0.20527002 21.359314
-1.7703323 0.297019 0.15533252 7.7610002
-1.4612043 0.24010904 0.22421782 12.190585
1.1526797 0.34038371 0.19130778 9.7031002
-1.7672498 0.61519992 0.17209706 14.127866
-1.555449 0.51728439 0.22247538 16.841219
1.1530501 0.56945151 0.2468978 15.103556
1.2009 0.75322533 0.38338014 18.099501
-1.7504219 0.95250595 0.23050794 20.384666
1.1445317 0.92105091 0.17898956 22.120094
1.2356063 1.0796111 0.30454728 23.101
-1.7427902 1.2579172 0.20032862 22.538626
9.7192955 1.9920442 0.024475805 9.1079998
10.752935 1.9234453 0.034997985 8.1079998
10.976467 1.9192245 0.28089204 8.1075001
3.1522961 2.3651006 0.36135262 23.105499
3.9292684 2.3809109 0.054360382 20.10775
4.1296558 2.336652 0.19581033 19.339251
4.4337454 2.2627046 0.16133904 18.10725
5.0101142 2.2804506 0.18044208 16.60725
5.5823603 2.2259283 0.37400925 15.1065
5.77526 2.2252493 0.17518066 14.857374
6.1070395 2.2082505 0.084705301 14.10775
7.9398084 2.1259549 0.19101596 11.107501
8.7870121 2.1077142 0.12721391 10.10775
9.7346125 2.0033944 0.24126862 9.1075001
3.4791873 2.5108073 0.16399042 23.107
3.8476303 2.459301 0.22523591 21.234358
-1.680607 0.30323669 0.58373111 7.8576245
-1.3449272 0.25036669 0.59456664 12.66319
1.1795799 0.32287556 0.45021841 9.0979996
1.2482183 0.33751738 0.61852002 8.7618761
-1.6979665 0.61809057 0.60322231 13.620566
-1.4889729 0.6184094 0.57101184 18.187712
1.1848954 0.49317941 0.47239938 12.875472
1.2652816 0.58410329 0.61014169 13.965051
-1.6817042 0.99521446 0.60939914 19.975601
-1.5621998 0.82647932 0.61005265 22.433001
1.3117106 0.95392752 0.60982794 20.279408
-1.6514708 1.2663993 0.60274458 22.823179
-1.5950984 1.2543547 0.78673953 23.046499
3.9551651 2.3800514 0.59724855 20.104666
4.1688919 2.2946453 0.66315055 19.041969
4.5589347 2.2476606 0.6115911 17.105
5.2631402 2.2589829 0.5994249 16.105501
5.7233858 2.2199149 0.56906492 14.7058
6.0487614 2.1771672 0.67880321 14.1055
7.4791102 2.1604342 0.51668459 12.1065
8.0190277 2.1180847 0.63162601 11.10625
8.8308811 2.101831 0.40827876 10.107
3.2829514 2.4012494 0.4460834 23.105
3.8356855 2.405391 0.64745212 21.10425
-1.634515 0.39333645 0.92449439 9.0235004
-1.3003255 0.23637605 1.00493 11.970484
-1.1847404 0.014134236 0.99914473 8.0404997
1.3853841 0.37188664 0.92005515 8.4245834
-1.6267278 0.58253926 0.95884782 12.095676
-1.4303857 0.57781678 1.0026937 17.829264
1.4479897 0.56994003 0.99794906 11.555072
-1.6179345 1.0737839 0.88079214 19.836
-1.5269412 0.98083133 1.0431094 21.726631
1.4581958 0.96084362 1.0059922 17.912523
-1.6122769 1.2112012 0.84003043 22
-1.5166739 1.2730923 0.98330581 22.654499
1.4159545 1.2792102 1.0395434 22.209749
3.0481088 2.3272448 0.89828086 23.1015
3.908896 2.3534088 1.1194017 20.050751
4.1241293 2.2868881 1.0121741 18.582201
4.6767139 2.2704587 0.8910898 17.10375
5.0911756 2.2500036 0.96944106 16.10375
5.378921 2.2417123 0.96408206 15.104
5.9213924 2.1928625 1.0011797 14.10425
6.2167764 2.2021186 0.98118418 13.437833
6.8905535 2.1826663 0.94082421 12.105
3.4663479 2.4294331 1.077477 21.767832
3.7004402 2.4212973 0.91990185 21.102501
-1.3414028 0.24870066 1.3428477 10.570705
-1.4077432 0.56202745 1.3777918 15.62209
1.5692688 0.62982899 1.3560758 11.011106
-1.413601 0.98892963 1.4068589 21.066381
1.4941041 1.0063337 1.373793 16.959406
4.5410652 1.0001043 1.5620086 9.1005001
5.3419623 0.97531003 1.4394386 8.1020002
-1.3803836 1.3447992 1.3885503 22.182999
1.3745546 1.3631047 1.4186748 22.086277
4.5738916 1.2207209 1.5780823 11.1005
5.1102524 1.2772377 1.5117128 10.1015
5.4693756 1.2416558 1.423117 9.6022501
5.056356 1.744976 1.5475913 13.10125
5.4287729 1.9404635 1.4466147 13.25
2.7615743 2.3456841 1.5223162 23.0965
2.9994497 2.3553455 1.4453697 22.764502
3.9113925 2.3191252 1.4547366 19.2335
4.0602036 2.2483771 1.3781906 18.417166
4.93009 2.2722788 1.3545493 16.435249
5.4122281 2.1627655 1.410293 14.618255
5.8460832 2.2028208 1.2518036 14.103251
3.1478536 2.4142904 1.311932 23.099001
3.3330915 2.4196427 1.4542078 21.765333
3.6843183 2.411932 1.3554983 21.1
-1.2769964 0.29316819 1.7750026 10.223667
1.5924908 0.36301643 1.6592526 6.2727275
2.9648066 0.22951004 1.9603276 4.1999998
3.3064539 0.22500956 1.9158014 3.3333333
4.269464 0.20944463 1.7938411 3.25
4.4227934 0.24657178 1.6867561 4
-1.2903011 0.59482425 1.7953476 13.708334
-1.1953168 0.68928289 1.98834 12
1.5499467 0.66379315 1.7751483 10.866025
3.0090098 0.64107561 1.9193242 8.4227505
3.2188406 0.69731456 1.8808533 8.0959997
3.9222302 0.76162165 1.8395183 8.0979996
4.2013993 0.65649015 1.7488081 7.4000001
-1.2731162 0.97871768 1.7716165 18.461777
-1.1917694 0.96893984 1.9625998 15.52975
1.5019112 0.94569016 1.7835127 14.805749
2.7639866 1.0416602 1.9934893 12
3.0210207 1.0595596 1.9337944 11.75875
3.3501725 0.80494469 1.8508248 9.0965004
3.9311016 1.1136926 1.8500983 11
4.2040172 1.0147781 1.7364907 9.5
-1.2570945 1.3319302 1.7131252 20.906429
-1.1808604 1.2661947 1.900883 19.55925
1.4076977 1.4002447 1.7597847 20.8335
2.7254002 1.3296585 1.9862993 14.666667
2.9917428 1.3682035 1.9448892 14.412416
3.4989309 1.4195105 1.9378242 14.0965
3.9027786 1.4944288 1.8593408 13.4
4.1264315 1.3947328 1.7550224 12.166667
4.4107318 1.5069219 1.620932 12.6
3.5704448 1.9361346 1.9757529 17.0965
3.8351963 1.8200152 1.8606038 15.7
4.1195197 1.7727789 1.7072079 14.8
2.6450226 2.3429072 1.8414321 23.094168
3.0176921 2.3923042 1.79528 22.595749
3.567344 2.2552271 1.9182179 19.09675
3.7598832 2.3053246 1.7586989 19.139406
4.0835891 2.0616467 1.728652 17
4.7677069 2.2497303 1.6278453 16.1005
2.9835627 2.4117832 1.7765155 22.095751
3.4350748 2.4145396 1.9218144 20.846375
-1.0176741 -0.049509928 2.1981688 5
-1.2128083 0.34678671 2.0249383 7
-1.0830953 0.23633422 2.1789577 9.0812311
1.7119262 0.28668657 2.1688457 5.1736112
2.2058556 0.16124195 2.3335292 3.2727273
2.573873 0.21747468 2.2142627 3.75
2.8653126 0.17684735 2.0473983 3.25
-1.2175771 0.46398902 2.0256 8.5
-1.0954497 0.57512528 2.1588864 13.228443
1.5415165 0.7365182 2.0348206 11.08175
1.7446722 0.6777395 2.3223419 9.8349342
2.1936657 0.63378698 2.3090682 8.7777777
2.6928394 0.64326525 2.0770869 8.5
2.8075774 0.53546244 2.0204923 7.3333335
-1.1083364 0.9722997 2.1838465 18.714066
1.849058 0.89925414 2.386996 12.224584
2.2242198 1.0308889 2.2953987 12.6
2.5354676 0.99536264 2.1435432 12
-1.1627144 1.2575998 2.019465 19.059999
-0.7734623 1.5986091 2.1043918 23.063999
1.8415377 1.3355105 2.3974118 16
2.2255294 1.3389392 2.2572255 15.454545
2.6465011 1.4519087 2.0491905 15.73425
2.84113 1.5770651 2.0063775 16.094
-1.2993298 1.893249 2.2512393 23.059999
1.7815984 1.7496477 2.3585222 19.889502
2.1635604 1.8127011 2.1843457 19.922562
2.6418142 1.8356229 2.0400183 18.843
3.0083356 1.9461721 2.0299103 19.0945
3.4342937 1.8619784 2.0014811 17.096001
1.5812061 2.0366404 2.3765767 23.085501
1.7087196 2.0651095 2.3192399 22.757418
2.2375407 2.2421715 2.1271858 22.840624
2.5734358 2.2435935 2.0822361 21.925791
3.0992105 2.3298106 2.0883899 21.0945
3.1373668 2.4452221 2.019798 22.094999
3.249332 2.4348595 2.0345347 21.095249
-0.92105794 0.25097331 2.5422828 8.6170969
0 0.021545418 2.476526 3
-0.95555317 0.56101835 2.5036628 12.65555
1.7067709 0.9710623 2.4897888 12.611456
-1.2315673 1.5934719 2.5553579 19.06175
-1.1545628 1.4264253 2.7814345 17.063
1.696591 1.4591491 2.5627084 16.971714
-1.2150542 1.8746516 2.5735013 21.485779
-1.1304562 1.8236742 2.7396989 20.672375
1.5846918 1.9928453 2.4850829 22.0805
1.6456715 1.8270015 2.5906518 20.176975
-1.2230887 2.0209291 2.503931 23.03075
-1.1366687 2.0784388 2.6363115 22.963667
1.5475502 2.1320298 2.7047572 22.212179
-0.28616238 0.2394772 2.8379154 5
1.8941051 0.33163601 3.1925638 4.2857141
-1.0769752 0.68816429 3.0304794 9.7682133
1.8677676 0.6953966 3.0109189 8.1117001
-1.1120521 1.0272306 2.9527931 12.756452
1.7630812 1.07942 2.9893003 12.229138
-1.0851055 1.422157 3.0444489 18.243425
1.7367668 1.4178969 2.9259636 15.245584
-0.98161173 1.8342239 3.0651195 20.585842
1.6395481 1.6863447 2.8803535 17.578751
-0.94136196 2.1338997 2.9948585 22.065001
-0.61282367 2.2635708 3.0471108 23.067499
-0.0067379153 2.2942207 3.1864738 23.072001
0.16363037 2.2787018 3.1090953 23.07325
0.63092673 2.298167 3.0428042 23.07675
1.1282495 2.3229415 3.1730964 23.075001
1.3632367 2.3394995 2.9954615 22.828312
1.6548333 2.3173685 2.9719303 22.08375
1.5092039 2.434958 3.0212593 23.077999
-0.91073561 0.29251477 3.4071779 5
1.8403448 0.3904382 3.3516061 5
-0.8942349 0.6567052 3.4205906 10.050083
1.8245661 0.67898524 3.4104972 8.0802498
-0.91572559 1.0062047 3.4351277 14.015485
1.8004497 0.9653284 3.3576403 10.551667
-0.93342626 1.4141061 3.3723783 17.332563
1.8408474 1.3387043 3.39254 13.042
-0.88197112 1.7012925 3.3251894 20.393833
-0.85637778 2.103143 3.4019918 23.059999
-0.5218522 2.1889451 3.4399118 22.731165
-0.20107092 2.2192767 3.4503481 22.781607
0.16667201 2.2171953 3.444386 22.854109
0.56884593 2.2521999 3.368758 22.903959
0.97159535 2.3010464 3.3561387 22.407305
1.4720069 2.360903 3.4780297 21.081249
1.6069371 2.3495212 3.2778764 21.0825
-0.8414064 0.34516257 3.6211939 8.059
-0.73003531 0.20300773 3.7353892 6.3868928
-0.8081131 0.62113267 3.653336 10.0595
-0.71473241 0.41375208 3.7369752 7.8571429
1.8756484 0.78230304 3.624934 9
-0.75345039 0.91572183 3.6975317 12.595722
-0.94966364 1.946425 3.960408 20.059999
-0.8381651 2.3025484 3.8432255 21.065001
-0.56260759 2.2833271 3.7953718 21.149416
-0.19940279 2.2489347 3.7667432 21.289722
0.059542492 2.2828727 3.6649489 21.5695
0.62364763 2.3531735 3.8046441 21.172501
1.0171635 2.3569911 3.8389275 20.139814
1.3818475 2.3225596 3.8054259 19.496708
1.7876245 2.2860448 3.8356919 18.795572
2.1371791 2.2494969 3.9209039 18.0835
0.72265685 2.4121597 3.6938941 21.0765
1.1186907 2.4103031 3.9489288 21.073
1.5325375 2.438746 3.9264734 20.075251
1.6636286 2.452404 3.7122018 20.409834
-0.86104059 1.3075426 4.2969103 14.0605
1.9940827 1.5844411 4.0611062 13
-0.61334896 1.8536422 4.3034315 15.92675
-0.33586192 1.8055303 4.2459836 15.57025
1.5612634 1.6763406 4.3023338 14.08
1.8090115 1.6901946 4.1900191 14.317666
2.0105491 1.7026774 4.0946031 14
-0.84026748 2.1454682 4.1115685 20.561001
-0.60094869 2.2296107 4.1999936 19.627535
-0.12066902 2.2653513 4.2833381 18.958946
0.23939723 2.2800925 4.2343044 19.314833
0.54169351 2.3158197 4.1270542 19.523327
0.9994154 2.2790141 4.2221365 18.7251
1.3329104 2.2955849 4.2205443 18.325333
1.7628809 2.273109 4.1806984 17.953438
2.1209342 2.2262888 4.0941672 17.583
1.4063357 2.4123342 4.0254269 19.740999
-0.65921962 1.4282918 4.7042174 14.062
-0.87590337 1.9958441 4.4470921 18.061001
-0.57575881 2.1336875 4.5289803 18.664
-0.16157627 2.1766546 4.5719495 18.352499
0.18672535 2.1449134 4.6478181 17.925714
0.59400284 2.1865854 4.6023946 17.847445
0.94708139 2.2302582 4.5233459 18.071917
1.4047726 2.2033324 4.6182723 16.742582
1.7398175 2.217736 4.4848189 16.745333
-0.57331854 1.2529336 5.1053829 11.066
-0.84908903 1.9132729 5.0042601 16.061501
-0.74480867 1.9832809 4.9423218 17.062
-1.0545328 2.1607475 4.8262949 18.060499
-0.55088627 2.0112498 5.0019579 16.564625
-0.19760245 2.1314716 4.8721676 16.734585
0.21797232 2.2174008 4.9632306 16.4718
0.6269061 2.2275369 5.0199075 16.2749
1.033486 2.2183354 5.0060949 16.296944
1.8942304 2.1723084 5.0751371 15.08025
-0.53478694 0.91248536 5.203064 10.0625
-0.52232587 1.420173 5.4967566 12.063
-0.80938375 1.9108174 5.4832191 15.062
-0.56094825 1.7678235 5.5991316 14.063
-0.36600012 1.618377 5.5627418 12.0705
2.2077765 1.9978673 5.5992661 13.0745
-0.99205041 2.1622219 5.3938284 17.061251
-0.22086988 2.0890293 5.4104652 15.81625
0.29616663 2.1567328 5.4783459 15.4045
0.60705334 2.1654174 5.379467 15.499642
0.97876853 2.1793239 5.4566154 15.072
1.3703814 2.1302433 5.4413366 14.477701
1.8102868 2.1849823 5.3581948 14.677101
2.147459 2.2882667 5.5211844 14.5745
-0.37537655 1.1263864 5.7272296 9.0705004
-0.4638207 1.7529675 5.8616605 14.0635
-0.23554714 1.9125348 5.9057612 14.0645
0.18198793 1.9413261 5.8288698 14.06625
0.535725 1.9706124 5.7529449 14.06775
-0.66077977 2.1439242 5.8850055 14.0695
-0.15022102 2.1053944 5.8053031 14.693188
0.21277204 2.1345704 5.7414374 14.641571
0.61376631 2.1183722 5.7448473 14.499428
1.0154103 2.0870566 5.6635723 14.197187
1.4244294 2.1953218 5.7079654 14.5715
1.8141905 2.2311709 5.7380323 14.074715
2.1429889 2.17553 5.7170992 13.57725
-0.14938651 0.050330378 6.0261984 4
1.0480881 2.0861335 6.3029418 13.072001
1.5348635 2.0936403 6.050374 13.07775
1.7148831 2.100132 6.1657095 12.57825
2.3388207 2.2053652 6.2432814 13.074
-0.1255729 1.9607842 6.7595148 13.065
0.31578732 1.9738314 6.7858601 13.0665
0.44858718 1.9991472 6.6944685 13.067
0.21037196 2.0798163 6.7662115 12.07275
0.63717425 2.025347 6.5698175 12.571
0.96137166 2.0483813 6.5897303 12.57375
1.4127514 2.0996497 6.5074301 12.674399
1.7638096 2.1459062 6.569057 12.324875
2.1705739 2.1534352 6.6255889 12.0755
2.4646614 2.0830705 6.7910366 12.08
0.11550988 1.9697764 6.9044943 13.06575
-0.015089441 2.0583229 6.8313355 12.072
0.78852069 2.0299466 7.0965395 12.068
0.92394733 2.0399222 7.0947237 12.075
1.7647598 2.0787263 6.9969077 12.07125
2.1349533 2.0235145 7.1018672 11.078751
2.5763612 2.0690362 7.1754813 11.08
-1.3969839e-09 0.46133867 7.2284145 4
-0.01628023 1.1569211 7.351068 8.0719995
-0.016082745 1.407425 7.2648735 9.0719995
-0.016159436 1.8525603 7.298346 11.072
0.21590166 1.9412199 7.4728293 12.065999
0.59198725 1.9826983 7.292028 12.06725
2.4821014 1.6982884 7.28578 9.073
0.6330694 2.0357904 7.423996 11.074
1.0672528 2.0418215 7.4095588 11.406499
1.3851198 2.0535159 7.4173479 11.56975
1.7577068 2.0287838 7.4037061 11.075749
2.3835092 2.1472948 7.5899367 11.0725
2.4841418 2.1608829 7.4440074 11.073
0.63005781 1.9662609 7.6407518 11.06725
0.87375605 1.9923263 7.7909713 11.068
1.5260631 1.9994065 7.7235994 11.0765
0.32532522 2.0280273 7.701231 11.073
0.49961552 2.0467858 7.7408805 11.0735
0.9586786 2.0199466 7.749814 11.0715
1.3682915 2.0008795 7.8394928 10.076
2.1848722 2.0981903 7.8381348 11.07175
0.26967037 1.9329803 8.3379555 11.066
0.62623125 1.8856779 8.3518438 10.067
0.97172141 1.9721143 8.1512184 10.07475
0.35085472 2.0327673 8.3039026 10.073
1.3844099 2.0185981 8.1546898 11.06925
1.8857683 2.0513461 8.3110199 10.0705
2.767235 2.1317506 8.1749592 10.073
0.29118788 1.8252753 8.4913502 10.066
2.9360478 1.9005936 8.7065058 9.0795002
0.55459672 2.020102 8.5930071 10.0735
1.6989502 2.0041673 8.4047117 10.07
2.3618667 2.0565436 8.6925859 10.0715
2.6724591 2.0895929 8.7087793 10.07225
1.7622554 1.9560825 9.0198641 9.5697498
2.0946469 1.9717155 9.1117315 9.0705004
2.6043737 1.8886648 8.9838629 9.0784998
2.671643 2.0796671 9.0138044 9.0719995
2.8769789 2.0669081 8.974596 9.0725002
0.65496743 1.7991813 9.4538736 9.0667496
0.9762063 1.9208356 9.3518362 9.4054995
1.3930132 1.9123223 9.4063387 9.0719995
1.7419075 1.8883082 9.3312426 9.0740004
2.2058489 1.9125919 9.2823 9.0751657
2.5587244 2.0067551 9.3118982 9.0714998
1.3026342 1.8858256 9.9050255 9.0749998
1.7887211 1.8909807 9.7913837 8.5727501
3.05265 1.8722881 9.7131824 8.0790005
0.88375205 1.8117664 10.358485 8.0740004
1.5549649 1.7927409 10.313118 8.0754995
1.7549366 1.8854365 10.012506 8.0760002
2.2466531 1.8772146 10.149347 8.0769997
2.5181518 1.8748018 10.130125 8.0742502
2.9891741 1.84808 10.287896 8.0784998
1.0205004 1.7540226 10.710237 8.0707502
1.3496006 1.7773808 10.542465 8.0714998
2.2709117 1.8345847 10.729255 8.0699997
2.8652546 1.8119432 10.753242 8.0780001
1.1459423 1.746742 10.878396 8.0675001
1.7622101 1.7580965 11.078342 8.0687504
2.0962472 1.7826462 10.857777 8.0695
2.5782435 1.8733822 10.903278 8.0705004
3.0353618 1.9758496 10.847746 8.0714998
3.3084619 1.9468013 10.875697 8.0719995
3.405735 1.6629546 11.384858 7
2.5563421 1.7587306 11.712709 7
3.0846913 1.8790902 11.87598 7
3.3696289 1.89677 11.962641 7
4.0333052 1.7436539 12.975247 6
3.921174 1.5411875 13.551272 6
3.8568838 1.7218559 13.404751 6
3.6039453 1.7481138 13.651094 6
3.1898391 1.5101563 14.572423 6
3.3343742 1.3452202 18.320679 5
3.7276449 1.3639652 18.205837 5
3.4484675 0.75760913 20.776581 4
4.2391872 1.0297148 20.510674 4
4.6886735 1.1837584 20.485699 4
