# .PCD v0.7 - Point Cloud Data file format
VERSION 0.7
FIELDS x y z intensity
SIZE 4 4 4 4
TYPE F F F F
COUNT 1 1 1 1
WIDTH 1218
HEIGHT 1
VIEWPOINT 0 0 0 1 0 0 0
POINTS 1218
DATA ascii
4.9371667 2.323854 -0.75785613 17.1115
5.0446711 2.3078139 -0.78254306 16.1115
3.1812332 2.4046485 -0.70228899 23.113001
3.4254098 2.4490619 -0.76434219 22.113001
3.7154117 2.4714401 -0.73747182 21.112499
-1.6445892 0.27532554 -0.67857552 9.0174999
-1.6578734 0.31267506 -0.60766768 10.01825
-1.646148 0.46064073 -0.64631176 12.017625
0.87629151 0.41845274 -0.60921133 10.1205
-1.9451489 0.517102 -0.65585029 10.5
-1.6322961 0.5609585 -0.69203293 13.017
-1.9326843 0.61549062 -0.60027856 12.066667
1.1408443 0.76418495 -0.6356805 14.867375
-1.9059726 0.8883605 -0.60401666 16.028999
1.169492 0.8812626 -0.63409364 17.117001
-1.897351 0.98254967 -0.68945891 17.028
-1.6643987 0.91611743 -0.63009703 19.0175
-1.878283 1.0354531 -0.66158938 18.52825
-1.6035829 1.068414 -0.63025141 21.017
1.1745136 1.0828369 -0.65141618 20.117001
-1.8978267 1.1662275 -0.68796951 20
-1.6391854 1.1360188 -0.69407022 21.5165
1.1665218 1.1438198 -0.62032664 21.450003
-1.8543419 1.235424 -0.62701017 20.5285
1.1830549 1.2087598 -0.66696572 22.117001
-1.8210036 1.4253265 -0.61693722 23.0285
10.084812 2.0204308 -0.65999812 9.1094999
4.4715958 2.272851 -0.69487721 18.1115
5.6666226 2.2523701 -0.62976867 15.1105
5.9345608 2.2300396 -0.65107358 14.1105
3.1531806 2.3852596 -0.6279574 23.112499
3.413929 2.3974524 -0.67118323 22.112499
4.1349373 2.3291924 -0.63116586 19.1115
4.9401245 2.3180959 -0.64623922 17.111
3.496536 2.4217212 -0.61842185 22.112
3.6734467 2.431098 -0.6503402 21.112
-1.9579431 0.18434866 -0.59508175 5.3125
-1.6307759 0.27490136 -0.54976338 9.0187502
-1.9440672 0.37431315 -0.56554115 8.0295
0.54099894 0.36754614 -0.58685517 11.126
-1.9591589 0.45588428 -0.52724421 9.5299997
-1.6286652 0.46074277 -0.55089843 12.0185
1.1451235 0.44411063 -0.55252874 9.1164999
1.1011384 0.53347427 -0.58412027 11.117333
1.1055281 0.64715213 -0.57000029 13.117
1.1450927 0.8998481 -0.53453088 18.115999
-1.8643045 0.96289939 -0.58055037 17.740435
1.1606367 0.99741632 -0.51376081 20.115499
-1.8515835 1.0730884 -0.56429768 19.2645
-1.633687 1.0104425 -0.53498757 20.51825
-1.6297983 1.175382 -0.54793191 22.5735
1.1571522 1.1050577 -0.55565083 21.115999
-1.8588172 1.2844533 -0.58579165 22.028999
1.1808188 1.2024839 -0.51736534 23.11525
-1.8315425 1.3676833 -0.57983524 23.028999
11.296695 1.9033346 -0.5100987 8.1090002
8.9337292 2.1207242 -0.58727998 10.1095
4.4960823 2.2554765 -0.58250982 18.111
4.6159873 2.2907398 -0.50169909 17.1105
5.2241898 2.2928476 -0.57936078 16.1105
5.9571209 2.2179835 -0.52043152 14.11
4.0967612 2.3475189 -0.54570907 19.111
3.248039 2.4147303 -0.57483292 23.112
3.5607061 2.4283602 -0.54839188 22.1115
3.7013431 2.4042258 -0.57060516 21.1115
-1.9531572 0.032055512 -0.49635318 2.5
-1.5676668 0.17663245 -0.41470405 8.0200005
-0.95147401 0.17905386 -0.45056102 8.0150003
-1.1890955 0.20936064 -0.49999139 9.0165005
-1.6263771 0.34049913 -0.4958277 10.01925
-1.943747 0.45428774 -0.43401995 10.031
-1.6063604 0.46189791 -0.45571098 13.0195
1.1324739 0.42779592 -0.41567466 9.1147499
-1.6185951 0.55537951 -0.49436399 14.019
-1.6427548 0.69312018 -0.45141098 16.019501
1.1130941 0.61114657 -0.47517821 12.782333
1.1019475 0.75167662 -0.46213433 16.115499
1.1388031 0.83021992 -0.47152135 17.61525
-1.6346065 0.93587697 -0.45172533 20.019249
1.163249 0.99272257 -0.40644059 20.364
-1.7912701 1.1877428 -0.47467324 21
1.1867542 1.1236482 -0.40819809 22.11375
1.1974804 1.2325749 -0.43384787 23.114
-1.8166765 1.3685962 -0.49050403 23.030001
9.9671679 2.011106 -0.41385669 9.1090002
7.2464995 2.1254501 -0.48352814 12.1095
4.3046298 2.2988503 -0.47772416 18.1105
5.7039347 2.2313995 -0.4965739 15.11
3.1460171 2.369694 -0.48471379 23.1115
4.0530214 2.3745573 -0.44847327 20.1105
5.039659 2.3483512 -0.44858745 17.110001
5.2109284 2.3155212 -0.46145445 16.110001
3.290554 2.4027331 -0.43515766 23.111
3.5561807 2.4421613 -0.4738116 22.111
3.7949154 2.4191113 -0.49879465 21.111
3.8695006 2.4261272 -0.42118475 21.1105
-1.513654 0.18023531 -0.30919346 8.0209999
-1.5621059 0.26940107 -0.35516804 9.5206251
-1.9473338 0.3996017 -0.38566726 9.0314999
-1.0546494 0.37204164 -0.3329452 13.0175
1.1497816 0.34158921 -0.32575265 7.0567498
-1.9415634 0.43778938 -0.38544828 10.0315
-1.0020823 0.44992217 -0.34265974 15.01675
-0.66177952 0.4867292 -0.31183878 19.013
-1.6144783 0.54957938 -0.36724302 14.0205
-1.5792105 0.54013896 -0.31219611 14.021
-0.99248296 0.55479103 -0.34390613 18.0165
1.0970294 0.51010501 -0.37802461 11.1145
1.1278601 0.53415209 -0.33749768 12.1135
0.59272933 0.62805748 -0.36691591 20.1215
0.73956102 0.60086697 -0.34830377 18.1185
1.129679 0.60177499 -0.38325962 13.614167
1.1217113 0.74146181 -0.37340263 16.114
-1.8658396 0.83356696 -0.37211591 16
-1.6003635 0.84917498 -0.33699021 19.0205
0.77643663 0.87049514 -0.39891931 23.1185
1.1387503 0.80537552 -0.37502739 17.447166
-1.8530204 1.0155817 -0.32924956 18.532
-1.6382952 1.0185227 -0.3480905 21.437126
1.1846349 1.0585697 -0.30395702 22.112249
-1.8231021 1.1692326 -0.34063792 20.53175
-1.6254852 1.1270661 -0.39830455 22.686335
-1.7899711 1.2727263 -0.35634348 22.5315
1.1966834 1.2010052 -0.34408197 23.112751
7.0874252 2.1131968 -0.31678274 12.109
8.777297 2.1250186 -0.38454551 10.109
4.3166289 2.2875099 -0.3818658 18.110001
4.6947169 2.2762794 -0.31553441 17.109501
5.7379055 2.220475 -0.37110114 15.1095
3.2345648 2.3573089 -0.36012626 23.1105
3.9850533 2.3876405 -0.34514609 20.110001
5.1411705 2.3239355 -0.34085804 16.109501
3.487016 2.4315028 -0.34132481 22.11025
3.896044 2.4007313 -0.34273958 21.110001
-1.9108838 0.11859328 -0.29868919 4
-1.4441123 0.15396963 -0.2294372 8.0217495
-1.9273951 0.29235759 -0.248882 7
-1.8961858 0.22057235 -0.21712485 6.2142859
1.1111786 0.30940956 -0.28875437 7
-1.9226332 0.43329597 -0.22646038 9.3666658
-1.5319793 0.45521373 -0.25943378 13.0215
-1.0206852 0.46603411 -0.24686667 16.018499
1.1097736 0.40025675 -0.25820526 9.1125002
-1.9056172 0.59078997 -0.2215905 12.071428
1.1257632 0.50407124 -0.28229871 11.446
-1.5915191 0.68205792 -0.26773486 17.0215
1.1263818 0.60801047 -0.24578388 14.445334
1.1264505 0.72631913 -0.29337582 16.362749
-1.9052291 0.81045979 -0.24981523 16.033001
1.1616631 0.88994473 -0.2014682 19.610874
-1.8750117 0.93663472 -0.24833064 17.533001
-1.6250353 0.94050395 -0.22272512 21.021999
1.1523633 0.94101137 -0.28337464 20.112249
-1.8667752 1.0463415 -0.22563374 19.2665
-1.8144368 1.1988168 -0.2390507 21.033001
1.1961396 1.1591551 -0.27929065 23.11175
1.2074888 1.1388717 -0.20148769 23.110498
-1.8075087 1.2439826 -0.26408529 22.0165
-1.7734647 1.2953469 -0.28271928 23
11.612217 1.889153 -0.2651507 8.1084995
10.38261 1.9753054 -0.24555704 9.1084995
5.3411255 2.2538769 -0.22824699 16.108999
5.4098105 2.2675123 -0.23583525 15.109
5.7551737 2.2045567 -0.26210511 14.109
6.7336397 2.2143509 -0.29185894 13.109
5.017911 2.3179097 -0.22134495 17.108999
3.7729611 2.4106176 -0.2471862 21.109501
3.9661555 2.4141958 -0.26750824 20.109501
-1.4655082 0.29066038 -0.17693052 10.0225
-1.8784441 0.30480686 -0.16513644 8.0340004
1.1540744 0.35273793 -0.11084327 8.1094999
-1.8866879 0.42044091 -0.16745129 10.034
-1.0784702 0.42971033 -0.1454515 15.02075
1.1435037 0.45663872 -0.16461352 10.1105
-1.9111261 0.54581678 -0.19469836 11
-1.8770648 0.59922224 -0.12473217 13.0345
-0.86723059 0.54415834 -0.18815157 19.018
1.1137357 0.50976992 -0.16497958 12.11075
-1.5489724 0.67904001 -0.11854941 17.023251
1.1714571 0.63153702 -0.13577679 14.60975
1.1650083 0.70061737 -0.16308957 16.11025
1.1625366 0.82953614 -0.14882383 19.110001
-1.6158633 1.0989921 -0.17576444 23.022499
-1.8391436 1.1379483 -0.16474777 20.534
-1.623333 1.1029351 -0.13347277 23.023001
-1.7964326 1.2519217 -0.14461392 22.4
-1.7726635 1.3156381 -0.17526984 23.033751
7.1023059 2.1159644 -0.15929395 12.1085
7.6920652 2.1712577 -0.17573518 11.1085
8.8193054 2.1262224 -0.19030491 10.1085
4.3581018 2.2727697 -0.19034047 18.108999
5.3186493 2.2671154 -0.12010745 16.1085
5.413249 2.2626069 -0.12802666 15.1085
6.5908532 2.2121067 -0.1499272 13.1085
3.9917207 2.3729353 -0.17895693 20.108999
3.3731141 2.4007699 -0.15242353 23.108999
-1.2444017 0.1778463 -0.017705739 9.0240002
-1.1737387 0.25318387 -0.030969113 11.0235
-1.85755 0.3580412 -0.041075837 9.0354996
-1.8647591 0.44401801 -0.022910023 10.035749
-1.102134 0.42202893 -0.015685886 15.023251
-1.0657444 0.4133074 -0.084488839 15.021749
1.174257 0.45549527 -0.09371227 10.609
-1.8823353 0.59227043 -0.083048075 12.035
-1.8683478 0.65147406 -0.043187454 13.0355
-1.5466098 0.68609512 -0.04612419 18.02425
1.1669495 0.62235653 -0.075404942 14.441998
-1.8693573 0.73208702 -0.06166254 15.03525
-1.6124482 0.78725195 -0.075547427 19.024
1.172979 0.71178597 -0.073337436 16.691959
-1.8613719 0.84381133 -0.03888483 16.0355
1.1586478 0.85346907 -0.062588662 19.7335
-1.8479788 0.95580715 -0.081110969 18.5175
1.1805592 0.99170756 -0.072279662 22.1085
-1.6418276 1.0274692 -0.079152495 22.273876
-1.83078 1.1184796 -0.077802122 20.035
-1.8102885 1.2012128 -0.080641359 22.035
-1.7833674 1.2758714 -0.077265583 23.035
9.7185812 1.9920442 -0.0014819285 9.1079998
7.0877285 2.1112597 -0.012558274 12.108
4.3751321 2.2629561 -0.093440466 18.1085
4.4024062 2.2550445 -0.0028709569 18.108
4.7653809 2.251596 -0.093536891 17.1085
4.8921123 2.2865322 -0.0089796791 17.108
5.4907064 2.2640033 -0.0077290693 15.108
5.9115324 2.2037313 -0.0059172371 14.108
3.8737907 2.3992307 -0.081098057 21.1085
3.9060445 2.3856041 -0.0072863027 20.108
4.0523529 2.3730683 -0.084884614 20.1085
3.8407793 2.4885783 -0.0025993707 21.108
-1.8474127 0.15153824 0.0070439819 5
-1.2216868 0.17603441 0.082630813 9.0256662
-1.2278183 0.26763511 0.049357384 11.025
-1.873054 0.33834562 0.0022871224 8.0360003
-1.8583957 0.49412504 5.0346134e-05 11.036
-1.44118 0.48491231 0.086649239 15.026
-1.1107402 0.43196115 0.075536758 16.025
1.1941674 0.42910698 0.019976228 9.8567505
1.2104993 0.4611997 0.082322203 10.6055
-1.8441361 0.52766609 0.038505051 11.5365
-1.446527 0.55045539 0.049289376 16.025499
-0.8604728 0.53111124 0.035505205 21.022751
-1.517976 0.6233539 0.04687503 17.025499
1.1796033 0.62049669 0.0055444241 14.607124
1.215096 0.68978018 0.057754338 16.106001
-1.8487359 0.72198546 0.082479879 14.537
-1.5693226 0.79908234 0.079828203 19.525999
1.1874574 0.74952161 0.061384425 17.689377
-1.6039796 0.93102604 0.09216556 21.359499
1.2156035 0.97051597 0.086459056 21.605499
-1.8679729 1.0223765 0.041013021 19.036501
-1.621437 1.0270985 0.0594154 22.859041
1.2252636 1.0649428 0.048526563 22.856167
-1.7763416 1.1838176 0.078408986 22.037001
7.6671877 2.1134374 0.0017073645 11.108
8.7917442 2.1122143 0.0055640964 10.108
4.4081678 2.2457907 0.095412672 18.1075
5.0911813 2.2001088 0.00086033507 16.108
3.9512033 2.3762176 0.086815 20.1075
4.0829668 2.3286915 0.083330974 19.1075
3.4340067 2.4856448 0.034193195 23.10775
3.5066402 2.4550064 0.0031117965 22.108
-1.734827 0.057294697 0.14582103 3.5
-1.77877 0.19434293 0.14322464 5.8947368
-1.243742 0.14324763 0.15587607 8.0270004
-1.2101884 0.29423335 0.1956012 12.0275
-1.188374 0.24084944 0.10886404 10.526
1.2227213 0.26140356 0.1297368 5.25
-1.7886659 0.33197522 0.13713236 8.5377502
-1.7685385 0.46460027 0.19482762 10.5385
-1.4492979 0.48881093 0.15017936 15.027
-1.3991165 0.41619527 0.15257794 14.027
-1.0963099 0.41591632 0.16768348 15.52675
1.2113652 0.43261731 0.17800415 10.103625
-1.8091363 0.5839293 0.18429179 12.5
-1.7966127 0.56132174 0.16062447 12.51925
-1.7791569 0.65905702 0.19340385 14.0385
-1.4534552 0.61919874 0.1716921 17.52725
1.191211 0.61337721 0.11469485 14.771667
1.2126245 0.63115078 0.19529305 14.77
-1.8528981 0.75789428 0.12022293 15.0375
-1.5368834 0.7660532 0.14973019 19.360332
-1.5468965 0.82466072 0.19680655 20.694334
-1.8176568 1.0214887 0.19712821 19.0385
-1.7808725 1.0518872 0.19639954 20.0385
1.2519956 1.0824606 0.19457059 23.1035
-1.7868359 1.1670754 0.11875993 21.0375
-1.7581913 1.2549167 0.14045669 22.719
7.8221655 2.1103342 0.17607675 11.1075
4.4690008 2.2603934 0.19648075 18.107
4.9493532 2.2810252 0.10658236 17.1075
5.1981158 2.2313747 0.1187777 16.1075
5.5218635 2.2475071 0.11503556 15.1075
5.7608466 2.2100198 0.12745814 14.1075
4.0246902 2.3878212 0.17806634 20.107
4.1070132 2.3107622 0.17536463 19.107
3.4948244 2.4848435 0.15555418 23.107
3.628294 2.4752824 0.15249816 22.107
-1.2218838 0.23645228 0.24830595 11.0285
-1.7428027 0.33012912 0.23013978 8.0389996
-1.5485882 0.41237408 0.27140498 11.04
-1.3451556 0.47561818 0.26393446 15.403749
-1.0529902 0.44304988 0.20960662 17.0275
-0.97441632 0.51229471 0.28425604 19.028999
1.0082574 0.54316586 0.27045861 16.101999
1.2232099 0.51079714 0.25011963 12.10225
-1.7797657 0.6487695 0.22947076 13.7695
-1.4460062 0.64785403 0.27620333 18.028873
-1.7953858 0.72525847 0.23868555 15.039
-1.4855843 0.7649914 0.2862708 20.028999
1.2335114 0.76901299 0.22768891 17.852751
-1.7964153 0.98199475 0.22204235 18.873667
-1.5629705 0.93637347 0.24150519 22.02825
1.2283481 0.90409344 0.25398129 20.435665
-1.6039424 1.0545466 0.22256756 23.028
-1.7711322 1.1010001 0.22858261 21.039
-1.7458241 1.2360206 0.24868388 22.539249
10.564465 1.9332463 0.22149037 8.1075001
9.7343235 2.0033944 0.21528041 9.1075001
5.7881498 2.1965137 0.25747943 14.107
6.3087425 2.1917586 0.27817562 13.107
8.7812586 2.103214 0.2006067 10.1075
4.4536619 2.2895894 0.29398897 18.106501
4.9913816 2.2693133 0.2182174 16.107
5.5688477 2.2380097 0.23998562 15.107
4.042552 2.359797 0.26905775 20.106501
4.1640697 2.3115151 0.27079928 19.106501
4.9674659 2.3135717 0.2133512 17.107
3.4598241 2.451405 0.25845993 23.106251
3.6451941 2.4417472 0.24571319 22.106501
-1.7027321 0.10443578 0.31426689 4.3333335
-1.2089369 0.15532754 0.31481245 9.0297508
-1.0965207 0.26852959 0.37738654 12.031
-1.6164197 0.34759143 0.35941368 9.0410004
-1.5440475 0.36673972 0.30638006 9.5404997
-1.5081927 0.43221056 0.30103245 11.0405
-1.3240569 0.44948104 0.34061629 15.363334
-1.0555241 0.44098204 0.3817898 17.031
-1.3488245 0.53357512 0.37318134 16.697166
-0.96276253 0.51780522 0.35325658 20.0305
-1.4248335 0.6637677 0.39059627 18.697334
1.2456375 0.64979506 0.33037597 15.200749
-1.7152498 0.70246392 0.33744231 15.0405
-1.4199543 0.70147985 0.3504349 19.030001
1.2433386 0.79314554 0.30418569 18.434668
1.2681777 0.83646554 0.37761354 18.766668
-1.5315231 0.96288025 0.34921747 22.779875
1.2906035 1.0607799 0.34475803 22.10075
-1.7301368 1.2270772 0.33126351 22.373667
7.09372 2.1148574 0.30317369 12.107
7.7363143 2.1655602 0.32738486 11.107
8.8309212 2.101831 0.38406363 10.107
4.2641621 2.2975266 0.36538261 19.106001
4.9302726 2.290364 0.32240745 17.106501
5.0335417 2.2673044 0.32394254 16.106501
5.5823393 2.2259283 0.35616872 15.1065
4.0549588 2.3455143 0.34764633 20.106001
3.4830506 2.448945 0.37724352 22.105499
3.7121286 2.4530928 0.33292496 22.106001
3.5089855 2.5146897 0.38345703 23.105499
1.270256 0.24322468 0.42117754 4.75
-1.7063547 0.30509573 0.49413431 8.0424995
-1.6929307 0.36124068 0.47107154 9.0422497
-1.2598195 0.3233833 0.42403817 13.0315
1.2828052 0.35368866 0.49454319 8.0974998
-1.724669 0.46958101 0.47300661 10.85425
-1.2896419 0.42812476 0.43698028 15.031667
-1.0178688 0.43986145 0.42509007 17.032
-1.7391104 0.55815959 0.44695687 12.54175
-1.314893 0.50253427 0.45090887 16.365166
1.2579941 0.53583753 0.4192574 12.099
-1.7492958 0.66059029 0.4478538 14.04175
-1.3843955 0.62337673 0.43754461 18.0315
-1.7547847 0.70961934 0.46596837 15.042
1.2696377 0.72266221 0.44326425 16.265417
-1.7451154 0.81269336 0.43973038 16.375
-1.4650288 0.8238188 0.4558441 21.19825
1.2796879 0.85235202 0.4447023 18.973812
-1.7528545 0.92290258 0.42897359 18.0415
-1.5245786 0.98711544 0.41025868 23.03075
1.3041713 0.91150361 0.49426067 19.598
1.3323572 1.0303154 0.47542611 21.431833
-1.7399573 1.1410729 0.46288285 21.042
-1.6866289 1.2702487 0.4726235 23.04225
6.3845916 2.1871681 0.42325926 13.1065
7.4793658 2.1604342 0.49512184 12.1065
5.1229091 2.2729213 0.45204729 16.106001
5.6594248 2.2343621 0.48765919 15.106
6.0830884 2.2124505 0.4006224 14.1065
3.7139111 2.3963661 0.48168352 21.105
4.1748638 2.3132126 0.45095623 19.105499
3.2830765 2.4012494 0.43275484 23.105
-1.6573029 0.22375363 0.59590012 7
-1.2264023 0.28413659 0.56450665 12.034
-1.568159 0.3033326 0.53078014 8.0434999
-1.4699268 0.35784698 0.52742249 9.6813326
-1.2410271 0.32886606 0.52149624 12.53325
-1.5241418 0.49383503 0.5189352 12.0435
-1.495006 0.49683923 0.54619414 12.044
-1.2813134 0.43927413 0.55189168 14.783626
-1.5033079 0.50485283 0.50990623 13.0435
-1.4539882 0.5014106 0.52793163 13.044
-1.3023133 0.52510858 0.54981536 16.433498
1.2889316 0.54292923 0.50815248 12.0975
-1.5869824 0.67930526 0.55678147 15.04375
-1.3595432 0.60717279 0.55308002 18.033375
-1.5295084 0.73398656 0.51764864 16.043501
1.3314202 0.73201597 0.59538245 15.596251
-1.6811653 0.85852772 0.55064666 17.043251
-1.4459002 0.83367211 0.58950579 21.366999
1.3256855 0.83528024 0.58230501 18.0965
-1.7291424 0.9614321 0.52236611 18.542749
-1.5274547 0.98266572 0.55291355 23.032875
1.3267846 0.94570845 0.528404 20.0975
-1.7240512 1.074291 0.50420433 20.0425
1.3670382 1.0450616 0.57250994 21.097
-1.719511 1.1614927 0.52125615 21.042749
-1.6717418 1.2952986 0.52414304 23.042999
-1.6683493 1.3118063 0.56413239 23.043501
6.4076147 2.1601918 0.56744856 13.106
8.0821018 2.1024768 0.51706451 11.1065
4.559382 2.2476606 0.59575838 17.105
5.0998187 2.2442021 0.55596471 16.105499
6.1439991 2.2160807 0.53234518 14.106
4.0910025 2.3271461 0.5336895 19.105
3.7661836 2.4001915 0.57350814 21.1045
-1.6564782 0.19234338 0.64315563 5.9230771
-1.2519932 0.36266583 0.64179623 13.03525
1.3351676 0.39537424 0.68186677 8.0944996
-1.2671807 0.46921727 0.62367463 15.534875
-1.7066244 0.57694066 0.61592805 12.571428
-1.2875948 0.5065552 0.63535321 16.035
1.3375728 0.53473389 0.69182056 11.427834
-1.3478248 0.63016075 0.65333116 18.035
1.3252575 0.62988043 0.63258862 13.845501
-1.4210296 0.75350416 0.62919718 20.034374
-1.3896582 0.70968181 0.66226995 19.785
1.3489783 0.74513137 0.66144943 15.595251
-1.7125119 0.87857699 0.66415465 17.0445
-1.6540966 0.83368045 0.60244787 17.044001
1.3444746 0.80420101 0.68595946 16.844875
-1.6990522 0.98229909 0.61410981 19.044001
-1.5129151 0.97818732 0.62355196 23.034
1.3589284 0.93789661 0.641518 19.095751
-1.7050244 1.0122947 0.60370892 19.200001
1.3882347 1.0706069 0.6234628 21.096251
-1.6516216 1.2514888 0.60547662 22.5
1.4280083 1.2805008 0.66251564 23.096001
6.0493379 2.1771672 0.66004688 14.1055
6.4547315 2.1519899 0.69525021 13.1055
7.0932875 2.1206691 0.62008458 12.106
4.2066755 2.2655118 0.65973473 18
5.2084384 2.263236 0.68491 16.105
5.6860785 2.2241869 0.61760581 15.1055
3.469507 2.3920901 0.64582789 22.10375
3.7868071 2.3891611 0.66273177 21.104
3.9768429 2.361212 0.66643363 20
4.0753069 2.3280787 0.63731897 19.25
-1.6581451 0.33708632 0.74414426 8.3789997
-1.1931534 0.38768515 0.72959137 14.037
-1.6453155 0.42723042 0.74378037 10.04575
-1.2728816 0.4696933 0.73447752 15.286625
1.3683891 0.4222326 0.79086375 9.0930004
-1.6856233 0.57600504 0.72059453 12.04525
-1.3079393 0.54214334 0.7678479 16.537001
1.3748631 0.5428642 0.79857147 11.093
-1.7011698 0.60306495 0.70171243 13.045
-1.6868254 0.64736372 0.76276898 13.04575
-1.3364882 0.63162363 0.7559213 18.370001
-1.3741808 0.7144413 0.79141819 19.537001
1.3935304 0.79333383 0.76474774 16.093876
1.4022179 0.72531372 0.79195058 15.0935
-1.6981817 0.85936731 0.72478491 16.54525
1.4051752 0.82041329 0.77212644 16
-1.7016299 0.90718836 0.74866372 17.0455
-1.4672886 0.95058775 0.76207608 22.702833
1.4030082 0.96414888 0.73611641 19.0945
-1.6641819 1.0126709 0.7522338 19.04575
-1.5005288 1.0174872 0.72874713 23.0355
1.3836226 1.0827131 0.73505825 21.0945
1.4326327 1.0096202 0.78375489 19.094
-1.6134499 1.1698755 0.79373568 21.046499
-1.5977707 1.1742035 0.75784117 22
-1.5951493 1.2528183 0.7909224 22.773251
1.4391303 1.2161086 0.74519783 22.094749
1.4444087 1.3114116 0.77082241 23.0945
7.1293054 2.1356132 0.78335977 12.1055
4.0985827 2.2768924 0.72255319 19.104
5.1717057 2.2587745 0.78726554 16.1045
5.5658679 2.2184103 0.72272164 15.105
3.8816855 2.3923914 0.77744973 20.1035
3.9555848 2.3731821 0.70161802 20.104
3.5176046 2.4046822 0.77653778 22.103001
-1.1084843 0.17849691 0.88431704 9.04
-1.0784645 0.18434058 0.83756661 10.0395
-1.6521416 0.29898417 0.85824192 8.0469999
-1.6509626 0.35648793 0.827402 8.6066666
-1.6553514 0.46685684 0.83189178 10.273251
-1.2450559 0.44010359 0.84076065 14.62175
1.4268889 0.44788972 0.88286078 9.092
-1.2886384 0.51767206 0.83152306 16.038
-1.3393567 0.67614758 0.8830725 18.5385
1.4422586 0.65786678 0.86920869 13.0925
-1.413677 0.78756517 0.83835602 20.0375
-1.3825097 0.73763329 0.88367236 19.53825
1.4312785 0.72697806 0.8713789 14.0925
1.4415019 0.8187294 0.85107541 15.842875
1.4645877 0.95673323 0.85499811 17.75975
-1.6343929 1.0389802 0.84974533 19.047001
1.4563818 1.086839 0.84965837 20.09325
1.4412203 1.1741838 0.82924139 21.0935
-1.6047615 1.2330946 0.8252309 22
1.4449379 1.3305547 0.86081564 23.09325
6.1333022 2.190912 0.80769408 14.105
6.5666685 2.1489449 0.85470718 13.105
4.1270094 2.2767506 0.82261223 19.1035
4.221168 2.256089 0.8422718 18.1035
4.6633806 2.2683189 0.82222939 17.104
5.0989084 2.2498529 0.89260131 16.104
5.6044869 2.2152662 0.85554022 15.1045
3.0491221 2.3272448 0.88541234 23.1015
3.7916343 2.3918464 0.83448589 21.103001
3.8318124 2.3681304 0.84695137 20.103001
-1.6169158 0.2235906 0.98843378 6.2142859
-1.252511 0.44613016 0.95220995 14.54
-1.2869523 0.54643852 0.93294263 16.039499
1.495543 0.54286087 0.99474692 10.091
-1.6356388 0.60249043 0.94399589 12.533334
-1.3190224 0.61817724 0.96495771 17.539749
-1.6414634 0.75555432 0.923136 15.04775
-1.3612437 0.71370566 0.98761725 18.706499
1.4896545 0.75855303 0.96707344 14.0915
-1.6372496 0.8480736 0.948255 16.048
-1.4143796 0.83529371 0.97228491 20.705999
1.5178399 0.85236621 0.98056942 15.591625
-1.6256888 0.95746201 0.91495216 17.996098
-1.4448535 0.91925395 0.95226353 21.788876
-1.4676964 1.0203526 0.91138697 23.03825
1.4913177 1.0960839 0.92250407 20.092501
1.5056589 1.1888936 0.97014701 21.091999
-1.5178995 1.2651861 0.98155415 22.5
1.4664961 1.3398509 0.95746362 22.758749
6.1270213 2.1795673 0.9460125 14.1045
6.8916426 2.1826663 0.92041552 12.105
4.1366963 2.2716546 0.92065954 19.103001
4.2392578 2.2590704 0.94449085 18.103001
4.6920381 2.2725987 0.92782152 17.1035
5.6134582 2.2066326 0.9857918 15.104
6.3075318 2.209156 0.97722566 13.1045
3.8467462 2.360539 0.94002903 20.102501
3.6834362 2.4157622 0.99406838 21.101999
3.7454958 2.4238441 0.91165257 21.102501
-1.604344 0.050280817 1.0245268 3
-1.2549305 0.44096261 1.0466588 14.54125
-1.3096645 0.55577993 1.0842692 16.041374
1.533842 0.50443983 1.0845245 9
-1.6161433 0.66378027 1.0307611 13.049
-1.6016479 0.73673904 1.0164822 15.049
-1.3720078 0.74292791 1.0835353 19.041
1.5295088 0.84177166 1.0490725 14.7575
-1.5911134 0.98304063 1.0133429 18.049
1.5380738 0.91919076 1.0425154 16.091
-1.5568377 1.003598 1.0552745 18.384615
-1.4635432 1.0524569 1.0023098 23.039499
1.5429986 1.0230503 1.051612 18.091
-1.5130687 1.1154513 1.0836632 20.050251
1.5127234 1.131088 1.048655 19.591
-1.5082964 1.2574713 1.0069094 22.5495
-1.4819262 1.2750098 1.0548427 22.383499
1.487365 1.2893722 1.0488966 21.75
1.5040699 1.2566618 1.053937 21.341
-1.4724894 1.3125479 1.0758659 23.050501
1.4605656 1.393151 1.0484555 23
1.4682858 1.4108365 1.0903391 23.0905
5.7652125 2.1978569 1.0093448 14.104
4.1400719 2.267334 1.0101143 18.602501
5.0769644 2.2736104 1.0139741 16.1035
5.3978872 2.2352161 1.0761681 15.1035
3.8703113 2.3580866 1.0305432 20.101999
4.8871551 2.3054924 1.080302 17.103001
3.5922048 2.4238958 1.0559971 21.1015
-1.5878768 0.19511062 1.1105964 5.7777777
-1.1991816 0.27619404 1.1952984 11.0435
-1.5602713 0.38233906 1.145524 9.0504999
-1.2862413 0.53323615 1.1421642 15.542292
1.5687587 0.53955495 1.1561306 9.0895004
-1.5815989 0.61480469 1.1381729 12.5
-1.3358302 0.64206189 1.1856071 17.0425
1.5488985 0.64489532 1.1760623 11.589251
-1.4042752 0.79462689 1.1960025 19.3755
-1.5507141 0.87431359 1.1917293 16.051001
-1.4282067 0.88399398 1.108976 21.041
-1.3952041 0.8096953 1.1355318 20.0415
1.5796325 0.85695195 1.1605498 14.423167
-1.5380415 0.92707843 1.1802061 17.051001
-1.4057014 0.91592854 1.1791023 21.042
1.568624 0.90297592 1.1885543 15.5895
-1.516196 1.0715768 1.130886 19.525375
-1.4245857 1.0382487 1.1588311 22.708334
1.5622718 1.0016072 1.1256404 17.09025
-1.4886801 1.1428167 1.1389415 20.051001
1.4979389 1.187886 1.1522459 20.08975
1.5453238 1.1415129 1.1511586 19.09
-1.444478 1.2656531 1.1380966 22.359083
1.4827704 1.2874184 1.1261159 21.09
-1.4541267 1.3656527 1.1180468 23.051001
1.4507403 1.3628631 1.1148701 23.09
4.1474333 2.2590582 1.1117047 18.101999
4.8208857 2.2917666 1.1839916 17.102501
5.0217171 2.2177763 1.116412 16.103001
5.3619747 2.2441971 1.1778075 15.103
5.6476636 2.2035143 1.1224931 14.1035
6.2130046 2.2062871 1.101373 13.104
3.8673699 2.3470047 1.1286389 20.1015
3.4363039 2.4564316 1.1604183 22.1005
3.6358166 2.4052031 1.1425277 21.101
-1.2150936 0.26641029 1.2955624 10.0445
-1.2704828 0.46349907 1.299584 13.54425
1.5620627 0.44377014 1.2330186 8.0885
-1.2855549 0.50655425 1.2446705 14.5435
1.5717497 0.52615237 1.2034557 9.0889997
-1.5199287 0.7299338 1.2199345 14.0515
-1.5398303 0.84525824 1.2361881 15.5515
-1.3773024 0.84500724 1.2294575 20.042749
1.5882655 0.84735203 1.2738364 14.003612
-1.5085529 0.93328673 1.2080067 17.0515
1.5807726 0.9382956 1.2609696 15
-1.4616154 1.0337554 1.2828258 18.5525
-1.3890073 1.0117472 1.2937973 22.043501
1.5695099 1.0120721 1.2276236 16.79475
-1.4393702 1.1792915 1.2142298 21.026125
1.5398428 1.121022 1.2584428 18.166666
-1.4152009 1.3825583 1.2646133 23.05275
1.4491024 1.3927929 1.235075 22.5
1.4253569 1.4038181 1.2825505 22.5
4.1195288 2.2413554 1.2030463 18.1015
5.0474348 2.2401209 1.2412881 16.102501
5.6962395 2.2116735 1.2651453 14.103
3.6489952 2.3983159 1.2362976 21.1005
3.8649604 2.3393517 1.2146875 20.101
4.819488 2.3070316 1.2854764 17.101999
3.1496785 2.4142904 1.298867 23.099001
3.2275212 2.4187624 1.2592783 22.099501
-1.2285583 0.26195151 1.3742052 10.04525
-1.2320614 0.35993111 1.3007907 12.0445
1.6080968 0.47912619 1.3672301 8.0874996
-1.3222001 0.55843097 1.3303229 15.3775
1.6324621 0.55180573 1.3434135 9.2252493
1.567292 0.61949021 1.350538 10.0875
1.6218333 0.68606925 1.3929422 11.0875
-1.3621695 0.70608336 1.3346826 17.044001
-1.3826437 0.81266308 1.3319336 18.710501
-1.4310465 0.97896922 1.3569983 17.66539
-1.3722646 0.92633247 1.3574672 20.54425
1.5891616 0.94072056 1.3407433 15.088
-1.4368635 1.0423068 1.3144423 19.052999
-1.3715287 1.0506778 1.3623986 22.544376
1.568387 1.0345738 1.3456024 17.087999
-1.3735828 1.1053648 1.3268387 23.044001
1.4972441 1.1921477 1.3924832 19
1.5530775 1.10746 1.3373332 18.087999
-1.3884505 1.2913464 1.3846165 21.554001
1.4741703 1.2784773 1.3518041 20.793499
5.5896597 1.272658 1.3709255 10.1025
1.422755 1.3671931 1.3462082 22.58725
-1.3813362 1.4332711 1.3542191 23.053749
5.6248975 1.6603593 1.3649176 12.1025
5.5531931 2.043108 1.3702831 13.55125
5.4256816 2.1746786 1.3853061 14.666667
4.1364026 2.2410567 1.3958044 18.1005
4.3368516 2.2615557 1.3627907 18.101
4.5980773 2.280457 1.3430774 17.1015
5.0360584 2.2458997 1.3414338 16.101999
5.4104133 2.2454679 1.31453 15
3.0462995 2.3968062 1.3365397 23.098499
3.6728165 2.3951735 1.3359516 20.1
3.8519647 2.3317671 1.3049728 20.1005
-1.4869153 0.18910831 1.4168371 5.3809524
-1.2249823 0.22599192 1.4458144 9.0459995
-1.2470993 0.32669353 1.4350095 11.04575
-1.3425572 0.56786716 1.4274298 15.045
-1.2878802 0.53106469 1.4335958 14.5455
1.639899 0.53817642 1.4403496 8.5869999
-1.4552031 0.60879523 1.4359289 11.863636
-1.3082988 0.61247891 1.4794009 15.712499
1.5942183 0.62596804 1.4857371 10
1.6206048 0.68143684 1.4717366 11.08675
-1.3699616 0.84774762 1.4452169 19.045124
1.5789938 0.83171725 1.469906 13.391
5.3440323 0.97531003 1.4220676 8.1020002
-1.35289 1.072475 1.439682 21.450603
1.5267229 1.1317043 1.4347416 17.724501
1.4621046 1.2361069 1.4856062 19.5
5.1124649 1.2772377 1.4947964 10.1015
5.3531675 1.2106538 1.4400669 9.1020002
-1.3626895 1.3321607 1.4550427 22.05475
1.386441 1.4135494 1.406654 22.686399
5.4113889 1.650318 1.4407936 12.102
5.4788804 1.9420431 1.411273 13.25
5.4317703 2.0948524 1.4546517 14.102
2.6637857 2.2631128 1.4547105 23.0965
5.058969 2.2742131 1.4695386 16.1015
5.318922 2.211911 1.4259342 15.102
2.8620603 2.3683133 1.4112087 23.0975
3.1357629 2.3577759 1.4613165 22.098
3.6635184 2.3762004 1.4254023 20.099501
3.859875 2.3335228 1.4036503 19.1
-1.4167428 0.0032473654 1.5445248 2
4.5053039 0.13221948 1.5473351 3.5
4.4782081 0.20153587 1.5667983 4
-1.2494481 0.32275635 1.5683577 10.380333
1.664463 0.33317518 1.5847863 5
4.4806504 0.34486002 1.5454396 5
-1.2783723 0.49675182 1.5048484 13.546249
-1.2853382 0.54947281 1.5871621 14
1.6399746 0.5196901 1.5326071 8.2098331
-1.3001156 0.60928291 1.560281 15.38
-1.3417424 0.75792217 1.5185163 17.546
-1.3392618 0.94993818 1.5358629 18.5
4.4159665 0.90190578 1.598702 9.1000004
-1.3150476 1.0605077 1.5261418 22
4.5433774 1.0001043 1.5462092 9.1005001
-1.3689523 1.1899922 1.526643 20.05525
-1.3288363 1.2060874 1.5927147 20
1.4452002 1.2350783 1.5765399 19.5
4.3890114 1.2076179 1.5924304 11.1
4.5762353 1.2207209 1.5622183 11.1005
-1.3221171 1.3693118 1.5111202 22.0555
-1.30256 1.4013537 1.5569077 22.056
-1.2855622 1.4304808 1.5971267 22.056499
4.9281535 1.6138016 1.5489708 12.101
4.9320235 1.7113589 1.5585459 13.101
5.1852551 1.7785933 1.5030154 13.1015
3.9822443 2.2984982 1.5504652 19.099501
4.0227675 2.2713206 1.5687275 18.099501
4.1511183 2.2673266 1.5133429 18.1
4.2754593 2.2467306 1.5589113 17.1
4.8091292 2.2746406 1.5061922 16.101
3.1438463 2.3594463 1.5579077 22.0975
3.6687286 2.3715978 1.5220171 20.099001
-1.3412429 0.067800336 1.6908751 3.5
-1.2283642 0.25122362 1.6517415 9.0478745
4.2575512 0.22940035 1.6949545 4.1666665
4.4036508 0.22665714 1.6166418 3.5
-1.2769061 0.37907374 1.6228182 11.04725
1.6327889 0.3838945 1.6974527 5.8000002
-1.2430198 0.46177703 1.6798056 12
-1.3051877 0.50377131 1.6952614 10
-1.2686934 0.51347286 1.6299635 13.0475
-1.3095083 0.67999446 1.6313226 14.5235
-1.2826258 0.64972079 1.6625609 15.698501
-1.2830369 0.84522676 1.6451297 18.395304
1.525902 0.86243862 1.667259 13.25
-1.340312 0.93799275 1.6090026 18.028
-1.2311058 1.0939703 1.6842813 22
1.5045571 1.0448709 1.6490543 16.5
-1.3224812 1.1270266 1.6375673 18.5
-1.2624302 1.1146696 1.6849411 20.552876
1.5037417 1.1198709 1.6709816 17
-1.3118045 1.2198478 1.6170859 20
-1.2771204 1.2416729 1.6609371 20.056999
-1.2568729 1.4803591 1.672277 23.057251
4.3061471 1.4678924 1.6365089 12.5
4.409205 1.4801373 1.605051 12.1
1.4140699 1.5867553 1.6501606 23.084499
4.4151611 1.5370136 1.6050147 13.1
4.2665634 1.6137146 1.6402963 14
4.1633387 1.7848402 1.6806926 14.833333
4.203114 1.8331552 1.6418626 15
4.111867 1.9337338 1.6875973 16
4.7524843 1.9812185 1.6038095 15.1005
2.6886427 2.294415 1.6395909 23.095501
3.9345672 2.2906382 1.6286987 19.099001
4.0852757 2.2110281 1.6971365 18
4.2653952 2.2509274 1.6615429 17.099501
4.7701478 2.2497303 1.6116009 16.1005
3.6746433 2.372685 1.6209733 20.098499
3.3818088 0.077311441 1.7581999 3
-1.3317032 0.17700087 1.7519189 4.9333334
4.1732588 0.15673275 1.7407514 3.5
-1.213315 0.2859171 1.7771286 9.3823328
1.658736 0.23598103 1.7497289 3.25
3.4030237 0.23925027 1.7656784 4
-1.2995932 0.30468795 1.754723 7
4.1799264 0.31879929 1.7481967 5
-1.2327721 0.47189176 1.7821188 11.247787
1.5831609 0.53222561 1.7990407 8.0834999
-1.29864 0.64135373 1.7726026 12.0575
1.556389 0.64613074 1.7543278 10.04175
-1.2918072 0.76426888 1.7581059 13.0575
1.5583125 0.77511507 1.7364727 11.791666
4.0856094 0.75058186 1.7810348 8
4.21878 0.7563771 1.7444428 8.099
-1.2405447 0.85566354 1.7575004 18.27425
1.509254 0.86779356 1.7717168 13.0835
4.0686626 0.83893925 1.7958891 8.3825836
4.1620483 0.8939926 1.7890757 9
-1.3092434 0.91171038 1.7317476 15.2785
-1.2407645 0.94903737 1.7616965 18.296968
4.2068043 0.90563494 1.745361 9.099
-1.2514449 1.0250924 1.7203974 21.032499
-1.2293222 1.1456758 1.7558583 20.869165
1.5206068 1.1796851 1.7959914 17
-1.266938 1.2846066 1.7258904 20.057501
-1.2341139 1.3063877 1.768072 20.058001
1.4672318 1.3125517 1.724686 19.084
4.1412573 1.3794919 1.7394745 12
4.0857363 2.0616467 1.7165331 17
4.041286 2.174345 1.7203809 17.666666
2.5189669 2.2847488 1.7635186 23.094
3.1878753 2.3910499 1.7483591 22.0965
-1.1536365 -0.0097142644 1.8489296 4.5
-1.1545975 0.067695864 1.8785726 5.6666665
3.0207348 0.090380177 1.8485298 3
3.0537229 0.26931491 1.8667307 5
3.3703256 0.21407993 1.8012116 4
-1.1815772 0.3104285 1.8734695 10
-1.2154956 0.49017325 1.8232713 12.0495
1.5941081 0.44617182 1.8128712 7
-1.2775984 0.56339824 1.8327726 10.529125
1.5503254 0.59053975 1.8054522 9
-1.2618513 0.61923116 1.8856552 11.0585
-1.1646016 0.64815044 1.8993841 15
3.2217813 0.69731456 1.8676478 8.0959997
1.5664744 0.71592283 1.8177752 11.0835
3.0375381 0.7656123 1.884182 9
3.9250886 0.76162165 1.8249326 8.0979996
4.0006509 0.7579267 1.8124149 8
1.5548553 0.80399001 1.807322 12.0835
3.0700331 0.87300843 1.8682601 10.0955
3.3530543 0.80494469 1.8373616 9.0965004
-1.1663768 0.9312737 1.8707756 18.800625
-1.2487569 1.0813794 1.8049105 21.0495
-1.1630406 1.0508099 1.8707658 20.050751
-1.2254645 1.1460199 1.8591269 20.386335
1.5209308 1.1017759 1.8147069 16.04175
-1.1797998 1.2232163 1.8608525 22.717333
3.7974486 1.2630523 1.885832 12
4.0151358 1.251578 1.8140483 11
1.4620702 1.3408567 1.8043839 19.583374
1.4698002 1.4253545 1.8731863 20.083
3.7997434 1.4592201 1.885641 13
3.8639739 1.4914898 1.8655704 13.25
3.748143 1.7679152 1.8995233 15.5
3.8708124 1.7740923 1.8401655 15.333333
3.7763262 2.2091982 1.8054984 18.363636
-1.2551713 0.13293219 1.9386499 4
2.9732373 0.19338907 1.9075969 4.2222223
-1.26062 0.27437258 1.9407457 6
-1.2635221 0.47946197 1.9238176 9.0292501
-1.1747267 0.47083038 1.9172269 12.0505
2.9327722 0.46185273 1.9461457 7
1.6134857 0.57172102 1.9563026 8.7493334
2.9402182 0.56276178 1.9353257 7.5
-1.2418774 0.68197405 1.9131395 12
-1.1547706 0.67371392 1.9697471 15
2.9229934 0.63699579 1.9193579 8
-1.1213737 0.75291902 1.9845783 16
1.5840778 0.76145059 1.9989177 10.888889
2.7983031 0.703107 1.9932601 9
1.5727171 0.85294116 1.9409044 12.562125
2.8881171 0.89583969 1.9391342 10.5
-1.1622516 0.96201992 1.964035 16.683832
2.775059 0.97764564 1.9791672 11.5
2.9260712 0.98687047 1.9377224 11.333333
-1.2144473 1.0865227 1.9077575 17.059
-1.1741619 1.0667173 1.9519435 17
2.8014863 1.0790865 1.9520711 12
-1.2204452 1.1647868 1.9339052 21
-1.153178 1.1066427 1.959471 21.0515
2.7234147 1.1748706 1.9759691 13
3.0409503 1.1698265 1.9065471 13.047501
-1.1748694 1.2238541 1.9544269 22.275749
3.085283 1.2978361 1.9055544 14
3.131398 1.2575228 1.9020505 13.0955
-1.1380455 1.3098564 1.9964406 23.052
2.6589344 1.3727903 1.9737569 15
2.9193726 1.3189844 1.9493245 14.142858
2.7686121 1.4376575 1.9731586 15.5
2.8610392 1.4135643 1.9068297 15.0945
3.0826085 1.433673 1.914546 15
2.7183695 1.5799044 1.9855794 17.0935
2.8443179 1.5770651 1.9939132 16.094
3.745364 1.5409169 1.9133427 14
3.6670144 1.6857708 1.9108728 15.097
2.818475 1.8200486 1.9817909 18.094
3.4482007 1.8803681 1.9855397 17.096001
3.5591593 1.9345216 1.9765452 17
3.5231302 2.1393716 1.9689609 18
3.4433985 2.2410676 1.9864233 19.096001
3.5365109 2.2733459 1.9377685 19
3.283571 2.421062 1.997561 21.095501
3.4303901 2.4207449 1.92937 20.698668
-1.0641513 -0.07959874 2.0564184 3
-1.0835342 0.087467551 2.0498025 5.6923075
2.7095337 0.0058089029 2.067641 1
2.8109269 0.16720541 2.013442 4
-1.2126323 0.27968618 2.0213742 6
-1.0851427 0.25085723 2.0370085 8.276
1.6573989 0.23501562 2.0953183 4
-1.1121511 0.35495549 2.0258002 10
-1.0945687 0.36085728 2.0450938 10.052
1.6372392 0.36141998 2.0951009 5.2857141
-1.2161995 0.4567613 2.0179811 8.5
-1.0763221 0.45202875 2.0803018 11.5
1.6192024 0.44101709 2.0998673 6.5
-1.1398549 0.54770923 2.0238605 12.55
2.8131387 0.57982409 2.0090508 7.6666665
-1.107908 0.66012973 2.0338581 14.052
-1.0721629 0.61479712 2.0754068 13.5
1.5777999 0.67539847 2.0279684 9.7910004
-1.1531967 0.7490887 2.0955088 12.0605
-1.0977378 0.75009763 2.0413544 16.05225
1.5655837 0.78972673 2.0054269 11
-1.1452633 0.88945162 2.0770192 14.0605
1.5683861 0.83271378 2.0400951 12.082
-1.1427915 0.93379831 2.0516596 15.653126
-1.1390295 1.0592499 2.0636618 18.555
-1.1436899 1.1551366 2.0439658 20.666666
-1.1707637 1.2461073 2.0496535 22.052
2.6935594 1.2335228 2.0080979 14
-1.1105132 1.325016 2.0221283 23.0525
-1.0779417 1.366328 2.052717 23.052999
2.5636318 1.3650508 2.0563672 15.375
2.7446544 1.5321726 2.0165522 16.0935
2.5293157 1.6683236 2.0224359 18.092501
2.3810909 1.702172 2.0941887 19.091499
2.4428484 1.7252462 2.0541735 19.091999
2.3068871 1.8020451 2.0920553 20
2.4617324 1.8899378 2.0661726 20.091999
2.4721816 2.0759239 2.068217 21.091999
2.7971871 2.0919721 2.0442996 20.0935
2.44402 2.114023 2.0514867 22.091999
2.7959802 2.1276877 2.0457182 21.0935
3.08233 2.1553471 2.0514872 20.0945
3.1866262 2.1023638 2.0389822 19.094999
2.3706231 2.3301756 2.071445 23.091499
2.4802763 2.3663075 2.085109 23.091999
2.5440257 2.3290889 2.0408866 23.092501
2.7524941 2.3638601 2.0626678 22.09325
3.1025589 2.3298106 2.0754189 21.0945
3.1405804 2.4452221 2.0067523 22.094999
3.2215774 2.448657 2.0449772 21.094999
-0.98376518 -0.0039878935 2.1847939 4
-0.96702135 0.080118358 2.1935682 3
-1.0262699 0.10179906 2.1285844 5.625
-0.99207634 0.14933935 2.1863449 6
2.5753441 0.18823466 2.1519387 4
-1.0528313 0.22915551 2.1375132 7.1032982
-0.99020445 0.22101824 2.1674483 5.5
-1.138256 0.31664249 2.12816 6.5
-1.0468285 0.42186743 2.1298754 11.053
-0.84380764 0.42576215 2.1710932 8.0635004
-1.1421108 0.57398748 2.1355019 10.166667
-1.0834701 0.56352913 2.1555774 12.740786
2.5995057 0.59777123 2.1355891 8.1538458
-1.0602498 0.62775081 2.1204314 14.053
1.6020858 0.65349627 2.1373303 9.0815001
-1.1081423 0.74129999 2.1719658 12.5
-1.0945449 0.77006227 2.1686022 15.053
-1.0924501 0.87493742 2.1154821 17
1.5421414 0.87944728 2.1366642 12.08125
-1.0802687 0.94972616 2.1642792 17.693333
2.5461681 0.96534133 2.1300848 11.615385
-1.0918732 1.0508914 2.1261661 19.052999
-1.1117404 1.1321325 2.1470346 20.052999
-1.1152782 1.3047831 2.1279228 22.052999
2.3411191 1.5147343 2.12954 17.5
2.3208227 1.6743695 2.1072605 19
2.402638 1.6122273 2.1020651 18.091499
2.1330371 1.7663727 2.1934671 19.444445
-1.3077626 1.8575587 2.1568084 23.0595
2.3272221 1.8161649 2.1242039 20.091
2.0945566 1.9357219 2.1622052 21.5
2.2188601 1.9630044 2.1262686 21.0905
2.2041397 2.0782962 2.1109204 22.0905
1.9227464 2.1271918 2.193543 23.088499
2.0442305 2.2040391 2.137913 23.0895
2.1556582 2.2596226 2.1504419 23.09
2.4144735 2.2344072 2.1206002 22.091499
2.2334466 2.3005919 2.1308143 23.0905
-0.55812812 0.031355638 2.2744265 3
1.8237631 0.085671194 2.2337425 3.5
2.122632 0.024883309 2.266113 2
2.3465714 0.011482108 2.2321198 1
-0.97472584 0.10633658 2.2237697 4
2.2135789 0.16068175 2.2642696 3.8
-0.99644035 0.25798982 2.222719 8.05375
1.9130394 0.20140225 2.2630188 4.5
1.8675164 0.32111496 2.2697716 5.5
-1.0514098 0.45584509 2.2506645 10.035832
-1.0863123 0.58446002 2.2706614 12.0535
1.5424142 0.59843123 2.2123535 9.0804996
2.1298404 0.50761974 2.2950141 7.5
-1.107573 0.63060403 2.2209423 11
-1.0531532 0.64361387 2.2464108 13.684501
2.2148659 0.61667037 2.2954164 8.5555553
-1.0547578 0.75432158 2.218544 15.026751
-1.0579889 0.88826185 2.2801654 16.054001
-1.0518708 0.92598999 2.2995305 17
2.22017 1.033654 2.287034 12.6
-1.0633024 1.1532359 2.2430944 19.554001
2.2215266 1.3812411 2.2396958 16
2.0215039 1.8478301 2.2358382 20
-1.2988992 1.9311606 2.2579961 23.059999
1.6871067 2.1005805 2.2984893 23.0865
1.7472556 2.1358688 2.2802305 23.087
1.8313521 2.1050692 2.2359016 23.087749
-0.95345217 0.050738938 2.3710322 5
-0.9692784 0.23997654 2.3402386 7.7772498
2.150914 0.25298914 2.3082459 5
-1.0912049 0.49789247 2.3335221 9.0620003
-0.96113855 0.44402683 2.3936367 10.2
-1.0463128 0.59327573 2.3175342 12.5
-0.96796292 0.54467589 2.399169 11.75
1.6846466 0.54813844 2.3005762 9.0865002
1.713871 0.55905914 2.3095989 9
1.5519352 0.62334627 2.3194671 9.0799999
1.6222652 0.6459018 2.3204138 10.086
1.7232313 0.66531646 2.3234072 10
1.8476132 0.65987492 2.3266983 9.5714283
1.6986402 0.72047609 2.3126531 10.0865
1.7611747 0.74184787 2.3512552 10.58675
1.8693511 0.76146269 2.3539641 10.877001
-1.0121322 0.81995696 2.3167026 15.0545
-0.98074448 0.81655931 2.3671479 15.3
1.6688805 0.81708997 2.3837423 11.086
1.7450855 0.83960414 2.3791537 12.0865
1.8648686 0.88133883 2.3726668 12.043625
-1.0754128 0.92861879 2.311424 17.054001
-1.0084786 1.0126991 2.3256533 18.05475
1.9383483 1.0288265 2.3839662 13
1.8998939 1.3893324 2.384047 16.6
1.8567188 1.7849733 2.3291495 20
1.8375217 1.8338193 2.326149 21
1.5896058 2.0675225 2.369276 23
1.6205826 2.0525689 2.3545196 22.542999
-0.87985057 0.0012381747 2.4779282 4
-0.00099778222 0.021545418 2.4757118 3
-0.90378994 0.12703782 2.4618204 5.909091
-0.95686466 0.40257448 2.4004235 9.5
1.6822493 0.99926943 2.4251587 13
1.6904969 1.1356246 2.4411457 14.5
1.7770114 1.1181355 2.4887443 13.875
1.6751028 1.2653072 2.4536321 16
1.6552598 1.4132642 2.4734349 17.085501
1.6592505 1.5808828 2.489049 18.085501
1.70855 1.5427487 2.4402928 18.042999
1.7589241 1.6657184 2.4201701 19.333334
1.6438309 1.7509073 2.4523826 20.085501
1.7082291 1.7735001 2.4049106 20
1.6172901 1.8158292 2.478955 21
1.5888574 1.9979653 2.4066114 22
-1.2251898 2.0197899 2.4884748 23.061501
-0.87760711 0.1685648 2.5375702 6.4000001
-0.90065914 0.38762328 2.5068569 9.0559998
-0.91645998 0.4794569 2.5217261 10.056
-1.1325326 0.64072067 2.5671735 10.0625
-0.91213483 0.64912105 2.550374 12.55625
1.6835155 1.3397886 2.5322502 16.085501
1.7413955 1.4140357 2.5071025 16.727272
-1.206115 1.8717077 2.5778952 22.062
1.6442533 1.9891117 2.5706708 21.0805
-1.194388 2.0291579 2.568933 23.062
1.6298332 2.0946562 2.5677474 22.0805
-0.84880263 0.36105865 2.6896076 9.0570002
1.6335862 1.4946086 2.6113441 17.5
-1.2170175 1.5957586 2.6067567 19.062
-1.1764476 1.9376655 2.6676309 22.0625
-1.1520934 2.0231071 2.6298144 23.0625
1.5962074 2.1841733 2.6982265 22.57975
-1.1964595 1.2384481 2.7180557 15
-1.1750731 1.3150172 2.7245748 16
-1.1471717 1.4298441 2.7827454 17.0315
1.7731159 1.4740701 2.7646885 16.08
1.6676617 1.6946764 2.7878337 18
1.679391 1.8617785 2.7469234 19.790001
-1.1263374 1.9727966 2.7161975 22.063
1.6663158 1.9072218 2.7545469 20
-1.0771111 2.0323691 2.7648141 22.063499
1.5957122 2.1292663 2.7443283 22.0795
-0.31398562 0.24941614 2.8836112 5
-1.1580065 1.0122584 2.8036332 13.063
1.8261728 1.0343745 2.8699126 11.0795
1.814436 1.1850994 2.8953195 13.0795
-1.1515 1.350529 2.8493364 16
1.7947977 1.3411567 2.8759665 14.0795
1.7649717 1.4907534 2.8730109 16.0795
-1.106191 1.745072 2.8394923 19.563499
1.6251001 1.8427644 2.8397999 19.079
-1.0254848 2.0589411 2.8218224 22.063999
1.0542045 2.2964928 2.8950801 23.08
-1.133391 0.63438773 2.9174163 9.0635004
-1.1354954 0.84395295 2.9212582 11.0635
1.7119352 0.8856023 2.9551272 11.084
-1.1312288 1.059021 2.9215772 13.0635
1.6898321 1.0971158 2.9268081 13.084
-1.0982369 1.1155844 2.9790723 13.5
1.7866998 1.2471977 2.9693966 13.5
1.7544651 1.4618417 2.92958 15.693001
-1.0649016 1.5288432 2.9682188 20.056999
1.7074132 1.5629494 2.9446862 16.25
-1.0555677 1.7966477 2.9134884 20.063999
1.6368091 1.7338815 2.958724 18.078501
-1.2122562 1.86428 2.9112873 23.056
1.5996554 1.9318659 2.959162 20.078501
1.4596407 2.29529 2.9638534 22.0825
-0.94480103 2.3085365 2.9766514 23.065001
1.2303373 2.3295391 2.9751999 23.080999
1.520156 2.3068113 2.9095075 23.083
1.6810962 2.3183322 2.9223881 22.084
1.8983419 0.48393443 3.0779457 6
1.9105344 0.46523237 3.0786929 5.25
-1.1158069 0.6549527 3.0612013 9.0640001
1.8815954 0.63496387 3.0751176 7
-1.1025934 0.77253467 3.0183311 10.064
-1.0804892 0.95033431 3.0572188 11.5
-1.0431387 1.0553526 3.0961792 12.5
1.8379574 1.0569823 3.0175748 11.079
1.7307303 1.1840525 3.0160346 13.0785
-1.0344768 1.3616484 3.0346215 15.538462
-1.1686065 1.7039492 3.0135419 21.056499
-1.0628731 1.8752065 3.0439413 23.057501
-1.1354399 1.9594975 3.0373635 23.056999
-0.95802307 2.0614707 3.0474339 21.065001
-0.75098377 2.2830479 3.0839255 23.0665
-0.64579582 2.2886291 3.0734804 23.067249
-0.43807811 2.2759886 3.033392 23.06875
0.40327197 2.2864418 3.0605929 23.075001
1.6387403 2.3164048 3.0011954 22.0835
1.4924426 2.4278989 3.0041027 23.077999
1.598331 2.4619372 3.0364037 23.078501
1.9227798 0.32756922 3.1713698 4
1.9045293 0.40168163 3.1843388 4.75
-1.0685303 0.68821269 3.1337559 9
1.8623874 0.65393025 3.1876132 7
1.8555832 0.7327444 3.1577692 7.75
-1.0054823 0.82356632 3.1811278 10.065
1.7406416 0.84471488 3.1548672 9.0777502
1.8167734 0.99832714 3.1139648 11.0785
1.7063453 1.1868367 3.1039085 13.078
-0.90469682 1.2770308 3.1774001 15
-1.0055152 1.3530234 3.1020801 15
-0.97194928 1.4683547 3.1047051 16.5
-1.0438399 1.6470745 3.1512549 20.057751
-0.91858184 1.6134831 3.1399074 17.0655
-1.110862 1.7877121 3.1081367 21.557251
-1.0287585 1.93873 3.1249793 23.058001
-0.93091166 1.9891154 3.1718934 20.0655
-0.8354708 1.9831486 3.110738 20.566
0.13898945 2.2796853 3.1402957 23.073
0.20213158 2.2772765 3.1079035 23.0735
-0.84472752 2.3024948 3.1213028 23.066
0.48243034 2.3036451 3.124934 23.0755
1.6244987 2.3671424 3.1362774 22.083
-0.87561107 0.54711586 3.2825885 10.0585
-1.0233908 0.6231373 3.2195683 8.0649996
-0.9590717 0.72229677 3.2993104 9
-0.9428401 1.0147895 3.2611041 13.028999
1.7638391 1.0581588 3.2161131 10.859333
-1.08026 1.1392374 3.2819948 15.0575
-0.99626487 1.2005289 3.2299271 16.058001
-0.8977977 1.2783377 3.2548048 14.5
-1.0896039 1.3748426 3.2479401 17.057501
-1.0182242 1.4593186 3.2334788 18.058001
1.8487813 1.4181895 3.2139385 14.084
-0.88503587 1.6154727 3.2720485 17.066
-0.98438996 1.7331147 3.268723 20.0585
-1.0586019 1.8861163 3.2269263 22.058001
-1.0328736 2.1579745 3.2992024 23.0585
-0.0012399732 2.2841244 3.2121685 23.072001
0.28687707 2.2900717 3.229322 23.073999
0.93271339 2.3340635 3.2109809 23.0735
1.2528691 2.3719494 3.2805312 23.0755
1.6126225 2.3495212 3.2678313 21.0825
-0.89883465 0.19813499 3.396992 4
-0.93717039 0.2667751 3.3704858 4.833333
-0.90841925 0.57348531 3.3734491 7.625
-1.0086849 0.92444396 3.3400235 13.058
-0.87809098 1.0710452 3.3234541 12.5
-1.0323942 1.1673102 3.3522007 15.058
-0.95637828 1.2592887 3.336587 16.029251
-0.85831237 1.2264084 3.3596127 14
1.8659743 1.3727117 3.386657 14.0835
-0.89106977 1.4994016 3.3205276 16.066
-0.93628424 1.7907269 3.3301988 21.059
-0.5036608 2.1594253 3.3738818 23.0625
-0.14576854 2.3382988 3.3645015 22.070999
0.8645739 2.3193622 3.3245058 23.07275
1.5624583 2.3561985 3.3525798 21.082001
1.2094431 2.4174297 3.3593719 23.075001
-0.86552399 0.23865843 3.4647753 5
-0.87994593 0.46184739 3.4177196 6.5
-0.99379104 0.60859573 3.4062142 10.058
-0.85194713 0.70564651 3.4364769 8.5
-0.85219461 0.88943219 3.4521799 11.25
-0.94038588 0.98137981 3.4379416 13
-0.89211714 0.9366647 3.4805498 12.5
-0.92269462 1.0965695 3.4067173 14.333333
-0.95121992 1.1809874 3.4215336 15.02925
-0.84861606 1.1225789 3.4979515 14.0595
-0.86199987 1.3402371 3.4814622 16.0595
-0.96198863 1.5085611 3.4741337 18.059
-0.88700438 1.5946591 3.4726961 19.0595
-0.82209688 2.1539743 3.4241953 23.060249
-0.7229659 2.1923058 3.4700649 23.061001
-0.099437296 2.1720634 3.4223495 23.0655
0.061908633 2.2509947 3.4537978 23.06675
-0.6854195 2.3899989 3.4704132 22.067499
-0.45188901 2.3173382 3.4730427 22.069
0.77954608 2.3446765 3.4170256 23.072001
1.1673408 2.3430023 3.4214351 21.0795
1.5142021 2.3657179 3.4478433 21.081499
-0.82460779 0.40772462 3.5871029 7.5
-0.85198337 0.59249175 3.5831547 9.2795
-0.80815905 0.63289571 3.5290189 10.0595
1.8411521 0.69020784 3.5504012 8.0830002
-0.83134282 0.85955393 3.5736289 12.02975
