# .PCD v0.7 - Point Cloud Data file format
VERSION 0.7
FIELDS x y z intensity
SIZE 4 4 4 4
TYPE F F F F
COUNT 1 1 1 1
WIDTH 411
HEIGHT 1
VIEWPOINT 0 0 0 1 0 0 0
POINTS 411
DATA ascii
4.2302923 0.076889433 -4.2366614 3
4.2219377 0.36727059 -4.2670236 4
4.576438 0.57445031 -4.2988343 5
4.328382 0.65630919 -4.2567344 6
4.5072293 0.8545326 -4.2890096 7
4.1551385 1.7231132 -4.2277942 12
4.1825199 0.43204346 -4.1145468 6
3.8183188 1.7664541 -4.1798096 12
3.8359678 1.9191804 -4.1440935 13
4.1441917 1.9164145 -4.0851007 13
3.9369071 2.1399055 -4.1701322 14
4.1658301 2.0526006 -4.0531073 14
3.8769305 2.3552792 -4.0946856 15.5
4.0552621 2.3635666 -3.9546604 15
-2.0490294 1.9244751 -3.0076611 20
-2.3452725 1.9114368 -2.9224656 20
-2.2960844 2.0440917 -2.8330178 21
-2.0811346 0.33861512 -2.6320922 5
-1.9279985 0.2873314 -2.6803374 4
-1.86408 0.4227106 -2.7163692 6
-3.3642464 0.78060275 -2.6155899 7.5
-3.3418188 0.95182651 -2.6020248 9
-2.7028511 2.140749 -2.7644234 21.5
-2.8641911 2.2508111 -2.6477084 21.75
-2.2029467 0.29142648 -2.572753 4
-2.3264723 0.5070855 -2.5366039 6.5
-2.0655065 0.47220248 -2.5913532 6
-3.3936925 0.62027246 -2.5980806 6
-2.3603396 0.64096349 -2.5064387 8
-3.7440577 1.0008206 -2.4061489 9
-3.7038531 1.368407 -2.4314911 13
-3.2416403 1.5448245 -2.5109696 14.5
-2.9293625 1.5771469 -2.5807672 15.5
-3.1989841 1.6696984 -2.4627404 16
-3.8843203 0.83682352 -2.3989253 7.5
-3.9162869 1.049404 -2.3503718 9
-3.1771019 2.012346 -2.226995 19
-4.2079916 1.2722923 -2.1176057 11
-4.1633301 1.4444898 -2.11854 12.5
-3.8872812 1.654474 -2.1506405 14.75
-3.1855984 2.0351961 -2.1905584 20
-3.824944 1.6949637 -1.963122 16
-3.7531962 1.8808157 -1.9630156 17.5
-6.0080948 0.53928924 -1.545971 3
-6.0411501 0.77929306 -1.5249566 4.5
-6.0285149 1.2259932 -1.5129501 7
-4.3019085 1.0142858 -1.3266691 9
1.0053167 0.13517444 -0.75583011 5.5
1.038741 0.27582577 -0.6550349 9.5
-5.071156 2.7233112 -0.7410987 18.5
-4.8946013 2.787782 -0.66976875 20
1.058074 0.26620173 -0.54496288 9.5
1.1110414 0.071362026 -0.34164378 4.5
-2.1065586 0.13633889 -0.1199294 4.5
0.87426299 0.027296495 -0.029622126 5
-2.5000589 0.31434795 -0.087845474 6
-2.3883739 0.31137013 -0.071890473 6
-2.1090419 0.29513615 -0.12062173 7
-2.4844582 0.47304574 -0.024327487 8
-2.3697414 0.49401143 -0.084881425 9
-2.0975525 0.51898092 -0.12051255 10.5
-2.4704046 0.6917429 -0.07562086 11.5
-2.0768211 0.72657657 -0.11645015 13.5
-2.4110036 0.90546274 -0.06720075 14.5
-2.0393467 0.80099475 -0.042673606 15
-2.3955936 1.0233575 -0.036625415 17
-2.0192862 1.3197875 -0.068830445 21.5
-1.9930664 1.4511877 -0.068606071 23
-2.3788009 0.15119399 0.19195433 3.5
-2.0921633 0.017820597 0.0016996248 3
-2.5571723 0.34815475 0.13766766 5.5
1.1570415 0.28474468 0.13080543 9.75
-2.5240378 0.41862038 0.079741687 7
-2.3486249 0.61406231 0.15718815 10.5
-2.2757509 0.9616791 0.13340558 15.5
-1.9895833 0.86315519 0.17775635 16
1.22703 1.0991459 0.16156992 23
-2.6471698 1.2472042 0.18485028 20
-2.2567079 1.2850993 0.15356943 20.25
-5.1102014 2.7279809 0.080922335 19.5
-4.9949937 2.818182 0.078776568 21
-2.4911554 0.34518278 0.34065068 5.8333335
-2.5091381 0.46090734 0.35008699 8
1.2820423 0.48336238 0.33624643 12.25
1.2954342 0.77844274 0.34506556 17.333334
-1.9531392 0.97574377 0.33802456 17
-2.2532556 1.1056559 0.29781753 18
-2.1890135 1.1078043 0.33849272 18.5
1.233954 1.1192641 0.31824431 22.5
-2.5928438 1.2852774 0.36232787 20.666666
-2.2448583 1.3070059 0.28525534 20
1.309413 0.2854543 0.43026841 8.75
-2.4376187 0.542606 0.57412589 9.333334
1.334882 0.64261687 0.55971146 14
1.3007306 0.81811517 0.47823617 17
-2.228611 1.1000822 0.50599802 18
1.2746385 1.0088193 0.54922438 20
-2.1115656 1.3287573 0.58208722 21.75
-2.2150288 0.2659305 0.69823265 5
1.0733615 0.32065144 0.69861215 8.25
-2.2761464 0.5477556 0.68228352 9
-2.2163448 0.73483181 0.68774301 12.5
1.5294083 0.67108941 0.68772322 15
-2.4350138 0.8812089 0.76933324 15.25
1.285403 0.8979373 0.7259388 18
1.4430254 0.8010267 0.76181251 17
-2.0907249 1.1969866 0.6789937 20
-1.8670635 1.1298926 0.69136369 19
-2.0404189 1.3179911 0.7313484 21
1.237643 -0.039937239 0.91290689 2.5
1.4279449 -0.046544582 0.93104804 2
1.5138751 0.093283579 0.93045533 4.75
1.6072971 0.089584544 0.99757427 4
-2.2369924 0.33646137 0.83347058 6
-2.1567943 0.21913268 0.88576961 5
1.3110756 0.2094239 0.97944796 7
-2.1173644 0.78348351 0.98679543 13
-1.8496511 0.72849488 0.92785811 14
1.3268818 0.64249367 0.86511445 13.666667
1.5034405 0.67878038 0.89510363 14.277778
1.6008226 0.77016121 0.98905653 15
-1.8268638 0.92837888 0.87697065 16.5
1.4975307 0.89718974 0.89530301 17.5
-2.3248072 1.1494312 0.87621653 19.25
-1.8068032 1.0267426 0.86665291 18
1.5276306 1.119459 0.94403023 21
-2.0714679 1.313815 0.96156919 20
1.488337 1.293003 0.90335679 23
-2.0212348 1.4300752 0.84677523 22.5
-1.7924644 1.4475349 0.80767661 23
1.3069679 -0.0011198753 1.173699 2.5
-2.0833194 0.1078017 1.1795175 2
-1.7942994 0.080692142 1.1729268 4
1.6048473 0.016327048 1.0644757 2
-2.0847445 0.28029975 1.0750936 6
1.6143398 0.31377825 1.0761439 7.5
-2.0808654 0.59033823 1.1499203 10
1.3488166 0.41185501 1.0255591 10
1.6033288 0.47316062 1.1410998 10
-2.0667825 0.70701516 1.1028714 12
-1.770243 0.72180122 1.158684 13.5
1.3341591 0.78646743 1.0504448 16
1.6105387 0.6204201 1.0757201 12.5
-2.1153526 0.84873128 1.0858378 14.25
-1.7781498 0.89369637 1.1446972 15.5
1.2743979 0.89872921 1.1983653 18
1.5880965 0.86111993 1.020424 16
-2.2511744 1.1248298 1.0958058 19
-1.9517549 1.1101278 1.0760608 18.166666
-1.7811098 1.1830729 1.0733652 19
1.5258844 1.117695 1.1174022 20
-2.2452703 1.2527571 1.0565872 20.75
-2.1078422 1.3830525 1.1907825 22.5
-1.7214698 1.3076767 1.1242598 21
-1.9082689 1.4789343 1.0809741 22.25
-2.017031 0.1057521 1.3084657 2
-1.7843146 0.072479561 1.2065482 3
1.3705039 0.08561267 1.2323158 5
1.4515228 0.059840899 1.2802293 4.5
1.6273451 0.070798084 1.3124177 2
-2.2895122 0.25595859 1.3888532 4
-2.0624607 0.24259372 1.3289198 5
1.3728445 0.2199022 1.278412 7
1.5064306 0.28720811 1.2793608 7.4666667
1.624813 0.32821649 1.2477242 8
-2.0149522 0.53639746 1.2150545 9
-1.7380421 0.55224103 1.259028 10.5
1.3925977 0.41993859 1.273555 9.5
1.5948535 0.53189021 1.2122116 11
-1.9704237 0.63784015 1.2774262 11
1.2652785 0.73508793 1.3358138 14.75
1.5657766 0.6890192 1.350889 13
-1.8844646 0.89902246 1.3306001 15
1.2433424 0.98059154 1.2204913 19
1.5434417 0.90573859 1.2768116 16.5
-2.1159534 1.1308746 1.2913746 18.5
-1.8888631 1.1964889 1.3016641 18
-2.0536237 1.248623 1.3417665 20
-1.8947643 1.2834532 1.2223513 20.25
-1.8514917 1.4056218 1.262027 21
1.3807636 1.7299004 1.2653961 21
-1.9328225 0.16400421 1.4286861 3.5
-1.6794219 0.14179368 1.5857407 4
1.5851718 0.059178811 1.4959575 2
-2.2547207 0.21045157 1.469979 2.5
-2.0963688 0.31580001 1.5562514 5
-1.9012482 0.24354482 1.4714665 4.5
-1.705143 0.3473998 1.5423199 7
1.5854262 0.33394784 1.4570407 7.5
-1.8326585 0.42114586 1.5509367 7.5
-1.7973092 0.54308081 1.5694917 10
1.5592939 0.55650371 1.4209418 10.5
-1.9028692 0.65649486 1.5678215 10.666666
-1.6993443 0.72275501 1.5095311 13
-2.0020204 0.85856509 1.5607698 14
-1.9115735 0.86707693 1.5299492 13.944444
-1.6532867 0.90803844 1.496168 14.666667
1.2862673 0.83965099 1.5669026 15.5
1.5880389 0.8783291 1.5277386 15
-1.8413463 1.0819619 1.5599 17.25
-1.6107261 1.0581783 1.5560659 17
1.5683682 1.0534753 1.5480484 17
-1.9372027 1.3233628 1.5591788 19.75
-1.7301372 1.2861423 1.5457581 18.5
-1.5958678 1.2162274 1.5536904 19
-1.7164562 1.4157643 1.5355952 21
1.3802668 1.7532269 1.5296034 20.5
-1.6053035 0.020066602 1.7387284 3
-1.5957761 0.0069088936 1.7700174 2
1.6051033 0.13187586 1.650164 4.5
-1.8237615 0.39402238 1.6766467 6.5
-1.7760224 0.30988109 1.7318195 5.666667
1.5959344 0.35543078 1.727127 7
1.612738 0.30520171 1.7084399 7
-1.8208752 0.58434939 1.7666386 9
-1.6473476 0.41819471 1.7483681 7
1.6073232 0.51242054 1.635332 9.5
-1.9560349 0.77471006 1.609762 12.5
-1.7452147 0.74587798 1.7351872 12.5
1.5911651 0.62318587 1.6209937 11
-1.8045962 0.96944398 1.6056057 16
-1.7592796 0.93004894 1.6510441 15
1.593477 0.9260537 1.6073023 15
-1.6935959 1.1985693 1.6524451 17.5
-1.6870009 1.2808858 1.6720282 19
1.4421085 1.4688562 1.6358267 18
1.4143771 1.6074368 1.6036227 19
-1.7379148 0.2056005 1.8166816 4
-1.727378 0.53411651 1.8712796 8.5
-1.5494295 0.45414713 1.8387414 9
2.0368981 0.44140422 1.8363377 8
-1.6092511 0.67802453 1.9822899 10.25
-1.5451565 0.75302899 1.9399641 11.75
2.0062664 0.60027868 1.8103341 9
-1.5394468 0.90302342 1.9540777 13.666667
-1.6357436 1.0896015 1.8149019 16
-1.5760763 1.1006519 1.9179893 16
1.7713525 1.1052673 1.9117817 15.25
1.7534187 1.3855146 1.8253472 17.5
-1.4596852 0.11532442 2.0381491 4
1.4682685 0.16232729 2.0075355 5.5
1.7242565 0.0071030213 2.1367981 2.5
-1.5362924 0.35926387 2.0779948 6.1666665
1.4341139 0.35314697 2.0057001 7
1.779319 0.22960792 2.1921425 5.5
-1.4516139 0.47322196 2.0419595 8.5
1.4770519 0.50904208 2.0277493 8.5
1.7814353 0.41255057 2.1824129 7.5
-1.5167176 0.7238732 2.0686114 11.333333
1.4647688 0.69368064 2.0283518 10
1.7941172 0.60995644 2.1847525 9.5
-1.5200783 0.89734286 2.0831237 13.25
1.7854826 0.89076293 2.0253949 12.5
-1.5017745 1.0885005 2.0249867 16
1.7528021 1.3036747 2.1813042 16.25
1.7324002 1.5089462 2.1644216 18
1.857872 1.6528785 2.1531353 19.75
1.8136379 1.8748163 2.1635914 21.5
1.6956875 -0.029012777 2.3927591 2
-1.4733384 0.55994165 2.2454879 9
1.7870424 0.85333252 2.2900245 11.5
1.7642984 1.0223722 2.2703955 13.5
1.9246624 1.0247307 2.3094244 14
1.8884697 1.3425199 2.3770268 16
1.8498497 1.4707366 2.316396 17.5
1.7902588 1.7698834 2.3981185 20
1.8478326 1.6087894 2.3234408 19
-1.6499517 1.8915467 2.3793442 20.75
1.7696345 1.9744507 2.2797484 22
-1.5575781 2.1852798 2.3582447 23
1.7708766 2.0443826 2.2833657 23
1.7666242 0.19342795 2.4432933 5
1.7685876 0.31438985 2.4869699 6
1.7611898 0.50808716 2.4202356 8.25
1.9580977 0.43909037 2.5199728 8
1.764991 0.73713243 2.4258251 10
1.9528389 0.70091462 2.553216 9.666666
-1.630827 1.3867213 2.5457721 15.5
1.8861243 1.2257979 2.4642825 14.5
-1.6172307 1.516692 2.5180285 17
-1.5990649 1.5997332 2.5807478 18
-1.7374334 1.6688614 2.5530267 19
1.7948102 1.7072959 2.4927032 19
1.825881 1.6386282 2.5734189 18
-1.7015057 1.8654326 2.5226841 20.5
-1.5491772 1.9227093 2.5427465 20
-1.4431044 2.1668012 2.5833039 23
1.9227735 0.34919605 2.7438328 5.5
1.9198109 0.51552641 2.718622 7.5
1.9046642 0.63394505 2.7739651 9
-1.5798407 0.96000749 2.65627 12
1.898043 0.87859172 2.7170436 10.5
-1.5673715 1.0912418 2.7085309 13.5
1.5772266 1.0895014 2.6572092 14
1.8668237 1.0906451 2.7384293 13
-1.559515 1.3001575 2.7431123 14.75
1.5585351 1.2793183 2.7146902 15.5
1.8516043 1.2692988 2.6889615 14.5
-1.6814232 1.5020643 2.690134 16.75
-1.5443165 1.5334938 2.690994 17.5
1.8458627 1.4374593 2.6565769 16.5
-1.644614 1.7248349 2.6575961 19
-1.4928236 1.7313722 2.692874 19.25
-1.4819014 1.9522445 2.6824398 21.083332
-1.4151434 2.0351322 2.6630182 21
-1.3948606 2.1910081 2.630935 22
-1.5115871 0.1049343 2.8681214 3.5
1.895179 0.068793178 2.9075317 3
-1.5296626 0.3204658 2.9001031 5.083333
1.9015402 0.33215326 2.9372499 5
-1.5394979 0.51100159 2.8610334 7
1.8880951 0.51202995 2.9035068 7
-1.5475191 0.69182891 2.8822625 8.833333
-1.5293815 0.86447722 2.8827271 10.5
-1.520165 1.1274707 2.9203608 12.166667
-1.654398 1.3273354 2.9014773 14.25
-1.473056 1.5700909 2.8729336 17.5
-1.3218493 1.5729736 2.9841385 16.5
-1.3703282 1.7684188 2.8722134 18.75
-1.3964612 1.9277753 2.9280329 20.5
-1.3577487 2.087579 2.8198457 22
-1.4871656 0.086918034 3.0625274 1.6666666
-1.6057802 0.33282641 3.033489 5
-1.4726702 0.56557184 3.0278451 8
-1.7492476 0.68200934 3.1708364 7.75
-1.4190478 0.70109272 3.1198387 8.5
-1.3501223 0.63264769 3.1732202 7.5
-1.3201184 0.91080773 3.1534295 10.25
-1.3514382 1.1319464 3.1150255 12.5
-1.3303183 1.3233094 3.096215 14.666667
-1.3285733 1.5077915 3.0829813 16.25
-1.3376163 0.17720871 3.2434721 2.5
-1.2679471 0.33724773 3.3292253 5.25
-1.6522045 0.59415174 3.3294103 7
-1.3054333 0.50428271 3.3286986 7
-1.2388618 0.66271591 3.3749859 8.5
-1.2949388 0.88234288 3.2795606 10.25
-1.2647655 1.0289497 3.2760966 12
-1.1891356 1.0345538 3.3669832 11.5
-1.2878779 1.2055882 3.2201443 13
-1.1651903 1.2794738 3.3255048 13.5
0.50347078 2.3495064 3.3323932 21
-1.2362665 0.043617617 3.4022765 3
-1.2392966 0.34134585 3.4025438 5
-1.2424738 0.49303243 3.4094541 6
-1.1646271 0.54358637 3.4908888 6.5
-1.1569905 0.68883187 3.4892383 8.5
-1.1486993 0.90361869 3.4559112 10
0.54248393 2.2962551 3.4927444 19.5
0.63505042 2.2645125 3.4738734 19
-0.62812287 2.4880514 3.7369859 21
-1.0953258 2.2463586 3.8855083 18
-0.4984248 2.3578265 3.9121275 19.5
-1.0762894 2.4260051 3.8358119 19.5
-0.9297753 2.4046106 3.9103467 19
-0.63957053 2.4073195 3.8175952 20
-1.0300639 1.5889819 4.196949 13
-1.0083487 1.7439557 4.1892338 14.333333
-0.99657387 1.9885216 4.1613178 16
-1.1402795 2.117389 4.1975007 17
-0.97675025 2.1101398 4.122251 17
-0.9618454 2.2813864 4.0962172 18
-0.46968722 2.2929263 4.0381565 18
1.1517743 2.2694044 4.117116 18.5
-1.0824354 1.3321933 4.3003798 11.5
-1.1151994 1.5633074 4.349968 13
-1.102156 1.6180906 4.3679409 14
-0.92339265 1.6479622 4.3469281 13
-1.1428875 1.8030987 4.2249093 15
0.70488942 2.2753277 4.2526817 18.5
-1.0284421 0.94971484 4.559865 9
-0.95793521 0.86490667 4.4716234 7.75
-1.0931425 1.0270908 4.4849806 10
-1.090308 1.2904792 4.4628339 11
-1.0059695 1.5866565 4.5585852 13
-0.92371058 1.429598 4.4057956 12
-1.0242084 1.7145176 4.5784125 14
-1.0331272 1.9121453 4.467267 15.5
0.74125111 2.1937432 4.4146247 17
-0.96199125 0.086675391 4.7332172 3
-0.96600068 0.29060864 4.7347088 4.5
-1.0090424 0.73385996 4.6432581 7.5
-0.72496939 0.91202354 4.7802157 8.5
-0.97744602 1.1038327 4.7186518 10
-0.71099681 1.1374161 4.7734032 10
-0.96911293 1.2524496 4.6748281 11
-0.71572858 1.3119969 4.7310467 11
-0.96274239 1.4824702 4.6417232 12
2.768311 0.5899294 5.4918733 6
2.7960784 0.77209044 5.4886317 7
2.770926 1.0687896 5.5236788 8
2.8022563 1.2059427 5.5314012 9
2.8195164 1.4315473 5.5272303 10
2.5339036 0.65298676 5.8138895 6
2.5456469 0.85993928 5.8106604 7
2.5476625 1.1419753 5.8009772 8
2.555479 1.3858465 5.8096356 9
2.687176 0.10749692 17.336878 2
3.1413615 0.18996502 17.261915 2
2.5591896 0.66637999 17.391644 3
3.1462681 0.72564852 17.250059 3
2.4941342 1.382321 17.564581 5
0.8295297 0.48664904 17.782251 2
1.3873867 0.78891081 17.786177 4
1.8491106 1.1269259 17.774475 4.5
1.6400677 0.13171123 17.806536 2
0.33263981 0.57857227 17.885706 2
0.72265917 0.81182539 17.948936 4
1.1478183 0.89995277 17.839544 4
1.2473667 1.2481377 17.892601 5
1.1096075 1.4154931 17.905539 5
