# .PCD v0.7 - Point Cloud Data file format
VERSION 0.7
FIELDS x y z intensity
SIZE 4 4 4 4
TYPE F F F F
COUNT 1 1 1 1
WIDTH 1235
HEIGHT 1
VIEWPOINT 0 0 0 1 0 0 0
POINTS 1235
DATA ascii
-1.5341986 1.2590351 2.7510788 14.854167
1.5550139 1.2443527 2.7498138 15.1
1.8666724 1.2006551 2.7909198 14.0855
-1.8008423 1.3847008 2.7178206 15.1005
-1.5754493 1.3036665 2.7285881 14
-1.8292232 1.4025886 2.7906055 15.0915
-1.6888715 1.4330471 2.7118459 16
-1.5324552 1.418965 2.7370543 16.5
-1.6327109 1.5046759 2.7353594 16.6
-1.5818932 1.5195873 2.7868934 17
2.3733191 1.5337011 2.7065749 15.1185
-1.8377538 1.6545749 2.756505 17.591249
-1.1698387 1.6436744 2.7461081 18.435501
-1.0533878 1.6755378 2.7956545 18.106001
-1.833014 1.7770847 2.7655647 19.091249
-1.5757505 1.7687275 2.760417 19.031
-1.4273018 1.7640064 2.7799745 18.75
2.3111377 1.7904994 2.7381897 17.118
-1.4721757 1.8011292 2.7041452 19.857143
-1.4498541 2.0079167 2.7700977 21.28125
-0.98732895 2.0425022 2.7224495 22.0975
1.8487951 2.0139863 2.7927628 18.122999
-1.2343085 2.191412 2.7159796 23.095501
-0.86632216 2.1151328 2.7901833 23.098499
-1.3595502 2.2849336 2.7504842 23.0725
0.57836044 2.2396536 2.7596774 23.087
1.1615179 2.2835233 2.7020957 23.091
1.5282291 2.2940173 2.7528136 20.62175
1.6217258 2.288995 2.7551098 22.0935
-1.2204698 2.3729224 2.7700677 23.0735
0.34073782 2.3779354 2.737324 23.115499
0.62416804 2.3906825 2.7281578 23.11725
0.94817239 2.3457751 2.7247419 23.1115
1.1256084 2.3699682 2.7484119 22.605251
1.2374287 2.3670678 2.748414 22.116751
1.3488929 2.384989 2.7741866 22.113501
1.4264216 2.3058295 2.7372525 22.092501
1.5520129 2.3129895 2.7974799 21.1145
1.6119375 2.3309093 2.7290866 22.115
-1.5115871 0.1049343 2.8681214 3.5
-1.5204469 0.28951952 2.8416498 5.5
1.9100929 0.21011938 2.8523252 4.25
-1.5126181 0.44308096 2.8638966 7
-1.5663775 0.57892227 2.8581703 7
1.8933564 0.55306828 2.8641722 7.5
-1.5783591 0.61880726 2.8079963 8
1.8965495 0.67832702 2.8462601 9.0854998
-1.6743299 0.74070102 2.8974168 9.1020002
-1.5663997 0.73352873 2.8366351 9
-1.5641668 0.85968739 2.8200512 10
1.8843179 0.84474254 2.8100507 10.0855
2.0667357 0.89419353 2.8159642 10.124
1.8922148 0.93904072 2.8218293 11.0855
-1.8517282 1.0771524 2.8125844 12.0605
-1.6451044 1.0881946 2.8674519 12.102
-1.5368147 1.0928535 2.8543963 12.072
-1.4940102 1.0221401 2.8512795 12.063
-1.0943099 1.0984527 2.8471739 13.106
-1.8382969 1.1377784 2.8825493 12.737834
-1.643178 1.117236 2.8210444 13.102
-1.5050663 1.1633155 2.8996725 12.5
-1.4314525 1.1264825 2.8881466 13.1035
1.5371261 1.1970469 2.8532276 14.0855
-2.1430469 1.2719474 2.8205552 14.0895
-1.988694 1.2615101 2.8945258 13.59075
-1.8342795 1.2041168 2.8552492 13.56075
-1.6187437 1.2885488 2.837183 14
-1.5183792 1.2215247 2.8232856 13.572
1.5460553 1.2563449 2.8633564 15.0855
-1.6450949 1.3893356 2.889951 15.062
-1.7836971 1.4256294 2.8456705 15.092
-1.5301142 1.5455537 2.8471115 17
-1.4159977 1.5946281 2.8987558 18
2.4046419 1.5555359 2.8430817 15.118
-1.439625 1.6343549 2.81567 17.5
-1.0965362 1.6635308 2.8730192 18.097
-1.6057132 1.7343243 2.8100162 19.093
-1.5461118 1.7538952 2.8547041 19.0935
-1.4437451 1.7423108 2.8700929 18.847
-1.3701001 1.7457452 2.8764408 18.5
-1.752257 1.8111376 2.8388486 19.091999
-1.5423923 1.8064773 2.8562143 19.0625
-1.4787169 1.8321581 2.8978136 19.063
-1.3539031 1.8815502 2.8931794 20.062
1.865389 1.8228554 2.8286195 17.122999
-1.3694159 2.0838728 2.811816 22.0205
-1.3091605 2.1077235 2.8428564 22.063999
2.6546478 2.1587389 2.877768 17.1255
-0.3485356 2.2967532 2.8448963 23.08
-0.019670844 2.2927804 2.8727574 23.0825
0.98538089 2.2593787 2.8480361 22.0895
1.1569319 2.238857 2.8248501 23.083
1.2557731 2.2627604 2.8536799 23.0835
1.4677768 2.2999516 2.8317139 23.083
1.5056732 2.2813392 2.858645 23.084999
1.7006023 2.262218 2.8862259 22.086
-1.0430675 2.3474967 2.8926904 23.075001
-0.84960091 2.3445475 2.8341527 23.07625
-0.42071676 2.3195226 2.8888381 23.0795
0.5233556 2.393002 2.8552573 22.616249
0.67552596 2.3560245 2.8298342 23.109501
0.78560656 2.3755589 2.8788595 23.110001
0.85247338 2.3238645 2.8690534 23.099499
0.91289067 2.3096931 2.8574083 23.089001
1.0278573 2.367619 2.8449309 22.766167
1.2141625 2.3510301 2.834682 21.120001
1.3601322 2.3171453 2.8300779 22.091749
1.4433682 2.3025126 2.8951223 23.084499
1.5992141 2.3758209 2.847759 22.1145
1.6039307 2.3131225 2.8512886 22.093
1.8724618 2.3058901 2.8828833 22.087
-1.5725743 2.4077473 2.8853526 23.093
-8.7411327 2.6835091 2.8684068 10.0785
1.895179 0.068793178 2.9075317 3
-1.5388783 0.35141212 2.9585562 4.6666665
1.9015402 0.33215326 2.9372499 5
1.8880951 0.51202995 2.9035068 7
-1.5164527 0.69313645 2.9123001 9.5
-1.6223428 0.76595181 2.9848258 9.1025
-1.5477453 0.76354283 2.9264908 9
-1.4945964 0.86926705 2.9454031 11
2.0791626 0.89601952 2.9700921 10.1235
-1.8334868 0.90446526 2.9000232 10.092
-1.6913679 0.93224132 2.9072273 11.093
-1.1680791 0.93160099 2.9735909 11.1055
-1.4857786 1.0192565 2.9326382 11
-1.3050518 1.0701195 2.9201286 12.1045
1.8730334 1.0852697 2.9018555 12.123
-1.5815341 1.1695976 2.917233 12.75
-1.3766236 1.1217042 2.9732847 13.104
-0.94766438 1.1544936 2.9720118 13.107
-1.813832 1.2296473 2.9200628 13.092
-1.7674797 1.2462455 2.9625885 14.0615
-1.5077283 1.2219065 2.9940984 13.103
-1.129245 1.272292 2.9780512 15.097
-1.7013507 1.3632195 2.9390309 14.5
-1.6900524 1.3661219 2.9657717 14.5
-1.4550974 1.3989478 2.9615071 15.563499
-1.4496869 1.4284177 2.9630404 15.397654
-1.3877101 1.4888752 2.9339969 15.8
-1.4789901 1.5789465 2.9114594 17.103001
-1.3218493 1.5729736 2.9841385 16.5
-1.0311794 1.6998316 2.9353621 19.0975
2.2080936 1.677645 2.9162884 16.117001
-1.3159648 1.7483855 2.9753621 18.0735
-0.958049 1.7254261 2.9702463 19.098
-1.4356971 1.8647428 2.9522943 19.063499
-1.3607619 1.8060626 2.9058552 19.062
-1.418577 1.9083258 2.9359522 20
-1.3964612 1.9277753 2.9280329 20.5
-1.3613275 2.1750145 2.9315286 22.062
2.6222281 2.1597903 2.9730039 17.125
-0.66325194 2.2765682 2.9920146 23.066999
-0.21763223 2.2890279 2.9261305 23.080999
1.2018905 2.2972527 2.9500489 22.0905
1.3519737 2.2950025 2.9560714 20.120251
1.5151976 2.2649069 2.958694 20.121
1.6150597 2.2303407 2.9378772 19.1215
1.73759 2.2028313 2.9289043 19.122
1.8424935 2.2329769 2.9688973 19.61875
-1.279368 2.3567061 2.933857 22.568001
-0.7742151 2.3457968 2.9965956 23.077
-0.081669867 2.3194978 2.9713221 23.082001
0.063064575 2.3055487 2.9483285 23.083
0.17090809 2.391974 2.9088845 23.114
0.24810886 2.3425524 2.9869835 23.084249
0.41943866 2.3452213 2.9693298 23.085501
0.55801678 2.3325682 2.9265707 23.0865
0.65553069 2.3088827 2.9992349 22.087
0.72094452 2.3709607 2.9469593 23.0875
0.89642894 2.389545 2.9455335 22.118
0.96062559 2.3402436 2.9664249 21.603626
1.1363393 2.3361633 2.950702 21.119249
1.4676515 2.3182724 2.9875572 22.0825
1.6180663 2.312778 2.9979858 21.114
2.102767 2.3386424 2.9196336 22.087999
-1.7300622 2.4566095 2.9411082 23.091999
-1.3287778 2.4075732 2.9841247 23.094999
-1.0613469 2.4334898 2.9652369 23.105499
-0.62851495 2.4316146 2.9761605 23.1085
-0.55988109 2.4210606 2.9913692 23.108999
-0.41614252 2.4401224 2.954746 23.110001
0.037598372 2.4119935 2.9495411 23.113001
0.46088982 2.4097538 2.9827282 22.115499
0.59499192 2.4275515 2.9034014 22.116501
0.78675687 2.4165866 2.9429104 22.1175
1.002279 2.4014091 2.9588664 22.111
1.1103637 2.4011335 2.9837239 22.1115
-1.4505109 0.0035490547 3.0710478 2
-1.5324636 0.15248518 3.0183721 2
-1.4632752 0.14983141 3.083482 2.625
-1.6057802 0.33282641 3.033489 5
-1.533989 0.35273123 3.082325 5
-1.4726702 0.56557184 3.0278451 8
-1.8060286 0.64513361 3.0594177 8.0617504
-1.5663376 0.62320727 3.0714037 8.1029997
-1.4394906 0.65273833 3.0630012 8.7627697
-0.90066308 0.66152269 3.0326912 9.1075001
-0.81876886 0.67873496 3.0874751 9.1079998
1.5354824 0.63395333 3.0280402 9.085
-1.5499436 0.78811389 3.060394 9.1029997
-1.4469595 0.71373707 3.0603156 8.3076925
1.8920602 0.75056249 3.0800276 9.1225004
-1.245141 0.82323128 3.0726364 10.0965
1.8946096 0.87512946 3.0699162 10.1225
-1.4292541 1.0581244 3.0183501 12.643111
-1.3851012 1.0772839 3.0739219 11.910622
-1.7286494 1.1471761 3.0835545 12.093
-1.5168619 1.1155117 3.0174997 12.103
1.906108 1.1473733 3.0580082 12.1225
-2.0058007 1.2459573 3.0164444 13.091
-1.9121428 1.2978127 3.0019624 14.0915
-1.7239389 1.2159169 3.0260856 13.562
-1.030597 1.2633483 3.0631382 14.09775
-0.86298674 1.2548852 3.032213 14.099
-0.79246956 1.2492293 3.0758607 14.0995
-1.3412151 1.3509035 3.0718596 14.75
-1.2970804 1.3709116 3.0930541 14.074
1.8775929 1.3817058 3.0094621 13.1225
-1.557101 1.4170312 3.0168195 15.063
-1.4088242 1.4232528 3.026613 16.063999
-1.2832721 1.4787203 3.0738604 15.074
1.8847901 1.4850217 3.0126541 14.1225
2.2810874 1.4966681 3.0035262 14.117
-1.3296309 1.5417881 3.0607464 16.5
2.1124477 1.5417844 3.090446 15.116
-1.277436 1.7499586 3.0953183 17.073999
2.2361412 1.7724135 3.0748546 16.116501
-0.83112949 2.2947216 3.0926912 23.066
0.27496368 2.2734208 3.0831902 23.073999
0.34679127 2.2788427 3.0251265 23.07975
0.40156633 2.273068 3.0286036 23.075001
1.7165327 2.2986891 3.0017183 20.1145
2.5874562 2.2077267 3.0887313 17.1245
-1.2576934 2.3633721 3.0256011 23.064165
-1.1207205 2.315233 3.0883038 23.063999
-0.94326299 2.3268123 3.0354381 23.066
-0.89323717 2.300247 3.0509617 23.0655
-0.48627639 2.3907301 3.0453906 23.079
0.29115623 2.3440552 3.0449924 23.106501
0.73515046 2.3798275 3.0594511 21.612999
0.88428247 2.3395219 3.0770359 22.098
1.0500814 2.3538234 3.0930877 23.0795
1.1817816 2.3460417 3.0858779 22.09
1.2573372 2.3687243 3.0378969 23.080999
1.3065248 2.3813236 3.0087359 22.112499
1.4332666 2.3336935 3.050575 21.102249
1.506429 2.3349621 3.0025463 21.113501
-0.69388801 2.4368868 3.0338123 23.108
-0.012327552 2.4385006 3.037616 23.112499
0.40264714 2.4135139 3.0484104 22.115
1.2277436 2.4033217 3.0162876 22.112
-1.4458864 0.24673711 3.108608 3.0625
-1.7517343 0.6143173 3.1727152 7
-1.3501223 0.63264769 3.1732202 7.5
-0.89698154 0.68620718 3.1844461 9.099
-1.7556814 0.74943781 3.1486518 8.5206671
-1.4144485 0.72004795 3.1184707 8.75
-1.308907 0.84923506 3.1938069 9.5
-1.1791697 0.84479958 3.1552336 10.097
-1.6455094 0.97073233 3.1559792 11.09375
-1.3313299 0.97238046 3.1130519 11
-1.0293379 0.90015286 3.1144111 11.1065
-1.3245692 1.0651407 3.1576009 12.065
-1.322566 1.1568619 3.1624093 12.7322
-1.6533328 1.2552507 3.1351333 13.56275
-1.3056971 1.2345202 3.1317072 13.787001
-0.71814054 1.253654 3.1406605 14.1
-0.64233184 1.2503444 3.191509 14.1005
-1.3153737 1.3610673 3.138792 15.199166
-1.4518085 1.4447428 3.1468527 15.064
-1.3445603 1.4770062 3.1054204 16.032249
-1.2602692 1.5084894 3.1619933 16.06525
-1.2657647 1.9282 3.1252258 19.073999
-0.41685411 2.2915242 3.1890137 23.070999
-0.27508494 2.2782722 3.1099191 23.072001
-0.067036718 2.2751927 3.1814206 23.0735
0.045169983 2.2777596 3.1521361 23.073668
0.12817687 2.2910624 3.1201108 23.075001
0.48571283 2.2880228 3.1969321 22.085501
1.2656058 2.2538583 3.1482553 19.619249
-1.1095855 2.3738699 3.140729 23.066
-1.0580363 2.3236027 3.1004488 23.064501
-0.71855152 2.3569469 3.1813626 23.06875
-0.54569721 2.3230455 3.1375461 23.07
-0.34668493 2.3829529 3.1558647 22.08
-0.20293982 2.3056245 3.1136315 23.070499
-0.062419474 2.3829007 3.1143305 23.104
0.48916331 2.3046081 3.1902435 23.0755
0.63135952 2.3558717 3.1709993 21.770248
0.74103016 2.3574531 3.1348157 22.097
0.80618429 2.3504281 3.1917241 22.0875
0.98914742 2.372736 3.1414614 23.079
1.3919666 2.311013 3.1319172 21.112499
1.4188802 2.3290114 3.1955266 21.091
1.5762594 2.3029337 3.1287682 22.084499
1.6560557 2.3069744 3.1024508 22.084999
-1.1735365 2.4319096 3.1871891 22.074499
-1.0879345 2.400599 3.137918 22.075001
-0.83002174 2.4833939 3.1664011 23.107
-0.75375003 2.4623241 3.1493697 23.1075
-0.62982827 2.4391503 3.1906562 23.1
-0.15601721 2.4168911 3.1791666 23.103251
0.010967016 2.4312017 3.1323147 22.112499
0.29216063 2.4237487 3.1923683 22.114
-1.8767872 2.5259104 3.1756313 22.091499
-1.3376163 0.17720871 3.2434721 2.5
1.897019 0.21745063 3.230546 5
-1.7019901 0.36846972 3.2248652 5
-1.2929214 0.38064504 3.2812757 5.5
1.8873357 0.32388824 3.2262774 6
-1.3602841 0.551139 3.2745495 7
-0.69290799 0.58269763 3.2669022 8.1005001
1.8898352 0.56641829 3.2400227 8.1219997
-1.5004692 0.64573413 3.2678907 8.0950003
-1.3151823 0.66367435 3.2638319 8.5
-1.2888061 0.64926279 3.2507777 8.0745001
-0.82783753 0.68273044 3.2397845 8.0994997
-1.674412 0.7005204 3.2727845 8
-1.3387103 0.84680116 3.2406123 10
-1.1138051 0.86161226 3.2116556 10.0975
-1.0407903 0.87281525 3.2547927 10.098
1.7806429 0.84912068 3.2608109 10.1215
-1.2784686 0.94395828 3.2330372 10.537251
-1.2647655 1.0289497 3.2760966 12
-1.264419 1.1640295 3.237139 12.0745
1.9777095 1.1777638 3.2777479 12.115
-1.5739729 1.2582362 3.221663 13.0635
-1.2878779 1.2055882 3.2201443 13
-0.56087315 1.2535113 3.270756 14.101
-1.1994717 1.3404415 3.2801418 14
-1.2279752 1.5931672 3.2250628 16.074499
2.158088 1.5454113 3.2871382 14.0945
-1.2290144 1.9540254 3.2201867 19.0655
1.5793743 2.0871289 3.2655797 19.113001
2.4772334 2.1390252 3.2820055 17.123501
2.5435443 2.1532962 3.2009926 17.124001
-0.14388701 2.2781463 3.2561197 22.571999
4.2590895e-05 2.278986 3.2220044 23.072001
1.164728 2.2406566 3.2470663 19.1185
-1.1154562 2.3661671 3.2647524 22.064501
-0.62653434 2.34514 3.2155197 23.0695
-0.4894602 2.326282 3.2281573 23.070499
0.14339519 2.3472497 3.2487817 22.08325
0.34537888 2.3689463 3.2992918 22.084499
0.54074973 2.3491209 3.2398748 22.100166
0.88056743 2.3012869 3.2760932 20.117001
0.93255723 2.3004572 3.211241 20.1175
1.0231792 2.3321695 3.2064426 21.088749
1.1848066 2.3680573 3.2560267 22.08
1.3356653 2.3284745 3.2107248 21.0965
-1.0627425 2.4394236 3.2525673 23.0665
-0.84045702 2.4025912 3.2648926 23.068001
-0.20022559 2.4549432 3.2417655 22.111
-0.12004888 2.4352789 3.2563381 22.1115
0.16468504 2.4072604 3.278079 21.859125
-1.1397462 2.5096345 3.2604129 23.0965
-0.89833468 2.5029919 3.2794869 22.106501
-1.3102093 0.19364986 3.3041008 4.1666665
-1.242274 0.29516599 3.3746405 5
-0.58069724 0.27554241 3.3141568 5
-1.9125865 0.39555335 3.3950644 5
-1.2505823 0.45742649 3.3828478 7
-0.5673942 0.48686174 3.3356805 7
-1.6522045 0.59415174 3.3294103 7
-1.6351116 0.6620996 3.3282499 8.0635004
-1.2476045 0.66171741 3.3741162 8.216445
-1.6258175 0.78100038 3.3225887 9.0635004
-1.2378771 0.76732993 3.3773375 9.066
-1.4127693 0.88506371 3.3287647 10.0955
-1.2345411 0.88187611 3.3681502 10.066
-0.96017939 0.89646524 3.3293955 10.0985
-1.2511674 0.91788459 3.3185091 10.5
-1.2219195 1.05695 3.3256977 11.714286
-1.1891356 1.0345538 3.3669832 11.5
-1.2106476 1.2977704 3.3795998 13.075
-1.1627525 1.2131484 3.3625884 13.03325
-1.604399 1.3806822 3.3153636 14.0635
-1.2294556 1.3737131 3.3875475 14.064
-1.1578672 1.347257 3.3205104 14
1.8163953 1.6374975 3.3240278 15.114
1.5595491 2.1954863 3.399411 19.112499
1.945742 2.1737907 3.3364415 18.1215
-0.34788275 2.2757974 3.3113649 22.071501
0.81606519 2.2960033 3.3485508 20.116501
1.0693823 2.2235243 3.3477163 19.11775
1.211668 2.2881663 3.3429239 20.111
1.513783 2.2997038 3.333441 21.0835
-0.67887998 2.3133183 3.3949344 22.067499
-0.55977952 2.3249037 3.3529482 22.068251
-0.43521062 2.3266532 3.3571348 22.069
-0.36714685 2.3217664 3.3298252 22.0695
-0.19891343 2.3564625 3.3229604 23.0725
0.076749682 2.3879249 3.3433025 21.112499
0.46135411 2.3634272 3.3611145 21.11075
0.5361312 2.3490131 3.3300645 20.777779
0.6533106 2.357142 3.3480682 21.416334
0.77534896 2.3525159 3.3908019 22.079
0.84507906 2.3783097 3.3872533 21.59325
0.95617682 2.3539677 3.392483 21.109501
1.1511344 2.3927441 3.3888819 22.0795
-1.0145983 2.4949303 3.3168671 22.105751
-0.41452986 2.441191 3.3916254 22.109501
-0.33775246 2.4499986 3.3493116 22.110001
-0.2468276 2.4371142 3.341732 22.106501
0.083251536 2.4246016 3.3632915 22.1045
0.27435178 2.4215224 3.3331726 22.105751
-1.2149985 2.5287216 3.3663459 22.1045
-1.1323847 2.5022173 3.3812344 22.105
-1.2362665 0.043617617 3.4022765 3
-1.2392966 0.34134585 3.4025438 5
-1.2424738 0.49303243 3.4094541 6
-1.1646271 0.54358637 3.4908888 6.5
-1.1409507 0.60802543 3.4998591 7.5
-1.1594979 0.73270893 3.4728289 9
-1.1377958 0.9327684 3.4568295 10.25
1.7342768 0.90341693 3.4575963 10.1135
-1.2314719 1.0669521 3.4352896 11.075
-1.5653682 1.3906627 3.4420736 14.064
1.7939579 1.3036509 3.496701 13.1135
2.1516263 1.3550484 3.4740648 13.094
-1.3137102 1.5308758 3.4378669 15.0655
1.7236266 2.1484714 3.4673295 18.113001
1.9136535 2.1981518 3.4614403 18.121
0.64892721 2.2687979 3.4640632 19.557751
0.74301684 2.2838094 3.4080944 20.115999
0.96480644 2.2146516 3.448606 19.117001
1.0824914 2.2951601 3.4663742 20.110001
1.1770506 2.2601452 3.4568074 20.1105
1.2704732 2.2911577 3.470511 20.0895
1.3694988 2.2419145 3.4487143 19.771
1.4876333 2.2188697 3.4902682 19.10125
-1.06835 2.3949575 3.4063983 22.065001
-0.99330914 2.3933201 3.4264343 22.0655
-0.43252355 2.3473573 3.4464335 22.070999
-0.30796957 2.3450358 3.4565165 22.07
-0.27990043 2.3828771 3.4820423 22.072001
0.011015415 2.3928745 3.4189179 21.112
0.13997746 2.3854556 3.4622653 21.083
0.36944672 2.3630095 3.4617543 20.610001
0.41822141 2.3933339 3.4061289 21.606501
0.52462584 2.346519 3.4440591 20.542625
0.74182057 2.3561463 3.4263499 21.10825
0.85830086 2.3373902 3.4401972 20.761168
0.97791231 2.3374543 3.4433551 20.598751
1.070564 2.3349831 3.4397988 20.088499
1.1631508 2.329571 3.4286292 20.584251
1.374351 2.3141196 3.4448555 21.0825
1.4655252 2.3053699 3.4214199 21.083
1.6175402 2.3869309 3.4555101 21.082001
-1.4242368 2.479676 3.4148278 22.064501
-1.3543639 2.4307654 3.4164834 22.065001
-0.5701018 2.4265168 3.4900818 21.1085
-0.45346543 2.4513583 3.462604 21.605125
-0.3208971 2.4490049 3.4312205 21.110001
-0.049809366 2.4223456 3.4517379 22.103626
0.51139826 2.4167972 3.4242857 21.107
1.5224283 2.4116676 3.4498253 21.081499
-1.4654615 2.5179172 3.4905837 21.103001
-1.3855219 2.5056515 3.4755201 21.1035
-1.2962265 2.515449 3.4226105 21.604
1.7490957 0.58795768 3.5091424 8.1134996
-1.1742334 0.6402669 3.5163424 8.0322495
-1.2066816 0.7699514 3.5683746 9.0644999
-1.1917644 0.79523093 3.5603437 8.0754995
2.1634102 1.1406659 3.5027153 11.094
2.3447506 1.7548934 3.5752821 16.087
1.6542779 2.1871438 3.5076926 18.601999
1.7915957 2.1586151 3.5131588 18.091999
1.8227271 2.1773534 3.5187471 17.120501
2.4091706 2.1386526 3.5389316 16.122499
0.5471341 2.2669427 3.5652304 19.038168
0.92384839 2.239219 3.5581102 19.112751
1.5799563 2.2197216 3.5104163 19.091
-0.62763762 2.3832402 3.5749366 21.56975
-0.23204041 2.3875906 3.5621941 21.087168
-0.18904561 2.3887429 3.5438914 21.57675
-0.053072631 2.3927326 3.5475798 21.096626
0.10738587 2.3697059 3.5796783 22.074499
0.24657598 2.3624434 3.5487571 21.0965
0.35484874 2.348244 3.5267375 20.598999
0.74101949 2.3345842 3.5290298 20.0865
0.97870344 2.3741951 3.5069911 22.08
1.0295142 2.3306963 3.5635681 20.58325
1.164928 2.3529487 3.5576901 21.080999
1.2847544 2.3895872 3.5346916 21.08
1.3253906 2.3212945 3.5253825 21.082001
1.469816 2.3957567 3.5366046 21.080999
1.573277 2.3936398 3.5762274 20.081499
1.7305212 2.3956845 3.5066948 20.0825
1.948825 2.3630505 3.5433455 20.0835
2.0452945 2.336411 3.5350499 19.084
-0.96070796 2.4626265 3.5359612 21.07625
-0.82174838 2.4538541 3.5938284 22.068501
-0.6285193 2.4463532 3.5655332 21.604
-0.24168402 2.4506984 3.5554872 21.602249
-1.4824936 2.5001867 3.5672383 21.064501
-0.91840106 2.5262823 3.5463247 22.098
1.7460818 0.62233996 3.6492286 8.1129999
2.1027608 2.0881636 3.6499412 18.084
1.6254203 2.170099 3.671572 18.112
1.7777146 2.1887152 3.6356349 17.120001
2.0018425 2.1944835 3.692837 19.084999
2.1147723 2.1505375 3.6850004 18.085501
2.291316 2.1238582 3.6319597 18.0865
2.3836675 2.1458695 3.6838784 16.122
0.40635884 2.255532 3.6502821 19.11375
0.77917391 2.2596045 3.6856961 19.101
0.84690934 2.2536201 3.6379356 19.437082
0.94799376 2.2975976 3.6156876 20.0875
1.7885756 2.2497425 3.6914639 19.084
1.8863471 2.2123423 3.6798801 19.084499
-1.2444698 2.3953385 3.6773021 21.064501
-0.63695747 2.363308 3.6116889 21.068001
-0.55442238 2.3857701 3.6109855 21.068501
-0.37060922 2.3728361 3.6935067 20.109501
-0.28809661 2.380775 3.6449077 20.110001
-0.10259247 2.3837056 3.6135223 21.081499
-0.053493321 2.3815799 3.6759176 21.0735
0.063991129 2.3634698 3.6894007 20.104
0.13224199 2.3440766 3.6536338 20.358376
0.24926758 2.3762536 3.66466 20.0835
0.35144216 2.3875966 3.6187301 22.076
0.42378217 2.3831692 3.6806641 21.0755
0.63748431 2.3523278 3.6466918 20.580875
0.97915435 2.3811133 3.6572309 21.077999
1.1565921 2.3802149 3.6449471 21.079
1.2851593 2.3307011 3.6358805 20.581499
1.377068 2.3355765 3.6274056 20.082001
1.4805746 2.3136139 3.6463828 20.0825
1.5910764 2.3009164 3.6725955 20.083
1.6804616 2.3761508 3.601336 20.082001
1.8744575 2.3366268 3.6206479 20.083
1.9461895 2.3165605 3.6382792 19.08325
-1.4215953 2.4866786 3.645215 21.065001
-1.1584219 2.4042258 3.6715667 21.065001
-0.85215604 2.4338577 3.6747131 20.34725
-0.7396121 2.4274652 3.6381018 21.088249
-0.34456706 2.4081969 3.6443739 21.08
-0.29143298 2.4139814 3.6000726 21.101999
-0.11866315 2.4292312 3.6463697 21.588001
-0.014868438 2.4246445 3.6841319 21.1035
0.31910893 2.4022319 3.6468585 22.073999
-0.76780182 2.5102239 3.6791174 21.099001
-9.0415649 2.6791735 3.6142898 10.08
-1.0208455 0.76106453 3.7882009 8.0679998
3.1122208 1.6326597 3.7938719 13.124
-1.1556848 2.1730669 3.7625401 18.0755
1.5552678 2.1716514 3.7479646 18.1115
2.2501328 2.1534269 3.7279291 18.086
2.458745 2.1456513 3.7539706 17.115
2.5700946 2.1546021 3.7091825 17.115499
-0.079024792 2.2983568 3.786551 19.111
0.29803538 2.2752345 3.7853742 19.113001
0.6378181 2.2431295 3.7703202 18.438334
0.71730995 2.2685814 3.7473722 19.09675
1.222863 2.2947905 3.7217338 20.080999
1.7487013 2.2529328 3.7857597 19.08275
1.8363926 2.2923694 3.7256269 19.0825
2.0677702 2.2560887 3.7766118 18.0835
-1.1014731 2.3872747 3.7725325 20.0655
-1.0052618 2.3878417 3.7508423 21.066
-0.90002954 2.3760781 3.7091796 21.0665
-0.78575099 2.392143 3.79633 20.077499
-0.53662038 2.3557057 3.7690344 20.1085
-0.24767965 2.3832338 3.7137437 20.5755
-0.035677925 2.3670731 3.7732873 20.340063
0.051442668 2.3639326 3.7425666 20.343
0.12436324 2.3874562 3.7867436 21.074499
0.21918255 2.3438354 3.7546964 20.10475
0.360805 2.3418179 3.7838795 20.58
0.46626258 2.3563538 3.7446454 20.57975
0.51239276 2.3284006 3.7004294 20.084999
0.9112308 2.3836315 3.7333755 21.077499
1.4674717 2.367491 3.7765975 20.0805
-1.361464 2.4803066 3.7344472 21.0655
-1.1477945 2.4353743 3.7567759 20.578501
-1.0529903 2.4285412 3.7693012 20.590082
-0.95725989 2.4248686 3.7242684 20.602001
-0.83421195 2.4082727 3.7860105 21.066999
-0.63717848 2.4504647 3.7563567 20.786999
-0.55273968 2.4698458 3.7596517 21
-0.43406028 2.4310384 3.7186775 21.101
-0.33382198 2.4134607 3.7416677 20.575001
2.409204 2.015332 3.8576827 16.1145
1.7907534 2.151989 3.8791876 18.0835
2.0785346 2.1071663 3.8316171 17.584999
2.2074065 2.114543 3.8304188 17.093
2.3424263 2.1463275 3.8168998 16.1215
-1.7516708 2.2347856 3.8129251 18.0935
-1.1496102 2.2666636 3.807091 19.0755
-1.0953258 2.2463586 3.8855083 18
-0.24594569 2.281637 3.8793626 19.110001
-0.16306412 2.2906003 3.8430967 19.1105
0.21678352 2.2642391 3.8026094 19.112499
0.36633253 2.2847724 3.8703487 19.084
0.45413193 2.2812829 3.841336 19.095249
0.54522479 2.2562103 3.8199172 19.095749
1.5709949 2.2096798 3.8766646 19.0825
1.6530128 2.2437108 3.8484602 19.082125
1.9508293 2.2417204 3.8568614 18.08275
-1.5565865 2.3897605 3.8215511 19.0945
-1.2080512 2.3993049 3.8199441 20.065001
-0.75592184 2.3428268 3.8546615 19.10725
-0.61871505 2.3695242 3.8237386 19.59325
-0.52932119 2.3924363 3.8282344 20.079
-0.45771217 2.3772905 3.8522863 19.755888
-0.16177699 2.3641679 3.8601143 20.091751
0.18024659 2.3105414 3.8654444 19.083
0.26695693 2.314739 3.8258855 19.0835
0.33448243 2.3435349 3.8489366 20.5905
0.5739944 2.3873391 3.839819 21.07625
0.68124431 2.3485415 3.8668597 20.076
0.71757096 2.3672192 3.8187039 21.077999
1.08887 2.302927 3.8717508 20.08
1.1591642 2.3039563 3.8021331 20.0805
-1.3795559 2.4432552 3.8692048 20.095501
-1.2400318 2.4378064 3.8278282 20.086332
-1.0762894 2.4260051 3.8358119 19.5
-0.81419951 2.4064999 3.8645999 20.098751
-0.76148105 2.4127457 3.8472781 20.567499
-0.6280961 2.4089808 3.8147717 20
-0.45922408 2.4187574 3.879812 21.070999
-9.0362406 2.6461596 3.831851 10.0805
-1.5761924 1.2428874 3.9731653 11.095
-1.2314523 1.8283768 3.9348612 16.065001
-1.1136227 1.9080623 3.9837449 16.076
2.3408566 2.0419831 3.979223 16.114
1.3641965 2.1723976 3.9023106 18.11025
1.5497198 2.1885924 3.9415145 17.60025
1.715615 2.1535537 3.9594367 18.083
1.9534853 2.1105337 3.9834371 17.084
2.148308 2.1182146 3.9231312 17.092501
2.2933888 2.1443195 3.9457722 16.121
-1.4055774 2.2516582 3.9729941 18.095501
-1.0494552 2.2828467 3.941632 18.4
-0.33616638 2.274555 3.9427309 19.109501
-0.23095053 2.2647681 3.9950795 18.110001
-0.13573277 2.2596118 3.944891 18.1105
0.0072110891 2.2959721 3.9209163 19.082001
0.41085166 2.2508512 3.966769 19.105499
0.69259518 2.2458308 3.9476144 19.107
0.84231853 2.2203798 3.9050219 18.0865
0.94164252 2.2618768 3.9482574 19.081667
1.0401106 2.2909732 3.9920809 19.0795
1.1089029 2.2990847 3.9285166 19.08
1.2181785 2.279737 3.9652789 19.0805
1.3194153 2.2490959 3.9736743 19.080999
1.4574704 2.2103856 3.9476669 19.081749
1.5326009 2.2415628 3.9497271 18.0805
1.7480433 2.22102 3.9577312 18.081499
1.840156 2.2117178 3.9319456 18.082001
-1.1323152 2.398283 3.9603312 19.097
-0.89461422 2.3912661 3.9398844 19.077
-0.71630776 2.3353877 3.99841 19.077999
-0.63690096 2.3656833 3.9696288 19.573376
-0.52437282 2.3473277 3.9556067 19.289501
-0.42716679 2.3254437 3.9597301 19.096498
-0.33441666 2.3665395 3.9280517 19.6015
-0.26925927 2.3724594 3.9636753 19.837
-0.13926423 2.3112988 3.9789996 19.091875
0.069953322 2.3384523 3.9302382 19.577375
0.31155014 2.3750396 3.9809701 20.0755
0.52076721 2.3360515 3.9837413 20.075001
0.63728815 2.3426712 3.9612908 20.0765
0.74007016 2.3539121 3.9188156 20.077999
0.88496476 2.3551819 3.9761851 20.077
1.0470058 2.3456714 3.9301841 20.0525
1.2602483 2.3325188 3.9958544 19.079
-1.4762962 2.4462018 3.9049408 20.094999
-1.0398605 2.4089475 3.9469192 20.0975
-0.95684892 2.4113271 3.936676 19.722
-1.0918317 1.0777761 4.0733128 10.0765
-1.3297796 1.4814014 4.0987849 13.1045
-1.1826402 2.0388699 4.0470619 17.0655
-1.0900452 2.0090766 4.0215302 16.5
2.2358899 2.0378933 4.0351005 16.103001
2.3459725 2.0513239 4.0362663 16.093
1.0731795 2.187628 4.0183325 18.0875
1.330333 2.1934602 4.0165286 18.080999
1.6286912 2.138062 4.0036583 18.0825
1.8750379 2.1441584 4.0327835 17.08275
1.9657471 2.1376801 4.0476751 17.091499
2.2163401 2.1281731 4.0442591 16.120501
-0.97570145 2.2810292 4.0558338 18
-0.73119509 2.2935157 4.0822358 18.077999
-0.69318169 2.2757645 4.0635605 18.1075
-0.45180169 2.2851841 4.0451131 18.036333
-0.30609906 2.2917111 4.0788984 18.109501
-0.26468098 2.2881861 4.0408292 18.5805
-0.16721606 2.2774436 4.0477486 18.080999
-0.043003142 2.287699 4.0334487 19.103001
0.049855292 2.2708597 4.0930018 18.1035
0.23277587 2.2490289 4.0350218 18.1045
0.32470483 2.2538953 4.0095668 19.105
1.2902805 2.2335553 4.0867243 18.079
1.3693565 2.2702994 4.0261345 18.5795
1.4654456 2.2635443 4.0121951 18.08
1.6794891 2.2017684 4.0639305 18.080999
-1.402478 2.3711374 4.0167618 19.095501
-1.3162405 2.3632529 4.0179815 19.096001
-1.2232566 2.3645215 4.0208669 19.0965
-1.0495601 2.3906784 4.0810905 19.067749
-0.84367502 2.3362498 4.0554514 19.087999
-0.78073865 2.3309605 4.0569301 19.099001
-0.66248608 2.3172374 4.0548649 18.589001
-0.55296618 2.3433368 4.0394711 19.082666
-0.4424845 2.3067245 4.059762 18.0795
-0.34788418 2.3000927 4.0273609 19.08
-0.19876617 2.382113 4.0796928 20.0725
0.18105759 2.3752217 4.0683722 20.073
0.25979418 2.3444028 4.0825934 20.0735
0.35266459 2.366998 4.0352721 20.073999
0.44938004 2.3463647 4.0213995 20.075375
0.58695042 2.3431079 4.0157218 20.077
0.79123086 2.3055358 4.0995197 19.077999
0.98895484 2.3384812 4.0200663 19.077499
1.0923476 2.3103857 4.0502157 19.077999
1.1895713 2.3031986 4.0986066 19.078501
-1.1760747 2.451493 4.0018525 20.066999
-1.0996083 2.4124038 4.0378737 20.067499
-0.9156816 2.4059646 4.0698085 20.068501
-0.19953787 0.90471494 4.1653595 9.1105003
2.7072105 1.0205147 4.1312261 9.1219997
-1.0826286 1.352713 4.1231709 12.0765
-1.0300639 1.5889819 4.196949 13
-1.3773315 1.6843565 4.1478524 14.096
-1.6638064 1.7066796 4.1480403 14.0945
-1.2343955 1.7827125 4.1201501 15.067
-1.0083487 1.7439557 4.1892338 14.333333
-1.1962812 1.8765191 4.1204238 16.0655
-1.0183674 1.8646908 4.1494918 15
-0.99657387 1.9885216 4.1613178 16
2.0857213 2.0678248 4.1849279 16.112499
2.1552081 2.0533776 4.1162424 16.102501
-1.1402795 2.117389 4.1975007 17
-1.0369637 2.15294 4.1538029 18.068001
-0.97675025 2.1101398 4.122251 17
1.3739396 2.1999085 4.1860948 17.117001
1.4861856 2.1357186 4.1300931 18.081499
2.0386035 2.1407266 4.1709037 16.105499
2.152771 2.1123548 4.1342139 16.120001
-0.92321324 2.2956088 4.125608 18.077
-0.59114265 2.2706997 4.1454244 18.108
-0.49342346 2.275501 4.1237864 18.1085
-0.35805953 2.2684484 4.1006269 18.08
-0.030265808 2.2453191 4.1448388 18.103001
0.15829951 2.2619712 4.1010842 18.104
0.43398756 2.2765846 4.1953349 19.076
0.69991124 2.273001 4.1533556 19.077499
0.89200336 2.2763555 4.1213899 19.078501
1.0785849 2.2224972 4.1411719 18.0795
1.1731679 2.2349224 4.1530962 18.290001
1.2099017 2.2202346 4.1263685 18.078501
-0.82492912 2.3057172 4.1270351 18.077499
-0.12065011 2.3829408 4.1515036 20.073
-0.029315472 2.3508658 4.1875157 19.0735
0.099590085 2.3062267 4.1935492 19.0725
0.18515615 2.3124616 4.1714244 19.073
0.27445865 2.3502402 4.1070461 19.0735
0.37184364 2.3421547 4.1679749 19.073999
0.45438117 2.3202803 4.1887889 19.074499
0.51072592 2.3379297 4.1036067 19.0765
0.62942863 2.3048258 4.1640396 19.07625
-1.1369132 0.76544732 4.2472224 8.066
-1.036767 0.84535062 4.2777247 8.0769997
-1.0584544 1.2828683 4.2096715 11
-1.0331366 1.4534533 4.2159219 12
0.03516537 1.4284233 4.2637324 13.1035
-1.4681377 1.7967967 4.2805262 15.066
-1.1239319 1.7784125 4.2965207 15
-1.1428875 1.8030987 4.2249093 15
1.9957242 2.0737216 4.2422614 16.112
-1.0952193 2.1600895 4.2733231 17
0.91784209 2.1812897 4.2763801 18.078501
1.0057809 2.1837003 4.2303782 18.079
1.3247532 2.1642413 4.2728233 17.5805
1.4309244 2.1668541 4.2407336 17.08025
1.7464187 2.1863365 4.2023087 17.080999
1.9485948 2.1335745 4.2359767 16.091
2.0897222 2.1121628 4.2563925 15.1195
-0.85532224 2.2652733 4.286571 17.077499
-0.45947206 2.263777 4.2960687 17.0795
-0.3116315 2.2310522 4.2329397 18.1015
-0.23993771 2.2694204 4.2806702 18.08625
-0.15351373 2.2657046 4.2380714 18.58675
-0.051418617 2.2759061 4.2565269 18.408333
0.03714788 2.2699578 4.2612638 18.111
0.16892442 2.2711759 4.2977366 18.574499
0.25629109 2.2770352 4.2837234 18.575001
0.34674895 2.290827 4.2432556 19.0755
0.65607959 2.2704122 4.2671032 18.0755
0.71378762 2.2756605 4.2581959 18.5
0.8145898 2.2420805 4.2055702 18.077999
0.96797949 2.2304039 4.2720652 18.0385
1.0424434 2.2178485 4.2443094 18.077499
1.2807188 2.2160945 4.2835879 16.612751
1.5480933 2.2156608 4.2305245 17.08
1.6684762 2.2340899 4.2845516 17.0805
2.0997021 2.2208364 4.2479258 17.0825
-0.9480719 2.3763056 4.2139072 19.068501
-0.86582702 2.3459013 4.2884903 19.069
-0.77057648 2.336174 4.2546887 18.588249
-0.36923972 2.3078861 4.2286119 19.07
-0.27071649 2.3167346 4.2370615 19.070499
0.55658197 2.3031216 4.2471766 19.075001
-1.4376066 1.2423376 4.3483286 11.096
-1.1064162 1.3815182 4.3910885 12
-1.1203158 1.54233 4.3396492 13.25
-0.95757842 1.5259475 4.3422818 12.25
-0.8338533 1.557812 4.3460159 13.099
2.2549801 1.5610373 4.3782854 12.092
-1.4016693 1.6880389 4.372982 14.0665
-1.102156 1.6180906 4.3679409 14
-0.92554647 1.6703672 4.3542423 13.5
-1.2994061 1.7484393 4.310719 14.0965
-0.97040075 2.1641147 4.3144622 17.068501
-0.87657326 2.1531844 4.3067536 17.069
0.86558253 2.194092 4.3568053 17.0765
1.3734286 2.1993456 4.3390913 17.079
1.8854854 2.1457448 4.3585138 16.0905
1.9560258 2.1247971 4.3312736 16.11525
2.0203681 2.1104739 4.3905025 15.119
-0.8627342 2.228739 4.3592887 18.067499
-0.76477599 2.2432437 4.3726335 18.068001
-0.6580236 2.2336617 4.3271265 18.068501
-0.57364583 2.2477529 4.3253145 18.069
-0.46887967 2.2613211 4.3232198 18.0695
-0.35648009 2.2678142 4.3379979 18.080999
-0.20361184 2.2720785 4.3489628 18.0725
-0.15115482 2.2698293 4.3566446 18.071999
-0.058193505 2.2711442 4.3289113 17.751833
0.075019836 2.2678397 4.3187861 18.573999
0.35853285 2.2407641 4.3559875 18.0755
0.43135899 2.2630863 4.3703675 18.105
0.87409443 2.2069099 4.3556228 18.0765
1.2137841 2.2102001 4.3892584 16.115999
1.4144497 2.207422 4.3291221 17.109501
-0.67686808 2.3478978 4.3087187 19.07
-1.7707181 0.561364 4.4306884 5
-0.95569241 0.72913432 4.4847236 7
-0.96675718 0.80123162 4.4687142 7
-1.0662446 0.99831313 4.4566698 9.0979996
-0.95582986 0.96266705 4.4486217 8.75
-1.0931425 1.0270908 4.4849806 10
-1.090308 1.2904792 4.4628339 11
-0.92371058 1.429598 4.4057956 12
2.2119088 1.589227 4.4867501 12.1195
2.5740812 1.5595981 4.4607244 12.0855
-1.041664 1.7953852 4.460041 14.666667
-1.407197 1.8607507 4.413044 15.0665
-1.0331272 1.9121453 4.467267 15.5
2.4911621 1.9765339 4.4995785 14.0925
-0.88794208 2.0947652 4.4372015 16.077499
1.4109236 2.0947809 4.4708581 16.079
2.4653118 2.0856616 4.4718075 15.430165
0.66281569 2.1775429 4.4541283 17.077
0.74878013 2.1919384 4.4109993 17.53875
1.0935311 2.1976063 4.4163246 17.108
1.2579048 2.1708379 4.4362526 17.079124
1.6017251 2.1388087 4.4368963 17.081499
1.7432218 2.1464629 4.4565902 16.4205
1.8457365 2.1260843 4.4522247 16.111
-0.97640228 2.2454953 4.4156933 18.066999
-0.79352593 2.2279496 4.4307027 17.0695
-0.68760908 2.2728281 4.4780283 17.584751
-0.58686972 2.2651711 4.4527912 17.335251
-0.4592973 2.2709446 4.4121513 18.081001
-0.24112868 2.277822 4.4280648 17.109501
-0.00021397241 2.22859 4.4006686 18.072001
0.051395297 2.2471313 4.4052024 17.082001
0.45977873 2.2296164 4.4298911 18.076
0.55443197 2.2638266 4.4732256 17.105499
0.69177032 2.2013545 4.4660382 17.0755
0.77245551 2.2025399 4.4077973 17
0.982566 2.2052886 4.4013953 17.077
1.951007 2.2313099 4.418767 17.081499
-1.0928347 0.89367771 4.5121045 8.0979996
-1.0284421 0.94971484 4.559865 9
-1.0206865 1.371464 4.5612903 11.714286
-0.83429819 1.4179763 4.5297365 12.0695
-1.0059695 1.5866565 4.5585852 13
1.9531766 1.5834725 4.559515 12.1185
2.0866833 1.5881149 4.530818 12.119
2.2439003 1.6417307 4.5665717 13.084
2.3313448 1.6048832 4.5085788 13.0845
-1.0242084 1.7145176 4.5784125 14
-0.81936234 1.7429217 4.525876 14.0695
2.341974 1.9647636 4.5219259 14.092
1.6338294 2.0537074 4.5293436 16.081499
2.3124261 2.0962617 4.5102997 15.1125
3.1070914 2.0235579 4.5185599 14.115
0.59076023 2.1909759 4.5221596 17.075001
1.1580336 2.1825819 4.5393391 17.078499
1.266544 2.1364362 4.5959902 16.0875
1.4794633 2.1366067 4.5638828 16.088499
1.6571481 2.1473837 4.5772748 16.110001
1.7404726 2.1275439 4.5479975 15.614
1.8752174 2.1861792 4.5383239 16.0825
1.9496374 2.115406 4.5575962 15.11475
2.1860824 2.1309981 4.5379233 15.112
2.2922144 2.1206157 4.599618 16.084
2.3628621 2.1046777 4.5248194 16.084499
2.6221859 2.1270938 4.5045404 16.085501
-0.70063984 2.2615838 4.5556931 17.07
0.27430999 2.2341497 4.5894299 17.083
0.54016823 2.2221761 4.5602894 17.0755
0.69269162 2.2699661 4.5799155 17.106001
1.0543946 2.2166131 4.5996504 16.115
2.2228906 2.2454696 4.520103 16.0825
-0.77632695 2.3010762 4.5662322 17.099001
-0.99966943 0.21585958 4.6969371 4
-1.0036526 0.67360258 4.6764569 7
-1.0090424 0.73385996 4.6432581 7.5
-1.0130717 1.0652194 4.6141405 9.6000004
-0.76399541 1.0713856 4.6616464 10.07
-1.3846664 1.1038038 4.6184311 10.067
-0.96911293 1.2524496 4.6748281 11
-0.96274239 1.4824702 4.6417232 12
-0.74625617 1.6737095 4.6156092 14.07
2.1790657 1.6903845 4.6800971 13.082
2.2871799 1.7156291 4.6403866 13.0825
-1.0194305 2.0441818 4.6077042 16.066999
2.4176245 2.0944521 4.6221809 15.092
0.39027625 2.1986251 4.6095223 17.0755
0.49264568 2.1962039 4.6086688 17.076
1.0341405 2.1474195 4.6406879 16.5825
1.1708961 2.1566873 4.6623054 16.087
1.4436541 2.1562178 4.6644044 16.092499
1.5644714 2.169858 4.634831 16.095249
1.6318355 2.1274881 4.6415291 15.603001
1.8349543 2.1140854 4.6650467 15.1105
1.9040345 2.1118135 4.6452255 15.118
2.0571501 2.1237371 4.6637597 16.083
2.1501634 2.1447878 4.6022716 15.091
-0.64591926 2.2954202 4.6551957 17.1075
-0.51914942 2.2734995 4.6582851 17.070999
0.11043991 2.2100508 4.656146 17.0725
0.31297243 2.2105453 4.6764975 17.0735
0.41687474 2.2063684 4.6879578 17.073999
0.97699583 2.2197623 4.6768069 16.1145
1.3681946 2.2037041 4.6827669 16.078501
-0.87998384 2.3316429 4.6718183 17.098499
-0.66691649 2.3404124 4.6905112 17.078501
-0.57332301 2.3219225 4.6675587 17.079
-0.96199125 0.086675391 4.7332172 3
-0.96600068 0.29060864 4.7347088 4.5
-0.73379624 0.64024675 4.7791533 7
-0.9516663 0.7718336 4.7783375 8.0675001
-1.3282602 0.87606704 4.7966099 8.0675001
-0.77781594 0.86298633 4.7139611 8.0699997
-0.73678553 0.94496995 4.7615051 8.75
-0.94341493 1.0178863 4.7393966 9.0675001
-0.97744602 1.1038327 4.7186518 10
-0.71099681 1.1374161 4.7734032 10
-1.3116817 1.255487 4.7619495 10.0675
-0.94540113 1.2638289 4.7104225 11.0675
-0.74817252 1.2913971 4.7058949 11
-0.71572858 1.3119969 4.7310467 11
1.6174352 1.6456064 4.7906547 13.081
1.9554567 1.6474257 4.7186694 13.081
2.0669212 1.6846937 4.7108951 13.0815
2.3471668 2.0810781 4.7383113 15.0915
2.9075205 2.0230684 4.7004848 14.114
-0.00029458239 2.1876764 4.7717829 17.072001
0.29868817 2.1896024 4.7239742 17.075001
0.76512343 2.1860979 4.7963781 16.106001
0.85743999 2.1894655 4.7762208 16.08075
0.9433139 2.1756489 4.734128 16.414
1.2666142 2.1792345 4.7778797 16.09375
1.3578776 2.1658392 4.7191525 16.09425
1.5750647 2.1217551 4.7528305 15.598
1.7378049 2.1054747 4.7412386 15.11
1.8584743 2.1708112 4.7352896 16.082001
2.3869076 2.1059797 4.782618 15.084
-0.68725133 2.2166178 4.7652235 16.078501
-0.57742882 2.2185383 4.7906027 16.079
-0.2044528 2.2601116 4.7809668 17.0725
0.086981118 2.2161233 4.7801318 17.073999
0.51779032 2.2177043 4.7412839 16.084
0.75652766 2.2000427 4.7939668 16.084999
0.8592543 2.2302666 4.7330809 16.601126
1.0017862 2.2339039 4.7498331 16.107
1.1164579 2.2195294 4.7736664 16.1075
2.2081048 2.2186389 4.7370267 16.082001
-1.0899389 2.3483546 4.7642813 17.0975
-0.24359214 2.3551342 4.7850103 17.0805
-0.67182189 1.4728466 4.8272924 12.0705
1.8628237 2.0282197 4.8603029 14.0895
2.1150758 2.0717337 4.8027234 15.0905
-0.78576356 2.1989715 4.8964496 16.099001
-0.1071886 2.185766 4.826067 16.071501
0.10061727 2.1950934 4.8985543 16.0725
1.1686788 2.1563044 4.857666 15.597
2.1766574 2.1176796 4.8979211 15.083
2.2731426 2.1044192 4.8241091 15.0835
-0.46657288 2.2294791 4.8346801 16.0795
-0.35431015 2.2327862 4.8588634 16.08
-0.022584677 2.2664065 4.8434482 16.081499
0.66135669 2.2006607 4.8882012 16.113001
0.77141035 2.2112019 4.8347869 16.113501
1.8942002 2.2499754 4.879169 16.0805
1.9970816 2.2255089 4.8231888 16.080999
2.122942 2.214854 4.8158774 15.581499
2.2422085 2.231355 4.8190932 15.082
-0.96020353 2.3399425 4.881104 16.106001
-0.85725224 2.32809 4.8136187 16.106501
-0.35385215 2.3683648 4.8006177 17.08
-0.13109231 2.3610916 4.8086658 17.080999
1.6524625 2.057658 4.9933252 14.0885
1.7724206 2.055078 4.9594078 14.089
2.4953647 2.0729914 4.9820733 14.084
2.593605 2.0747051 4.9010706 15.0845
2.6244154 2.0306449 4.9689341 14.1125
2.7607291 2.0453532 4.9241352 14.113
2.9559193 2.0036294 4.9701166 14.1135
-0.87501949 2.1742501 4.9533606 16.068001
-0.76013714 2.1618993 4.9424396 16.068501
-0.6518169 2.1676886 4.9718623 16.069
-0.42331862 2.134882 4.9178438 16.07
-0.34243828 2.1941381 4.9426837 16.101
-0.11877948 2.178323 4.9189005 16.101999
0.0049549937 2.1968038 4.9680333 16.102501
0.66438985 2.1708903 4.922533 16.09025
0.76215923 2.1746693 4.9555039 16.07625
0.88222033 2.165561 4.9799285 16.077499
1.0498514 2.1795292 4.9634781 16.077499
1.4834908 2.1203287 4.9348831 15.116
1.5394828 2.1767659 4.99612 15.088
1.75609 2.1616011 4.9719839 15.09925
-1.0002792 2.249064 4.9748983 16.098
-0.89624304 2.2213762 4.929852 16.098499
-0.67296582 2.2044351 4.9279895 16.099501
-0.55051619 2.2103348 4.9593678 16.1
-0.45328659 2.2073503 4.9637256 16.1005
-0.32078892 2.2905865 4.9723058 17.072001
-0.125108 2.2493391 4.9235702 16.080999
-0.0026817322 2.2186415 4.9913936 16.0735
0.1069625 2.2007635 4.9789462 16.103001
0.24085635 2.2004395 4.9767537 16.1035
0.33111188 2.2095714 4.957283 16.0935
0.46627468 2.2098467 4.9902086 16.1045
-1.3364389 2.3841195 4.9804368 16.0965
1.5543211 2.0734963 5.0574484 14.088
2.1001813 2.0742464 5.0905299 14.09
2.2395914 2.0640934 5.0809345 14.0905
2.3840868 2.0603323 5.0681009 14.08725
0.34124452 2.1923668 5.0549045 16.075001
0.66712755 2.1925082 5.0534782 16.0765
0.97133046 2.1873398 5.0240679 15.1065
1.4285527 2.1893661 5.0500774 15.0875
1.651648 2.1466978 5.0089703 14.771333
1.8500946 2.1247208 5.0503101 15.0815
-0.55745244 2.2234638 5.0841789 16.0695
-0.21291135 2.261266 5.0100436 16.0725
-0.11162758 2.2156746 5.0501871 16.073
-0.0003453283 2.2154369 5.0094981 16.072001
0.10492468 2.2724273 5.0049858 16.082001
0.21187842 2.2575767 5.0756311 16.0825
0.56306654 2.227802 5.0720539 16.074499
0.60072738 2.2076046 5.0581098 16.105
1.1063905 2.2159331 5.0092392 16.077
1.2225809 2.2157512 5.00456 16.077499
1.3546865 2.2216814 5.0553432 16.077999
1.4733337 2.2032113 5.046803 15.0785
1.9513853 2.2003813 5.0140438 15.0805
1.4520698 2.0963576 5.1393738 14.0875
1.7949641 2.0977721 5.1246033 14.1095
1.9308512 2.0705678 5.1271691 14.11
2.2984419 2.0772524 5.1295438 14.083
2.5412123 2.0422709 5.1084185 14.0915
2.7302959 2.000829 5.1566596 13.1125
2.876581 2.0229807 5.1167274 13.113
-0.90553278 2.1639285 5.1978574 15.068
0.22947565 2.1922369 5.1908517 16.073
0.34380496 2.1894805 5.1345472 15.083
0.57973075 2.1924765 5.1416678 15.084
0.69480085 2.1880693 5.1502018 15.07975
0.80987209 2.1767695 5.1842923 15.077
1.3927922 2.1889141 5.1234984 15.108
1.5631822 2.1086204 5.1135526 14.116
2.1343987 2.1837702 5.1636009 15.081
-0.54376495 2.2648785 5.1218615 16.070999
-0.44571215 2.2774568 5.1126652 16.071501
-0.23370284 2.2175117 5.1901712 15.59
0.12545961 2.2381637 5.1485257 16.073999
0.23618618 2.2354808 5.1223879 15.59275
0.36169213 2.2210922 5.1725183 15.5925
0.45263934 2.209301 5.1050448 16.073999
0.54295182 2.2014594 5.1668868 15.594
0.63958991 2.2202682 5.198236 15.1125
1.2119112 2.2269325 5.1810398 15.0865
1.3125476 2.2082677 5.1184378 15.087
1.4470099 2.2518744 5.1384511 15.1155
1.6163123 2.2165401 5.1115427 15.079
1.7356349 2.2054403 5.1190104 15.0795
1.8601524 2.2001498 5.1127791 15.08
-1.2340431 2.3745446 5.1178432 16.097
2.7519829 1.9865148 5.2025757 14.0845
0.2618171 2.0599761 5.2636409 14.111
2.0777395 2.0706048 5.2562723 14.082
2.1801355 2.0861239 5.2461548 14.0965
2.2798972 2.0261145 5.208334 14.111
2.6786041 2.017987 5.2973695 13.112
0.46838647 2.1987569 5.2118201 16.0755
0.5305832 2.1971543 5.2606473 15.1045
0.65680391 2.1984189 5.2557693 15.105
0.72346735 2.1587191 5.2771988 14.5805
1.4755019 2.1111827 5.242137 14.1155
1.6685624 2.1437094 5.202456 15.0805
1.9546446 2.1044135 5.2963824 14.117
2.321806 2.1504283 5.2615957 14.0815
-0.90162688 2.269861 5.2392983 16.0695
-0.66159797 2.2985654 5.2681828 16.070499
-0.46011806 2.2111886 5.2684574 15.07
-0.34423199 2.2240918 5.2237659 15.750333
-0.23256671 2.2225287 5.2473421 15.0805
-0.12104756 2.2216535 5.2343087 15.09525
-0.008769393 2.2210701 5.2189341 15.0815
0.011052847 2.2141857 5.2174258 15.11
0.14063206 2.2097874 5.250072 15.0925
0.23069295 2.2140489 5.2533994 15.07775
0.30608445 2.2086701 5.2982941 15.1035
0.45478585 2.2118769 5.2594733 15.09375
0.80714697 2.2176201 5.2546558 15.0755
0.94526482 2.21981 5.2372856 15.09575
1.086418 2.2388363 5.2266002 15.086
1.1932566 2.227855 5.2830915 15.107
1.5819914 2.2465625 5.2566738 15.1085
-1.1166325 2.3498554 5.2254238 16.0975
2.6820948 0.068377212 5.3381786 2
0.040386558 2.074497 5.3949251 14.11
0.16059768 2.0855463 5.3405075 14.1105
1.853802 2.0764618 5.3800383 14.081
1.99281 2.0991919 5.3801746 14.0815
2.1374445 2.0940199 5.3325472 14.1175
2.314404 2.077261 5.3289676 14.118
0.61757541 2.1384673 5.3545609 14.084
0.81542838 2.1837208 5.3026853 15.113
0.99972034 2.1746783 5.3810921 14.0855
1.1214881 2.1602654 5.3449192 14.086
1.2428771 2.1465662 5.3078547 14.0865
1.3649529 2.1402271 5.3218198 14.436501
1.4532913 2.1485062 5.3920808 14.078
2.102176 2.1356943 5.398726 14.0805
2.2082098 2.1436355 5.3198233 14.081
-0.57259458 2.2486835 5.332408 15.089251
-0.41328758 2.2320814 5.3830533 15.1005
-0.35259485 2.2438157 5.3087411 15.08
-0.29132646 2.2325885 5.3725648 15.101
-0.16896015 2.2310278 5.3665557 15.1015
-0.030943757 2.2186327 5.3475776 15.087
0.055856884 2.2239254 5.335289 15.1025
0.13043301 2.2105594 5.3116274 15.0915
0.97046506 2.2997808 5.3746047 15.1135
-1.0030081 2.3193285 5.3189402 15.098
1.1215824 2.3061774 5.3666353 15.114
1.2431098 2.3029318 5.3335032 15.1145
2.7560463 0.55384529 5.4656544 5.75
2.7960784 0.77209044 5.4886317 7
2.7789648 0.90839624 5.4787154 7.5
3.0391884 1.1232805 5.4576697 9.1199999
3.7079 1.9434402 5.4782934 12.1215
3.8901882 1.9325838 5.4165449 12.122
-0.080311656 2.0921235 5.4433017 14.1095
1.6778057 2.0834084 5.4738765 14.1085
1.7773173 2.0907736 5.4472036 14.094749
2.1004603 2.0279758 5.4112768 13.11
2.2366261 2.0493052 5.4956021 13.1175
-0.48445284 2.1287997 5.4205985 14.0795
0.49972439 2.1323211 5.4178796 14.0835
0.6128369 2.1969109 5.4513397 15.076
0.97709376 2.1042049 5.4472432 14.106
1.0950289 2.1233263 5.4450769 14.1065
1.2537262 2.1509748 5.4135427 14.11075
1.9860928 2.1246922 5.4545584 14.08
-0.77056438 2.2607141 5.4528012 15.099
-0.66618168 2.2434666 5.4127197 15.085
-0.54269618 2.2273839 5.4294462 15.1
-0.12094418 2.2153628 5.4287896 15.0715
0.024895966 2.2069902 5.4694467 15.0735
0.2681511 2.2084084 5.483705 15.0745
0.48649296 2.2112601 5.4596195 15.074
0.50237161 2.2029076 5.4576621 15.0755
1.6230681 2.2543561 5.4706583 15.08
-1.1495099 2.317169 5.4092464 15.0685
2.770926 1.0687896 5.5236788 8
2.8023047 1.2506649 5.528409 9.25
2.8195164 1.4315473 5.5272303 10
1.5712686 2.0917058 5.570734 14.108
1.8537009 2.0556896 5.5118089 13.0885
2.0395288 2.0579348 5.5160494 13.11325
2.3728585 2.0141189 5.5451527 13.11425
2.5329556 2.0182586 5.5463581 13.10075
-0.90529519 2.1270814 5.5263047 14.0985
-0.32355976 2.1553509 5.5244575 14.1085
-0.24145067 2.1973102 5.563993 14.0805
-0.13255748 2.1874261 5.5663834 14.091249
-0.036435544 2.179734 5.5259547 14.102
0.3524912 2.1760278 5.5280175 14.1035
0.86590666 2.1028318 5.5274315 14.1055
1.1820463 2.1629064 5.5463004 14.114
1.9052817 2.1289153 5.587101 14.0795
-0.89968795 2.2515807 5.5585999 15.0985
-0.45975256 2.2969756 5.593235 15.0715
-0.3461825 2.227664 5.5449862 14.740833
-0.22589058 2.2291656 5.507144 15.071751
-0.10305728 2.2231348 5.5002508 15.073
0.37747681 2.2008214 5.5161643 15.074249
1.2744548 2.2674539 5.5696607 15.0785
1.3870418 2.2614143 5.535501 15.079
1.5101202 2.2582235 5.5043349 15.0795
2.6220846 1.0434816 5.6844697 8.1184998
4.5335841 1.8146 5.6930857 11.116
3.6381931 1.9178094 5.6538334 12.121
0.89126939 2.0754316 5.6752925 14.077
1.453768 2.0886595 5.6477776 14.1075
1.9011228 2.0441971 5.6590767 13.109
2.0623357 2.0497718 5.6339369 13.089
2.3494136 2.0473881 5.6113887 13.09
-0.74236566 2.1944742 5.6056337 15.069
-0.24321041 2.1581464 5.6714764 14.071
0.02178514 2.186249 5.661036 14.0815
0.15101704 2.1780047 5.6597614 14.578
0.92269266 2.1217704 5.6877084 14.113
1.0546087 2.127563 5.6392126 14.1135
1.4336903 2.1031842 5.6915498 14.079
1.5510252 2.1082106 5.6268334 14.0795
1.7893707 2.1179757 5.6536989 14.079
-1.0770049 2.2725089 5.6171794 15.069
-0.60861391 2.2233255 5.61937 15.0695
-0.46666002 2.2095456 5.6723824 14.0715
-0.95146817 2.336339 5.6077976 15.0695
-0.8166483 2.3232865 5.6057653 15.07
-0.4211354 0.37653667 5.7563152 4
