# .PCD v0.7 - Point Cloud Data file format
VERSION 0.7
FIELDS x y z intensity
SIZE 4 4 4 4
TYPE F F F F
COUNT 1 1 1 1
WIDTH 1028
HEIGHT 1
VIEWPOINT 0 0 0 1 0 0 0
POINTS 1028
DATA ascii
4.8105183 2.0542476 -5.8288388 12.015
4.2272596 1.5848989 -4.8031278 11.1275
4.7505479 2.0745175 -4.9019427 13.1265
3.4967456 1.0243769 -4.5854726 9.1289997
3.4867842 1.2328361 -4.5904956 10.129
3.3834543 1.6736586 -4.5286732 12.62925
3.600786 1.7238131 -4.4986625 13.1285
3.4173501 2.144438 -4.438365 15.129001
3.9082098 2.1444051 -4.5861068 14.014
5.0680847 2.3248196 -4.42554 13.1245
4.3303003 0.20886418 -4.2718735 3.5
3.8501899 0.74346316 -4.0408139 8.1265001
4.3403368 0.63201725 -4.2655101 5.5
4.5091147 0.63769662 -4.2848339 5.5
2.805582 1.0114231 -4.0151749 9.1300001
3.5977011 1.1100657 -4.102798 9.1274996
4.1223764 1.0399004 -4.2060909 8.6262503
3.792469 1.361986 -4.108664 10.698357
4.1325898 1.3149109 -4.2114191 10.12625
4.7477913 1.4965208 -4.3389826 10.125
3.3244061 1.8512397 -4.0464506 13.62825
3.7129908 1.7940888 -4.2128468 12.65825
4.0829096 1.8799224 -4.1332283 12.813
3.1224892 2.1500983 -4.2533522 16.129499
3.3553276 2.1613646 -4.1140399 15.961667
3.791553 2.1985185 -4.1640368 15.301801
4.1122179 2.1715057 -4.2674508 14.251167
4.7472196 2.3254933 -4.260509 14.12475
4.8686352 2.348326 -4.0895181 14.124
0.78667265 0.58417529 -3.6158967 8.0165005
2.8634601 0.77406466 -3.9926691 8.1295004
3.2530208 0.74338877 -3.9465346 8.1280003
3.2171454 1.0752515 -3.9885371 9.1285
3.0471888 1.3226953 -3.9309607 11.62875
3.381526 1.4214056 -3.9610329 12.12775
1.8363079 2.2540407 -3.684365 19.133099
2.2291596 2.267658 -3.7348819 18.702929
2.5795233 2.3281972 -3.8338945 17.880375
2.9410958 2.280333 -3.7360256 17.378687
3.3958623 2.3820944 -3.7869966 17.127251
3.8632107 2.2880573 -3.8548863 16.1008
4.1258111 2.3409626 -3.8315406 15.3
1.9356201 2.4526482 -3.6319857 20.13275
2.0835257 2.4171052 -3.6183703 20.132
2.6490779 2.4000156 -3.6090109 19.129499
3.0256555 2.4027886 -3.9494298 17.129
-1.7435728 0.60884398 -3.2941194 8.0170002
-0.20180833 0.75411159 -3.5489354 9.0270004
-1.2412897 1.3402276 -3.2393062 15.0345
-0.92101908 1.2192168 -3.3695865 14.032
-1.2819653 1.782838 -3.2532141 19.035
-0.98264062 1.8084884 -3.3123658 19.5175
-0.6544143 1.8319783 -3.4046943 19.51
1.7077457 1.977726 -3.2822425 19.132999
-1.0114675 2.1795866 -3.2169731 22.533167
-0.54073048 2.2343321 -3.3278322 23.019501
1.5879602 2.3772819 -3.5523818 21.134001
1.8245093 2.3668768 -3.389663 20.696074
2.2081921 2.3308158 -3.4550879 19.630814
2.6192498 2.2885683 -3.3903985 18.878876
2.9776649 2.3201661 -3.3762262 18.127417
3.4508858 2.2300339 -3.4817548 17.126125
3.8233118 2.1651702 -3.2550118 16.12425
4.0494361 2.3605478 -3.5451028 16.1245
1.1590517 2.4185228 -3.2071896 23.1355
1.2451735 2.4714026 -3.2096503 23.135
1.8833274 2.4713309 -3.4178505 21.465668
2.0687468 2.5175037 -3.2438486 21.131001
-1.7231983 0.69439906 -3.0199509 9.033
-0.94885832 0.60666925 -2.8125677 9.0314999
-2.9082279 0.98619413 -2.8043902 10.0415
-2.4486103 1.1765311 -2.8263347 13.0445
-2.3095498 1.1330577 -2.8209009 13.0435
-2.92068 1.4772109 -2.8132641 15.04775
-2.5363312 1.4290571 -2.8410816 14.79225
-2.2838166 1.4323632 -2.8852382 15.613072
-1.7690464 1.469532 -3.0350974 16.033751
-2.5687306 1.791682 -2.8501396 18.2955
-2.1721442 1.8920573 -2.9686403 19.844252
-1.8054186 1.8734165 -2.9637153 19.527876
-1.3210824 1.9986922 -2.9910426 20.009501
-2.4625587 2.1442173 -2.8359513 22.045
-2.2464859 2.0943327 -2.9019792 21.431501
-1.8550818 2.1261783 -2.8898466 21.785061
-1.3010265 2.000339 -2.9594233 21.009501
-0.61476904 2.3003452 -3.1268854 23.025499
2.1872475 2.3538368 -2.9358494 21.614286
2.6648052 2.3016157 -2.9826734 20.576223
2.964272 2.2013435 -3.0490861 18.87775
3.4010668 2.3181529 -3.1521754 18.125126
-1.5752156 2.4260366 -3.1136563 22.01
1.4578174 2.4523141 -3.0580206 23.133499
1.8283482 2.4394722 -2.9303901 22.542212
2.1802216 2.5047288 -2.9633825 22.379436
2.6332548 2.4602804 -2.9718752 20.794043
2.8744845 2.4947898 -2.8203368 20.62575
-2.0989423 0.32308793 -2.6131213 4.541667
-3.4076068 0.64955294 -2.5470333 6.1816669
-3.0491829 0.73069048 -2.6088893 8.0491667
-2.4799366 0.6690079 -2.4491158 8.0459995
-2.2522426 0.6506812 -2.5369263 8.4342995
-1.825685 0.66648841 -2.6594222 9.1502781
-1.4080911 0.61933297 -2.7531605 8.7023325
-3.7782691 0.99226296 -2.4463043 9.0308571
-3.3674455 0.95205212 -2.592407 9.1995382
-3.048485 1.0368981 -2.6837943 10.45266
-2.2112346 1.0151983 -2.5288019 12.877
-1.8152771 0.95652848 -2.6344402 12.839849
-1.5236832 0.86975849 -2.704226 12.037
-3.6501546 1.289233 -2.4717674 11.776501
-3.3929825 1.448164 -2.5369105 13.764084
-2.9828141 1.4069716 -2.6431348 13.943856
-2.640862 1.4367787 -2.6736214 15.408612
-2.2095399 1.4051316 -2.7486911 16.243099
-3.3799865 1.7126762 -2.4853151 16.216501
-2.9884439 1.7947686 -2.5627413 17.893251
-2.6534719 1.8685261 -2.6316788 19.044064
-2.3715091 1.9885607 -2.773402 21.0445
-1.1853197 1.6977535 -2.5146012 23.0345
-4.3958559 2.1707692 -2.4607539 16.0495
-3.3394582 2.204922 -2.4271283 20.718916
-2.9880867 2.2820272 -2.5632391 22.139999
-2.6544456 2.1840641 -2.6297004 21.388325
-2.3130038 2.2868335 -2.7004921 23.039
1.8773712 2.3406267 -2.6962001 23.1325
2.2204547 2.3488359 -2.5459499 23.005875
2.6966238 2.2886808 -2.6980629 21.13175
2.9379525 2.3352547 -2.6239815 20.324699
-2.9622998 2.4187815 -2.515882 23.049749
-2.6375291 2.4773812 -2.5946703 23.0415
2.2339978 2.4692321 -2.5528901 23.127451
2.6284504 2.4875648 -2.4899733 22.375374
2.9754531 2.465122 -2.6843631 20.7915
3.2018235 2.4409983 -2.6880586 20.124001
-4.9453411 0.76462537 -2.074429 5
-4.5352902 0.7262035 -2.0587571 6
-3.7947109 0.60527647 -2.1483049 5.5
-3.2865057 0.66812515 -2.3248208 7
-2.9798584 0.76953697 -2.1483963 9.0450001
-2.564476 0.67813122 -2.3030078 8.5459385
-2.199085 0.5933882 -2.2429938 8.0391665
-4.9320183 0.9014551 -2.0595872 6
-4.1512485 1.0110383 -2.1308045 8.8894167
-3.7800059 0.99686617 -2.2137942 9.5103846
-3.4554234 1.0478702 -2.1900012 10.382751
-3.0042014 0.96994144 -2.2612293 10.760643
-2.6009474 1.023177 -2.3938913 12.0415
-2.023263 0.94573468 -2.3474133 13.0375
-1.4250718 1.0167097 -2.1416442 15.0135
-5.2997699 1.3807154 -2.0250843 9.0535002
-4.9981623 1.4386165 -2.0139327 10.56
-4.521986 1.568387 -2.1276889 12.05475
-4.0938616 1.3813869 -2.1349871 12.143999
-3.7690253 1.3642954 -2.2821467 12.570352
-3.4038513 1.4067029 -2.2192359 13.835411
-3.0796354 1.4039171 -2.3367729 15.051
-2.2274771 1.3911269 -2.1124356 18.040501
-1.0635042 1.3567028 -2.2357924 19.008499
-4.9220934 1.7865946 -2.0301304 13.05975
-4.6196389 1.7535404 -2.2498083 13.053333
-4.1639709 1.7784538 -2.2011108 14.387833
-3.7274621 1.8186023 -2.1539433 16.731251
-3.4175253 1.8115708 -2.2264526 17.374454
-3.0451784 1.8533703 -2.3586996 18.379
-4.9120121 2.116734 -2.031553 15.05975
-4.4852605 2.1479559 -2.2222402 16.050875
-4.2301154 2.1220279 -2.2717597 16.3855
-3.7453117 2.202755 -2.210741 19.219667
-3.4469109 2.1329758 -2.2629375 19.927
-3.0420952 2.071394 -2.2472129 20.158751
-2.7819231 2.1567149 -2.370321 21.543251
-6.1558814 2.7246521 -2.0701969 15.395167
-5.3772812 2.6381285 -2.0946202 16.053499
-5.1854038 2.6436305 -2.1304853 17.052999
-4.5445881 2.5603132 -2.0903995 19.054001
-4.2101889 2.6698787 -2.1788604 20.655849
-3.8239231 2.4743211 -2.2985508 20.0485
-3.4400043 2.5944979 -2.2905004 23.0525
2.7074108 2.5063486 -2.3080657 22.790833
-2.8476493 0.34250167 -1.736883 4
-3.4103177 0.78454596 -1.9929644 8.0480003
-5.7080612 0.99452662 -1.8668743 6
-5.078424 0.88289589 -1.9791733 6
-4.4287143 0.95488775 -1.8313215 8.0594997
-4.2354546 1.0016193 -1.8495214 8.6754684
-3.827296 1.0394347 -1.8080804 9.6521749
-3.5353539 0.96146631 -1.961558 9.2987499
-5.8666325 1.4245964 -1.7745718 8.3911667
-5.26717 1.2047138 -1.603915 8.0625
-5.135684 1.3702493 -1.9649804 9.5605001
-4.1492739 1.3485618 -1.7037728 12.057751
-3.8276145 1.4388621 -1.7316753 13.337036
-3.5642118 1.3153269 -1.9553701 13.049
-2.6763349 1.2177011 -1.8758067 15.045
0.4240481 1.2426004 -1.7115884 22.38625
1.3073918 1.4500678 -1.7625954 22.132999
-6.1320992 1.8469806 -1.7662722 11.052875
-5.9924364 1.6821667 -1.6129721 10.0635
-4.6048994 1.9868748 -1.7453347 15.0535
-4.0715489 1.8053459 -1.6992986 16.257999
-3.8400426 1.8050822 -1.8557822 16.814917
-3.4572992 1.8985015 -1.9617655 18.04875
-2.5117419 1.6232135 -1.7484859 21.045
-6.0706177 2.2638085 -1.8107672 13.05925
-5.833127 2.0311677 -1.7736093 12.0555
-5.4127426 2.0839956 -1.8254361 14.06175
-4.5690746 2.1405227 -1.7596461 16.724665
-4.3063264 2.1863434 -1.8078457 17.721498
-3.7728977 2.2134085 -1.7938182 20.556499
-3.5913935 2.3220689 -1.9463831 21.0495
1.9602779 2.3759828 -1.8137633 23.008499
-6.6111012 2.6612749 -1.7024468 13.55675
-6.135715 2.5558462 -1.7433947 14.43325
-5.3806405 2.642312 -1.7976192 16.723833
-4.9985023 2.6650867 -1.7822977 18.056215
-4.5584083 2.7594404 -1.886701 20.25695
-4.1742516 2.7092457 -1.8191292 21.052187
-3.4556224 2.4252839 -1.9344394 23.05575
-3.1509991 0.32532394 -1.2034743 4
-6.0117474 0.6827026 -1.5458666 4
-3.0331378 0.4086445 -1.5005324 5
-6.0100222 1.1030812 -1.546773 6.5
-5.176434 1.0835404 -1.3830729 8.0635004
-4.483891 0.99691838 -1.4044963 8.3815002
-4.1257186 1.0852123 -1.4035821 9.8874168
-3.9625003 1.083811 -1.5762191 10.052625
-5.7442842 1.4743776 -1.2224126 10.065
-5.2222776 1.2476696 -1.3016312 9.0640001
-4.1504693 1.4493828 -1.4080685 13.055805
-3.9205709 1.4596009 -1.541893 13.05275
-2.4166601 1.2312664 -1.2746348 16.024
-7.0688405 1.8913808 -1.3839009 9.5527496
-6.6895852 1.6029123 -1.4954187 8.0574999
-5.5040264 1.8304926 -1.2296994 12.0575
-4.7227759 1.8878417 -1.3103472 14.056
-4.2292609 1.7907126 -1.5149971 16.061001
-7.1136789 2.263706 -1.2247586 11.066
-6.7530041 2.3344524 -1.4020959 12.058
-6.2297058 2.2332101 -1.569733 13.064
-4.814209 2.0424328 -1.3021873 16.063499
-4.5847721 2.1619368 -1.4223347 17.05875
-4.3015409 2.240793 -1.4716493 19.061501
-3.8708124 2.2701499 -1.5622412 21.05975
-6.8329144 2.6081381 -1.3662739 13.06175
-6.5617647 2.7043881 -1.3401778 14.561625
-6.1729789 2.6719224 -1.4154829 15.394334
-5.6995096 2.6573563 -1.3335755 17.064499
-5.326313 2.6477902 -1.4258692 17.435875
-4.974411 2.6617603 -1.4044544 18.501665
-4.272325 2.6963534 -1.4206407 21.657501
-3.9072723 2.6370916 -1.3535911 22.554167
0.695894 0.27408242 -0.88394547 10.720213
1.0498972 0.12569726 -0.85761821 5.5
-3.4306822 0.79706472 -1.0661608 9.0544996
-0.38437688 0.52433723 -0.99012053 17.008499
0.37458149 0.66078383 -0.89728528 22.135
0.73001289 0.53003037 -0.94084084 16.0219
0.89155346 0.65191263 -0.87636214 17.606979
-5.19206 1.131281 -0.94429475 8.0585003
0.56375271 1.0968835 -1.0442884 20.4072
0.94679874 0.98144329 -0.95352513 22.227091
-5.8617988 1.3899626 -0.92955565 9.0664997
-5.1692023 1.2270292 -1.0351747 9.0579996
-4.2964568 1.3247513 -1.1584816 11.056
0.65894091 1.252996 -0.82048368 22.50425
-8.7100277 1.8468029 -0.92139316 8.0419998
-6.4548535 1.8671666 -1.1913323 10.0585
-5.9414554 1.9781502 -1.0834558 12.0585
-2.9895217 1.8186083 -0.98236984 22.054001
-6.9392328 2.0598164 -1.0084785 10.0595
-6.0735078 2.0212486 -0.99772805 12.059
-4.7021046 2.0773337 -1.1154869 16.056999
-8.5098753 2.6389945 -0.91628277 11.042
-7.8470893 2.6927423 -0.94254613 12.06375
-7.3937564 2.6982594 -0.99155217 13.067
-7.1427588 2.7123065 -1.1087803 14.0665
-6.5513062 2.6844244 -1.0212783 14.388917
-6.2857542 2.653933 -0.91933024 15.063125
-5.7182531 2.5568154 -0.82819396 16.0595
-5.3872852 2.6431599 -1.0089695 17.517637
-4.9858832 2.6920252 -0.97371203 19.020617
-4.6365471 2.7356491 -0.96140051 20.726999
-4.2061472 2.6846287 -1.0242403 21.8584
-3.8539019 2.6059065 -0.98375362 23.056499
-6.4235806 2.9625185 -1.0009891 16.0665
-6.3958473 2.8680258 -0.87593818 16.066999
0.76490873 0.26878539 -0.61730951 10.918848
0.96856093 0.29339346 -0.53761411 10.742064
0.77254868 0.46315217 -0.71859425 14.9155
0.96965355 0.6276567 -0.58373344 17.937176
-5.6845355 1.1814368 -0.71423775 8.0600004
1.0185788 0.91369212 -0.60392445 22.248045
1.2230443 0.96573544 -0.48464161 23.116625
-6.2890005 1.4882672 -0.77087224 9.0675001
-5.7586122 1.4951346 -0.61081594 9.0605001
0.66703737 1.2636831 -0.73445582 23.00325
-6.1793122 1.6539792 -0.42652184 10.0615
-5.209404 1.7538366 -0.74402028 12.0595
-5.6454492 2.1094851 -0.70752084 14.0675
-10.050715 2.6595042 -0.42984846 9.0434999
-9.7136421 2.712275 -0.42759281 10.05275
-8.8899565 2.7441604 -0.59110576 11.0615
-8.3455276 2.6510274 -0.55873537 11.043
-7.929749 2.7311928 -0.59015882 12.066751
-7.4382377 2.6883783 -0.58820534 13.068501
-6.9843283 2.6703439 -0.58146614 13.453
-6.5499902 2.6815493 -0.60747862 14.303999
-6.2944832 2.6543939 -0.58253247 15.400777
-5.7911282 2.6116395 -0.51376802 15.848349
-5.3693981 2.6582968 -0.60075945 17.893541
-4.9988279 2.7356458 -0.5764035 19.338129
-4.5786057 2.6863525 -0.5703842 20.403423
-4.1449952 2.6151342 -0.56380522 22.056334
-3.8695781 2.596668 -0.65058786 23.058832
-3.5408041 2.5439339 -0.4914006 23.042
-6.7227302 2.8267653 -0.55238652 15.0685
-4.8841715 2.8004954 -0.69509345 20
-2.5012765 0.2500537 -0.076106101 4.6666665
-2.1918581 0.31473419 -0.058420319 7.0116668
0.97733986 0.25954416 -0.19111402 10.381187
1.2023636 0.35404217 -0.024832742 12.1085
-2.4762287 0.5942651 -0.1084672 9.8706665
-2.207953 0.61555898 -0.1223176 11.324223
-1.3504446 0.52054501 -0.16844639 18.0445
1.024857 0.59453505 -0.19626547 17.60199
1.2168071 0.653198 -0.057828657 18.4091
-2.4747307 0.84467137 -0.060062427 13.0355
-2.1817234 0.99029285 -0.076661527 16.838577
0.79982573 1.0901773 -0.11195756 22.135
1.0684248 0.9634304 -0.18250257 22.218801
1.2452648 0.91882908 -0.12648581 22.756844
-2.8573902 1.4696983 -0.082063258 18.0355
-2.7318344 1.3014361 -0.013274916 20.063999
-2.247509 1.3155549 -0.061687123 20.726645
-1.9752232 1.4416649 -0.037155241 23.01775
-6.1961412 1.8994701 -0.080297656 11.063
-6.1577253 2.2173302 -0.070810862 13.063
-10.889444 2.7270579 -0.27042753 9.0625
-10.54062 2.7105656 -0.081960216 9.0664997
-9.4525833 2.71033 -0.071330853 10.063
-9.1359138 2.7124376 -0.22035131 10.56975
-8.1950617 2.6964295 -0.33069164 11.722667
-7.7331109 2.6727357 -0.18554695 12.56625
-7.3584299 2.6695116 -0.18631727 12.806999
-6.9487195 2.707721 -0.18656039 14.06625
-6.6580825 2.6653829 -0.21553621 14.4617
-6.1331162 2.6738713 -0.17272885 15.563251
-5.784452 2.6501889 -0.27675471 16.058399
-5.3486738 2.6790886 -0.230419 18.289167
-5.0204582 2.7174854 -0.19922315 19.487051
-4.610414 2.7036369 -0.22432153 20.559027
-4.1971684 2.6335697 -0.25821474 23.067083
-3.9822767 2.5970523 -0.22220808 23.062
-3.4444609 2.4659173 -0.37290487 23.033501
-4.8623924 2.8656089 -0.37752277 21.069
-4.6672473 2.8192096 -0.12490183 22.070499
-2.5096216 0.3333056 0.17001007 5.6111112
-2.3098855 0.34952134 0.23911217 7.4264979
1.0372924 0.27281392 0.18216725 10.181407
1.2499908 0.29679185 0.25047487 9.9777594
-2.5309384 0.56886923 0.16480234 10.610612
-2.3118305 0.62548852 0.21932371 12.440658
-1.9916525 0.75817525 0.29526618 14.25
1.0706421 0.58716148 0.18684219 16.900185
1.2724926 0.61037117 0.21794561 16.084692
-2.5537603 1.0375897 0.20114824 18.968325
-2.2488647 0.99495471 0.22492714 17.022326
-1.9624445 1.0117099 0.27784953 17.804224
0.98823637 1.0596819 0.15828188 20.748611
1.30604 0.95776284 0.22446077 21.161304
-2.5845256 1.2936982 0.23397306 21.667812
-2.2118387 1.346306 0.19112776 21.275644
-1.9533398 1.3614469 0.22770476 22.172327
0.98284936 1.3027043 0.28426421 22.631502
-6.2523742 1.946084 0.040102176 11.0635
-6.2642546 2.2699995 0.033450775 13.0635
-4.297842 2.1048663 0.19842824 19.073
-11.992811 2.6825814 0.37840685 8.0710001
-11.24664 2.7449088 0.14061055 8.0705004
-10.612445 2.7094641 0.19221501 9.0683336
-10.325558 2.6817048 0.35894698 9.0640001
-9.5129261 2.7221172 0.12526959 10.0635
-8.5414162 2.6968069 0.26109535 11.068833
-7.7696395 2.6668398 0.16545624 12.06375
-7.3847661 2.6778998 0.27536872 12.817875
-6.9938979 2.6849427 0.21252871 13.569625
-6.6706481 2.6713066 0.21988815 14.56975
-6.1958699 2.6831815 0.19357736 15.734584
-5.8491626 2.6601739 0.20355815 16.401417
-5.2916641 2.6596963 0.13662124 18.066668
-5.0462995 2.7180076 0.20787707 19.562319
-4.6085186 2.732825 0.17420276 21.401834
-4.104599 2.5942206 0.08320865 23.07225
-3.8743906 2.5715995 0.20158711 23.065125
-5.0219541 2.8197157 0.10439005 20.357332
-2.2264624 0.26410249 0.63743395 4.9948978
-1.9697263 0.2341516 0.66504592 6.1666665
1.0360771 0.3364903 0.56836498 9.884367
1.3497083 0.26760712 0.57518876 8.7397919
-8.0285139 0.73405266 0.45475021 3
-2.5031288 0.59404355 0.57573062 10.351797
-2.268759 0.61302602 0.62830114 11.532748
-1.9539039 0.70192367 0.59038371 13.414106
1.0459355 0.6364488 0.58770537 14.046029
1.3765744 0.60335988 0.6012997 14.39405
-2.5131874 0.99901932 0.63191265 16.562771
-2.2694163 1.0084542 0.62732452 18.194876
-1.9049037 1.0584865 0.59760147 18.357613
0.63813233 0.87644595 0.51210749 17.132
1.0264961 1.0486211 0.60188884 19.156219
1.3958831 0.98455852 0.60449934 20.098877
-2.4660304 1.3274467 0.56569654 22.357893
-2.1353905 1.3732212 0.61211193 21.812811
-1.8627533 1.3451434 0.6263814 22.018999
0.97965086 1.3030666 0.63870662 22.376186
1.3289704 1.2483875 0.57641137 22.99514
1.668141 1.5158086 0.74117291 19.133499
-8.4975042 1.8999776 0.48991433 8.0719995
1.725729 1.7615695 0.75362188 23.127501
-8.7276421 2.2831481 0.52043712 9.0719995
-4.2313185 2.0595205 0.62443578 19.076
-11.927791 2.7374806 0.63309574 8.0714998
-10.47657 2.7148962 0.51266646 9.0714998
-9.212882 2.7333272 0.74844468 10.0725
-9.0419903 2.6899815 0.64899677 10.57225
-8.5527935 2.7237225 0.53241569 11.06475
-8.3085737 2.6831026 0.48392794 11.072
-7.9620299 2.6623833 0.75995934 12.073
-7.3921218 2.6792679 0.66660267 12.734666
-7.0284328 2.6603367 0.56774944 13.403666
-6.6030216 2.6769185 0.58550394 14.626168
-6.1134982 2.6795864 0.61940831 15.401833
-5.7751827 2.671195 0.53862274 16.567751
-5.3912816 2.6340411 0.67877656 17.672998
-4.9891367 2.7124205 0.53068596 19.51511
-4.6093736 2.7194526 0.56227565 21.408167
-4.1454544 2.5996895 0.64903873 22.57625
-3.8793919 2.6011784 0.6039899 23.068001
-2.1809092 0.2803793 1.0505912 5.1500001
-1.8532932 0.21500564 1.0379422 5.647059
1.039184 0.32499442 0.98519284 8.4359999
1.4445095 0.25609064 1.039874 7.4821711
1.6176332 0.21410893 1.1090684 5.875
-2.4744856 0.65058857 0.98384023 10.646319
-2.2026429 0.59480178 0.98828101 10.655298
-1.8240752 0.65631276 0.99140376 12.494464
1.0319042 0.65409774 0.96493131 12.95675
1.4171315 0.60657799 0.99593365 13.276123
1.6083865 0.56737304 1.0593965 11.778957
-2.4964764 1.1609666 0.88735884 18.0755
-2.2432442 0.98687077 1.0006951 17.033861
-1.8918711 0.9981823 1.0762322 16.767256
1.0402614 0.93512762 0.99140942 16.560625
1.3936735 0.99090195 0.98940641 18.949978
1.6033267 0.87001759 1.0811784 16
-2.4186587 1.2103052 1.0363644 19.077499
-2.1677618 1.3309242 1.0211829 21.643194
-1.8656919 1.3959798 1.0357457 21.834206
0.8896665 1.2890309 0.96931773 21.550964
1.3985555 1.3516233 1.0170317 21.63798
1.7219748 1.548936 0.97838384 19.132002
-14.696407 1.6882441 1.187832 4
1.3694879 1.8448194 1.0171386 22.630501
1.761943 1.8926015 0.91971916 23.126249
-11.641515 2.7405796 1.0855078 8.0725002
-10.21891 2.7101128 0.99284965 9.0727501
-9.8332834 2.7113309 1.0379283 10.073
-8.8303785 2.7056577 1.1754634 11.0665
-8.659915 2.7056999 0.9853726 11.0685
-7.7781539 2.6672807 1.0384246 12.323999
-7.5225525 2.6772633 0.93840343 12.318251
-6.8987246 2.6580117 0.87116176 13.0665
-6.6456833 2.5939727 0.97305077 14.0716
-6.2087841 2.6575255 1.0816317 15.0724
-5.9047852 2.6786478 1.0018091 15.817749
-5.3445983 2.6204476 0.95876455 17.742666
-5.0580068 2.613091 1.016811 17.56875
-4.2645097 2.7346315 1.1887126 21.070999
-2.1689217 0.24023636 1.4304272 3.8333333
-1.8650588 0.30477193 1.4058214 6.1496925
1.1969931 0.012948196 1.524618 2
1.3458097 0.33136612 1.4384508 8.4391308
1.6132475 0.18680297 1.3047675 5.25
-2.4025624 0.70717496 1.2688992 11.08
-2.1484463 0.63132489 1.4136358 10.407316
-1.8763981 0.58933318 1.4389261 10.349175
0.97910374 0.59173787 1.3267089 11.453458
1.4479893 0.59589756 1.3606516 11.922636
1.7934577 0.56581634 1.421417 10.2922
2.0272052 0.58361512 1.4422227 9.4571667
-2.1167474 0.98045182 1.3377348 16.138384
-1.8625329 1.0003788 1.4466901 16.256124
-1.5966206 1.0844251 1.5565374 17.277
0.86100274 1.1161128 1.2250274 19.120001
1.4378341 1.0003315 1.3773949 17.310423
1.7465553 0.86962348 1.4579227 12.5266
2.0125384 1.0051775 1.4292395 14.12375
-2.1496406 1.3412801 1.3691461 20.589121
-1.8143948 1.382091 1.4106206 21.327087
-1.583424 1.4178239 1.4018801 21.719248
1.4298648 1.3665855 1.3757503 21.134083
1.7429079 1.3955059 1.4075021 17.624437
1.3773618 1.7952791 1.4281926 21.486694
1.6816356 1.8440913 1.5636921 23.099751
1.420638 2.0842438 1.4887835 23.127501
-12.261877 2.7342961 1.3843875 8.073
-10.047196 2.705425 1.2780589 9.0734997
-9.8144379 2.7095423 1.3665727 9.7405005
-8.9554214 2.6998653 1.4698727 10.06725
-8.197382 2.6978917 1.4405077 11.575
-7.3277154 2.6386683 1.3190867 12.6708
-7.1260858 2.6293209 1.4818813 13.0685
-6.4967918 2.5940156 1.3171479 14.070375
-6.2835221 2.6388574 1.474684 14.873899
-5.8456907 2.6583238 1.4717627 15.825624
-4.9330292 2.583153 1.3765897 18.070749
-4.7554531 2.5714495 1.561814 18.072001
-4.2141061 2.7025607 1.3727926 21.4055
-2.0242913 0.3054643 1.7185396 4.8333335
-1.7307602 0.31911606 1.8243457 5.6683679
-1.5598544 0.21279028 1.8276123 5.2142859
1.390151 0.31230578 1.7614743 7.4484725
1.613364 0.30229166 1.7150488 6.7944999
-2.0867825 0.61364555 1.6975352 9.5172501
-1.7938614 0.61710048 1.7815111 10.090029
-1.5397128 0.61229312 1.8921928 10.369583
1.5181633 0.66552788 1.7867674 10.484233
1.7336614 0.5732922 1.6750503 9.7100563
2.0153787 0.48047987 1.7388316 8.2481661
-2.0764132 0.96904588 1.8107502 14.086249
-1.7708546 0.99008232 1.7475147 15.212427
-1.5425609 1.011291 1.8555535 15.643308
1.4746654 1.0661372 1.7738192 14.125358
1.7012849 1.0700171 1.8183677 14.538876
-2.0381932 1.2808733 1.6455295 18.838001
-1.7377411 1.3366762 1.7160605 19.541061
-1.562324 1.3221056 1.8131417 19.628555
1.4086075 1.486689 1.8032593 18.578419
1.7269301 1.37945 1.7613797 17.242092
-1.7018424 1.802629 1.9022639 22.555248
1.1780143 1.9205432 1.7105877 23.118
1.346293 1.7608731 1.6996806 20.923199
1.7098122 1.8598436 1.8557221 22.347
2.1633682 2.331094 1.943767 21.37775
-12.582902 2.761672 1.9423782 8.0740004
-12.390523 2.7407615 1.6626313 8.0734997
-10.218576 2.7371426 1.7239071 9.0745001
-9.7610378 2.6997862 1.6030792 10.0745
-9.3114939 2.6711819 1.7027577 10.075
-8.9968491 2.676089 1.789757 10.07175
-8.1584053 2.7227602 1.7478081 12.076
-7.6714883 2.6368237 1.7697998 12.0765
-6.9979625 2.6274025 1.7493917 13.073334
-6.7364774 2.5993416 1.9485515 13.0705
-6.1314583 2.5937078 1.8278993 14.40675
-5.8177586 2.6333382 1.7714062 15.407001
-5.4182515 2.5856013 1.6234647 17.079
-5.0637522 2.5472157 1.7956847 17.0805
-4.7128372 2.5870659 1.647774 18.0725
-1.6054788 0.32401499 2.046226 5.75
-1.4963056 0.2915217 2.0862002 5.5
1.470984 0.24559003 2.1642585 6.25
1.7402579 0.088295579 2.3188918 3.5428572
-1.7607503 0.64301163 2.0505865 9.7478743
-1.4588681 0.56567204 2.1313341 9.146513
1.4579871 0.65748119 2.0994906 10.037066
1.8300426 0.58208382 2.2384186 9.32125
-1.4595015 0.99418741 2.1483786 14.495572
1.4252048 1.0123576 2.2064786 13.43509
1.8296522 1.0321497 2.2394176 13.655499
-1.7230954 1.4423995 2.2897727 17.821377
-1.4459808 1.2217464 2.0547831 18.093
1.3770504 1.4196326 2.1331668 17.398464
1.8243556 1.3949246 2.1517303 17.41609
2.3821964 1.4991337 2.0722218 15.128
-1.6754836 1.8038079 2.2306349 21.108271
1.1272349 1.7861127 2.0623319 21.115749
1.4686933 1.7247283 2.2207332 20.299398
1.8272536 1.7932373 2.1833127 21.052273
2.3684773 1.9467552 2.1552255 18.127501
-2.1694951 2.0292616 2.3192289 22.08725
-1.7207267 2.055017 2.3023283 23.074999
1.103924 2.3747802 2.3093419 23.1215
1.4744236 2.371887 2.2391746 22.837931
1.7906717 2.3003886 2.228956 22.45335
-8.9870787 2.6639383 2.0047543 10.076
-8.5316696 2.666935 2.1752279 10.6739
-8.3517122 2.6592395 2.3194206 11.07
-6.5752273 2.5970564 2.1703818 13.0715
-5.8905177 2.5974228 2.0847087 14.875299
1.1294574 2.4009616 2.3310964 23.1215
1.9239393 0.27861735 2.7788603 5
2.1750088 0.24141401 2.6998534 6
-1.5302849 0.68357229 2.787055 9.0605001
1.3979411 0.76353151 2.5063848 10.1155
1.861043 0.56607431 2.6165688 8.5349169
-1.7709894 1.0505275 2.7543793 12.084666
-1.5522397 1.0156901 2.6351504 13.0482
-1.1593568 1.1131865 2.6154037 14.101
1.5074773 1.0881429 2.5394585 14.0752
1.9004278 1.0396131 2.5909338 12.832199
2.2127399 0.87958431 2.6323781 10.12525
2.4290695 1.1671211 2.4802103 12.1265
-2.1459179 1.2490051 2.7080917 13.755834
-1.7557135 1.4272285 2.6871338 15.900499
-1.5288154 1.3885145 2.6797218 16.270811
1.5565186 1.2659954 2.7004323 15.2
1.8764602 1.3008389 2.614897 15.280389
2.3733191 1.5337011 2.7065749 15.1185
2.6720197 1.2838861 2.5317459 13.1225
-2.1278734 1.9836168 2.4350584 21.087999
-1.7369063 1.746317 2.570328 19.415201
-1.4583684 1.794778 2.6387219 19.912558
-1.1348259 1.71418 2.7351975 19.101801
1.5521047 1.6713994 2.5347407 19.58675
1.8204961 1.8800226 2.5766008 19.236502
2.3111377 1.7904994 2.7381897 17.118
-2.0597835 2.092947 2.4960127 21.755333
-1.7776486 2.0877643 2.5643566 22.180302
-1.4124039 2.1613047 2.6709051 22.619249
-0.96793407 2.0550168 2.7331724 22.431
0.34073782 2.3779354 2.737324 23.115499
0.6299687 2.2858737 2.7151196 23.097418
1.0607865 2.3398366 2.6522315 22.808872
1.424643 2.3210895 2.6567779 22.174669
1.7335352 2.2729588 2.5576324 21.98628
-8.591239 2.6712682 2.6132476 11.078
-8.2563705 2.6743183 2.4733427 11.0705
-7.836493 2.639838 2.6577704 11.0715
1.0605186 2.4042814 2.485317 23.120501
1.3172251 2.4209175 2.5608253 22.1215
-1.4759678 0.26480377 3.0865784 4.1041665
1.9100929 0.21011938 2.8523252 4.25
-1.7245967 0.73007971 3.0437317 8.6656504
-1.4883529 0.70043808 3.038836 8.7198896
-0.87213784 0.67548829 3.1015375 9.1048336
1.5354824 0.63395333 3.0280402 9.085
1.8939886 0.66065258 2.9301531 8.5693331
-1.7454021 1.0564787 2.9410448 11.903955
-1.3997668 1.0820693 3.0228815 12.274412
-1.0837122 0.98589993 3.0124841 11.7044
1.5371261 1.1970469 2.8532276 14.0855
1.8900566 0.97831118 2.9323318 11.1078
2.0729492 0.89510655 2.8930283 10.12375
-2.0744238 1.2589524 2.9184999 13.59025
-1.7526031 1.2811105 2.9904354 13.912576
-1.4000503 1.4007915 3.0336068 15.110463
-1.0076096 1.2635086 3.0244675 14.431249
-0.71764731 1.2510759 3.1360102 14.100001
1.5460553 1.2563449 2.8633564 15.0855
1.8811915 1.4333637 3.0110581 13.6225
2.1967676 1.5192263 3.0469861 14.6165
2.4046419 1.5555359 2.8430817 15.118
-1.6789851 1.7727309 2.8244324 19.092499
-1.4065775 1.7927951 2.9237621 18.772999
-1.0285882 1.6962628 2.9262092 18.764166
1.865389 1.8228554 2.8286195 17.122999
2.2221174 1.7250292 2.9955716 16.116751
-1.305867 2.2500339 2.9260561 22.501778
-0.96415043 2.3297889 3.0105007 23.06855
-0.57508039 2.3291621 3.061537 23.073179
-0.18018605 2.3136671 3.0322526 22.9695
0.18231554 2.3035979 3.0544684 23.083387
0.62125295 2.3464763 3.0425503 22.420528
0.97741675 2.3370435 2.9610281 22.429752
1.3908222 2.3130093 2.9789627 21.645739
1.7205286 2.2698798 2.952713 20.706051
2.102767 2.3386424 2.9196336 22.087999
2.621444 2.1754186 2.9798343 17.125
-8.7411327 2.6835091 2.8684068 10.0785
-1.8034247 2.4912601 3.0583696 22.591749
-1.450676 2.4076602 2.9347386 23.094
-1.0382099 2.4373479 3.1141863 22.590502
-0.61366749 2.4385264 3.0493519 23.107164
-0.10812066 2.4240942 3.131983 23.106333
0.11357534 2.4223146 3.091408 22.446501
0.56132144 2.4168515 2.9693625 22.116125
1.0563214 2.4012713 2.9712951 22.11125
1.2277436 2.4033217 3.0162876 22.112
-1.8072883 0.38201153 3.3099647 5
-1.301216 0.2878052 3.2914209 4.833333
-0.58069724 0.27554241 3.3141568 5
1.8921773 0.27066943 3.2284117 5.5
-1.6451136 0.71454018 3.3078744 8.3756666
-1.2932812 0.68834126 3.3536534 8.4213333
-1.088634 0.68039143 3.4567561 7.9348745
-0.63015109 0.53477967 3.3012915 7.5502501
1.8194654 0.57718801 3.3745825 8.1177502
-1.2745798 0.99182689 3.3087308 10.871398
-1.0604167 0.89820266 3.3133979 10.1985
1.8308764 0.97676712 3.3320515 10.783333
2.1634102 1.1406659 3.5027153 11.094
-1.604399 1.3806822 3.3153636 14.0635
-1.3535215 1.4074043 3.3489692 14.234417
-1.1762316 1.2775238 3.33741 13.53325
-0.56087315 1.2535113 3.270756 14.101
1.7939579 1.3036509 3.496701 13.1135
2.1548572 1.4502299 3.3806014 13.59425
-1.2290144 1.9540254 3.2201867 19.0655
1.8163953 1.6374975 3.3240278 15.114
2.3447506 1.7548934 3.5752821 16.087
-1.0590385 2.384815 3.3658619 22.065001
-0.55000365 2.3381279 3.3671517 22.283644
-0.21213889 2.3545682 3.4488907 21.793411
0.21908849 2.3603668 3.4559381 21.28264
0.59322721 2.3422611 3.3899674 21.00622
1.0048425 2.3140392 3.4131351 20.478544
1.4191058 2.2800825 3.4268208 20.199947
1.7802786 2.2376335 3.4818053 18.802
2.0452945 2.336411 3.5350499 19.084
2.4766495 2.1436579 3.3406432 16.790001
-1.3747575 2.4969096 3.4505155 21.587002
-0.97498274 2.475718 3.3967538 22.186726
-0.52476686 2.4438553 3.4896638 21.606043
-0.2055566 2.4409542 3.3976555 21.906727
0.17174335 2.4151611 3.3131554 21.982124
0.51139826 2.4167972 3.4242857 21.107
1.5224283 2.4116676 3.4498253 21.081499
-1.0208455 0.76106453 3.7882009 8.0679998
1.7460818 0.62233996 3.6492286 8.1129999
-1.5761924 1.2428874 3.9731653 11.095
-1.2314523 1.8283768 3.9348612 16.065001
-1.1136227 1.9080623 3.9837449 16.076
3.1122208 1.6326597 3.7938719 13.124
-1.7516708 2.2347856 3.8129251 18.0935
-1.3536712 2.3590155 3.822948 19.579876
-1.0485555 2.3329151 3.8305039 19.490374
-0.58272159 2.3593345 3.8574307 19.675743
-0.18554921 2.343838 3.8334119 19.78298
0.19400412 2.3404436 3.7903919 20.069197
0.58843488 2.3100278 3.7965186 19.778913
0.98031455 2.3051877 3.8250556 19.764174
1.4251266 2.2617064 3.8326728 19.118626
1.7898818 2.2348013 3.7834158 18.642097
2.2017834 2.1373062 3.7827089 17.366116
2.4793479 2.105195 3.773612 16.781668
-9.0389023 2.6626666 3.7230704 10.08025
-1.337001 2.4528375 3.8053272 20.368572
-0.99267149 2.4247158 3.7711141 20.482712
-0.65161294 2.4366863 3.7336414 20.872271
-0.22226267 2.4188867 3.6720932 21.087358
0.31910893 2.4022319 3.6468585 22.073999
-1.1369132 0.76544732 4.2472224 8.066
-1.0642993 0.96156335 4.175519 9.0767498
-0.19953787 0.90471494 4.1653595 9.1105003
2.7072105 1.0205147 4.1312261 9.1219997
-1.3836931 1.3618696 4.2235565 12.10025
-1.0065258 1.4822557 4.2713442 12.5851
0.03516537 1.4284233 4.2637324 13.1035
2.2549801 1.5610373 4.3782854 12.092
-1.6638064 1.7066796 4.1480403 14.0945
-1.3561881 1.7400688 4.2464457 14.478399
-1.0665703 1.8030987 4.2319984 15.016375
-1.3139917 2.3663039 4.018537 19.096001
-0.95365047 2.2399793 4.17033 17.965733
-0.60688448 2.2976325 4.1580706 18.367453
-0.18995273 2.2847266 4.2227969 18.444273
0.21958031 2.297121 4.1662154 18.877413
0.57153648 2.3051026 4.16254 19.108446
0.99769968 2.2350476 4.1901364 18.2735
1.3620749 2.2063348 4.1940308 17.478193
1.8483963 2.1490741 4.1805825 16.842167
2.143846 2.0974727 4.1491528 16.029924
-1.0637883 2.4232872 4.0365119 20.067665
-0.99966943 0.21585958 4.6969371 4
-1.7707181 0.561364 4.4306884 5
-0.97033709 0.72485685 4.6465058 7.3558335
-0.73379624 0.64024675 4.7791533 7
-1.3564633 0.9899354 4.7075205 9.0672503
-1.0156224 0.9943698 4.5490046 8.9727001
-0.76347095 0.97076273 4.7061343 9.0466661
-1.3116817 1.255487 4.7619495 10.0675
-0.9334619 1.3510898 4.6004834 11.617096
-0.74817252 1.2913971 4.7058949 11
1.9531766 1.5834725 4.559515 12.1185
2.149296 1.588671 4.5087843 12.11925
2.5740812 1.5595981 4.4607244 12.0855
-1.407197 1.8607507 4.413044 15.0665
-0.93051314 1.7691535 4.4929585 14.368084
-0.74625617 1.6737095 4.6156092 14.07
1.786446 1.6465161 4.754662 13.081
2.2417309 1.7170142 4.6047425 13.251083
2.4911621 1.9765339 4.4995785 14.0925
-0.97073954 2.2128882 4.5793395 16.8815
-0.61670816 2.2716157 4.5548811 17.238438
-0.13793644 2.261867 4.6332984 17.2813
0.21786615 2.2151754 4.6344147 17.0765
0.61402076 2.2117817 4.5659575 17.011232
0.98814076 2.1968169 4.6663585 16.4923
1.4058795 2.1561904 4.6440353 16.148928
1.7775518 2.1350486 4.5580869 15.889132
2.2525969 2.1372247 4.621675 15.5907
2.4871492 2.0957062 4.5084286 15.493601
3.0073061 2.023313 4.6095223 14.1145
-0.67182189 1.4728466 4.8272924 12.0705
-1.285241 2.3793321 5.04914 16.09675
-0.91575503 2.2461085 4.9584484 15.924167
-0.5737552 2.2073491 4.9757328 16.081636
-0.17807429 2.2448566 4.9557724 16.214733
0.22925997 2.2167275 5.0585065 15.900531
0.63120741 2.1965792 5.0430603 15.796352
1.0258594 2.1771588 4.9799771 15.710875
1.4181508 2.1755049 5.0738144 15.01646
1.7873827 2.1467829 5.0085721 14.856528
2.2246194 2.1145515 4.97823 14.676318
2.6242704 2.0444658 5.0068817 14.099667
2.9162502 2.0133052 5.0434217 13.61325
2.6820948 0.068377212 5.3381786 2
2.7437813 0.51776111 5.439435 5.5
2.7789648 0.90839624 5.4787154 7.5
3.0391884 1.1232805 5.4576697 9.1199999
2.8023529 1.2953871 5.5254173 9.5
2.7519829 1.9865148 5.2025757 14.0845
3.7990441 1.938012 5.4474192 12.12175
-0.99596018 2.2724793 5.3796353 15.255084
-0.57000202 2.2400007 5.3914571 15.085407
-0.202084 2.211323 5.4047184 14.886139
0.19057667 2.1840389 5.3525743 14.857117
0.56094009 2.1847825 5.3285537 14.918877
1.0090079 2.1958444 5.35535 14.671714
1.3815691 2.1826556 5.3932152 14.527072
1.824582 2.1138532 5.4228606 14.180545
2.197587 2.0727594 5.3751907 13.703132
2.5815051 2.0181682 5.4633617 13.1045
-0.4211354 0.37653667 5.7563152 4
1.974335 0.061473563 5.8599815 2
2.1187201 0.711887 5.8793912 6
2.530129 0.56901324 5.7703133 5.5
-0.39287966 1.0915709 5.8353438 8.0719995
2.5617263 1.0120438 5.7479434 7.9004998
-0.3835929 1.3253291 5.8591876 9.5719995
2.2045529 1.4760557 5.9437151 10.0815
2.548419 1.4413012 5.8187141 9.5
-0.36708337 1.7233831 5.8717642 12.072
3.5604711 1.9123371 5.8107376 12.1205
3.6381931 1.9178094 5.6538334 12.121
4.4903088 1.803942 5.7773247 11.11575
-0.94837379 2.3107114 5.6102471 15.0695
-0.62168807 2.1991122 5.7377791 14.296391
-0.25485936 2.19294 5.7872062 14.076928
0.18536274 2.1742947 5.8072152 14.081291
0.61142343 2.1378081 5.8372312 13.935038
0.99130303 2.1137216 5.7923589 13.859423
1.4449031 2.0886691 5.7708435 13.654071
1.7423801 2.0692587 5.7841692 13.309666
2.2332673 2.0333333 5.7399454 13.0864
2.2379246 1.9944698 6.2333107 12.098749
2.7152159 1.9499689 6.0599308 12.0905
3.4587493 1.9037429 6.1102667 11.61975
4.4491386 1.8338577 6.3802657 11.1145
-0.56731582 2.1768897 6.28123 13.099751
-0.18989734 2.1746788 6.217073 13.207722
0.22637637 2.1393583 6.1885929 13.093112
0.63472962 2.1154094 6.148715 13.0902
1.0228928 2.0959692 6.1980047 12.980279
1.3570795 2.0591869 6.2290936 12.590688
1.81512 2.0141521 6.2847567 12.0995
2.1556652 2.0273511 6.1965666 12.348249
1.6629829 1.9957533 6.5203705 12.079
3.0344694 1.9229711 6.545794 11.085667
3.2987161 1.8881209 6.5074492 11.11875
4.3226056 1.8147124 6.5434952 11.114
-0.42410025 2.0983574 6.6627531 12.0705
-0.17056583 2.1388767 6.5596442 12.658286
0.1036456 2.1360214 6.675106 12.430833
0.63570356 2.0821664 6.5977659 12.574875
0.98663664 2.0703533 6.6143327 12.4849
1.3903944 2.0339706 6.5416198 12.094126
1.8054043 2.0346403 6.5555649 12.096334
2.217823 2.0878298 6.7323823 12.07925
1.4109498 1.9858081 7.0508699 11.57775
1.6407719 1.9942025 6.9949856 11.0785
2.6342986 1.9416089 7.0558724 11.087125
2.9746532 1.9268732 6.9836421 11.093
4.153367 1.8223497 7.0712872 10.11275
-0.13480626 2.0939415 6.9582939 12.073501
0.26080719 2.0980229 7.0227518 11.936929
0.55463988 2.0983772 7.0143523 12.098332
1.0754939 2.0592704 7.0544243 11.8833
1.3246303 2.0403004 7.0757265 11.587938
1.7280455 2.0415609 7.0741048 11.417083
2.0087063 2.0438066 6.8537698 12.0785
-0.73297781 1.7630273 7.4341869 10.071
-0.33014953 1.8141431 7.424325 10.071
0.25317824 1.6694862 7.4726405 10.074
1.0288641 1.9886227 7.3952141 11.11175
1.8487151 1.9598589 7.4110403 10.843374
2.17381 1.9262495 7.3671184 10.766583
2.6111236 1.9196038 7.3835936 11.081
3.0077615 1.8891835 7.3566303 10.103251
3.9165616 1.8233912 7.4362268 10.11175
-0.16005452 2.0675073 7.4854922 11.0715
0.14202911 2.0772061 7.3435836 11.077
0.59793234 2.0673685 7.3482456 11.329
0.96038216 2.0353379 7.3880639 11.421333
1.5148646 2.0344293 7.5527906 11.0765
1.9444698 2.0514867 7.2247443 11.078
2.6247354 2.0420551 7.462121 11.07975
0.82270277 1.9971005 7.6702313 11.111
1.6793538 1.9445628 7.8772688 10.085751
2.3042307 1.9048431 7.8049717 10.07975
2.7243998 1.9308403 7.8267508 10.095875
2.9719515 1.8727955 7.7430978 10.102601
3.405524 1.8124357 7.8228469 10.1125
3.7273788 1.8256449 7.7135682 10.111
-0.48285508 2.1149201 7.9164252 11.07175
-0.14072561 2.0927491 7.817678 11.07275
0.1002652 2.0748694 7.6869559 11.0735
0.59869409 2.0212281 7.9234195 11.09225
0.90710616 2.0251293 7.8357587 10.826876
1.2808756 2.0189624 7.7118177 11.07575
1.6929874 2.0266299 7.8670382 10.594999
0.19105309 1.9989276 8.0773106 10.0725
0.47205108 1.9990437 8.0849295 10.0745
0.89436281 1.9818912 8.2163811 10.0795
1.3726803 1.9587231 8.1029167 10.08475
1.8068118 1.9051007 8.3475962 10.078
2.2313321 1.9187992 8.276474 9.8377504
2.5234146 1.8742839 8.1737785 10.106251
2.9476459 1.862103 8.2501421 9.4256668
3.4716911 1.8029087 8.3203182 9.0897503
4.6267343 1.6937834 8.3504829 9.1155005
4.9881701 1.672982 8.2966537 9.1127501
5.2820921 1.6389968 8.1377001 9.1134996
-0.0010399618 2.0218968 8.2036066 10.072
0.26313552 2.0359726 8.236043 10.084375
0.62917572 2.0245497 8.0989103 10.409
1.1836305 1.9709046 8.5601311 10.084
1.6533246 1.9253299 8.5725489 10.0775
2.1226044 1.8766536 8.4726982 10.1065
2.7836688 1.8533847 8.4950256 10.108
3.0057008 1.795889 8.4567127 9.1084995
3.4538472 1.794444 8.6441107 9.1025
3.7290287 1.7715445 8.5532999 9.1099997
4.2324781 1.6884782 8.5763912 9.1145
4.4104104 1.7184691 8.421483 9.1114998
0.47993648 2.0161455 8.6771917 10.1095
2.6869848 2.000839 8.5541849 10.079
0.35359204 1.984579 9.1882114 9.1090002
0.52369189 1.9481235 8.9833946 9.0822506
1.140213 1.9057802 9.1142712 9.0760002
1.4087936 1.900115 9.0622063 9.0929995
1.7575359 1.8809068 8.9963503 9.0874996
2.20257 1.8649733 9.0178366 9.0862503
2.4736857 1.860516 9.0543623 9.0788336
3.0746231 1.784181 8.8376675 9.0807495
3.831769 1.7415825 8.9281816 8.7490005
4.153913 1.6760311 9.0528936 9.1150007
0.62233514 1.9282004 9.3628826 9.0922146
0.96626908 1.9139116 9.3606987 9.0754995
1.3191352 1.9076916 9.2687263 9.0932503
1.7444707 1.9292748 9.248167 9.0942497
2.3298182 1.7485992 9.5105352 9.1097498
2.6489186 1.7242889 9.4472027 9.1140003
3.0197628 1.7562046 9.415225 8.8491249
3.415158 1.7136081 9.4866943 8.5982504
3.7503014 1.6942825 9.3815241 8.349
5.2061543 1.6234486 9.2534981 8.1190004
4.4784207 1.5773401 9.9827566 8.1169996
6.8135066 1.4559368 9.7451668 8.1140003
0.63648152 1.8445963 9.9383001 8.0859995
0.9957583 1.8590777 9.7717009 8.8458757
2.1253312 1.7909468 9.6646414 8.7674999
2.6500998 1.7630785 9.6115589 9.1067505
3.0047207 1.6965294 9.8407145 8.0981665
3.3019977 1.7605876 9.6589222 8.0891247
3.7318838 1.6817468 9.7263088 8.0889997
2.6002905 1.7308892 10.169411 8.092
2.9350028 1.6999638 10.0926 8.0795002
3.2679653 1.6472441 10.388073 8.1145
3.7505493 1.6240373 10.189097 8.1155005
3.5631857 1.5925207 10.409383 8.1149998
4.1945419 1.579056 10.548313 8.1160002
1.1488137 1.8080757 10.669322 8.0754995
1.3964422 1.7855076 10.716422 8.0760002
1.7374781 1.8120083 10.451738 8.1114998
2.2368045 1.7128731 10.582033 8.0985003
2.5579772 1.6950676 10.513186 8.0922499
3.0665674 1.6412951 10.580717 8.1140003
-0.31255573 1.8400204 10.844067 8.1000004
1.4533124 1.8172843 11.02052 8.1035004
1.7332221 1.7496268 10.971283 8.1064997
2.1392293 1.7415059 10.826008 8.0775003
2.7474759 1.7452633 11.158077 7.5565
2.8963876 1.6308224 10.87557 8.1134996
3.2329602 1.6631596 11.035562 7
4.4938807 1.5973842 11.454251 7
0.50179082 1.8081381 11.595869 8.1014996
2.3228159 1.7178648 11.418271 8.1049995
3.0095649 1.5806974 11.982617 7
1.5444319 1.7057163 11.846141 7
0.66838533 1.7393398 12.314757 7
3.5538726 1.6351233 12.305214 7
2.7344637 1.644617 12.546959 7
3.6543629 1.6536112 12.520593 7
3.8282111 1.5130743 12.990229 6
2.9647501 1.5935658 13.552563 6
3.2010591 1.6149359 13.213033 6
0.8141163 1.6251147 13.678029 6
3.9834058 1.6389331 13.728718 6
4.1576681 1.4611381 14.04318 6
-0.6101414 0.51275599 14.773654 3
4.8474035 1.3024528 15.285616 5
4.6263638 1.3043391 15.796263 5
4.3751345 1.2669399 16.129436 5.5
5.7497377 1.1649536 16.860823 5
4.174736 1.2781192 17.019209 5
2.7771742 0.12302811 17.348463 2
3.0048821 0.1665381 17.239918 2
2.7536738 0.68586278 17.388847 3
3.0733502 0.7122789 17.324566 3
2.5560143 1.3813026 17.58774 5
2.9223809 1.3714411 17.406212 5
1.4477577 0.15434483 17.774738 2
1.7691693 0.1820145 17.791769 2
0.5932942 0.59671748 17.86018 2.3333335
1.5035806 0.79032004 17.811831 4
0.94058514 0.85419297 17.860964 4
1.5876273 1.1514423 17.865715 4
1.716455 1.1580975 17.764793 4.5
0.78589922 1.5262439 17.886486 5
1.0221207 1.4492916 17.855782 5
1.4606059 1.2526633 17.839705 5
1.644385 1.2214487 17.875322 5
6.9330673 0.011987845 18.373272 2
2.5260253 2.1521146 18.266939 6
1.0544128 2.0935242 18.461395 6
-0.0033094208 2.9351008 18.669056 8.0719995
