# .PCD v0.7 - Point Cloud Data file format
VERSION 0.7
FIELDS x y z intensity
SIZE 4 4 4 4
TYPE F F F F
COUNT 1 1 1 1
WIDTH 1256
HEIGHT 1
VIEWPOINT 0 0 0 1 0 0 0
POINTS 1256
DATA ascii
0.92535806 0.60140526 -0.22579333 16.5
0.93578863 0.90743017 -0.23136199 22
0.95685875 0.84865874 -0.1624067 20.5
0.91882324 0.4422709 -0.026379645 13
0.95668936 0.57476968 0.037242353 15
0.99138284 0.85170364 0.080938309 20
0.95034754 0.33850956 0.208931 10.5
0.96852601 0.46161076 0.20453814 13
0.97523534 0.68021697 0.14761588 17
0.9869988 0.21768591 0.42152545 7.3333335
1.0042347 0.27529785 0.49009159 8
0.98459125 0.41739491 0.33748344 11.5
1.022491 0.48816872 0.49906233 12
1.0151366 -0.0099077504 0.71300566 2
1.028378 0.26464346 0.65136194 7.8000002
1.0376842 0.42469972 0.63828707 11
0.91513169 0.66849071 0.57688618 15.5
0.90847588 0.78507882 0.55283022 17.5
1.0930297 1.0927405 0.67973077 20.5
1.0657303 1.1710004 0.67582023 22
1.0394305 0.049330667 0.89546454 4
1.0184132 0.20094323 0.82575917 6.5
1.0533433 0.41254342 0.86224759 10
1.090798 0.9151184 0.92115784 17
1.0884855 1.033334 0.85175276 19
1.0069462 0.040029876 1.0052665 3.5
1.0456702 0.24109864 1.0126692 7
1.0435574 0.42023492 0.95453107 10
1.0786761 0.85528719 0.94746864 16
1.0715798 1.0218821 0.98361576 18.5
1.0654814 1.1820396 0.93988311 21
1.0392524 0.27962193 1.1556389 7.5
1.0589043 0.17330031 1.2678812 6
1.0338988 0.410947 1.1515613 9
1.074437 0.099431738 1.4221236 4.5
1.0825067 0.21062607 1.4774379 6
1.1256595 1.0916135 1.4576157 17
1.0971155 1.1997637 1.4790312 18.5
-1.6371315 0.16660407 1.2989811 4.5
-1.5667768 0.21100393 1.4014777 5
-2.1343246 0.45361376 1.3367472 8
-1.8175075 0.3364459 1.2958742 7
-1.6790688 0.34663111 1.2812905 7.3333335
-1.5625541 0.32080302 1.3999835 7
-2.0537753 0.63319272 1.3356483 10
-1.8085546 0.59180039 1.3125836 11
-1.7165693 0.56508911 1.2964915 10
-1.5511832 0.52545547 1.4343803 10
-1.8184597 0.71187717 1.3159392 12
-1.7143577 0.71809632 1.3073585 12.5
-1.5778683 0.71645766 1.354795 13
-1.991203 0.93640465 1.3548855 14.5
-1.6067308 0.95539176 1.3256385 16.5
-1.5617703 0.93687749 1.3536015 16
-1.8964438 1.146271 1.3461994 17
-1.6349927 1.0751148 1.3124638 18
-1.5552289 1.1224111 1.3376656 18.5
1.1750183 1.1016493 1.9133211 15
-1.8127103 1.3142945 1.3496953 19.5
1.1697788 1.1967491 1.9107436 16
-2.2778995 0.5590331 1.3588828 9
-2.0896463 0.56886858 1.3517388 9
-2.5398438 0.77719849 1.3887199 10.5
-2.0867097 0.7277022 1.3536067 11.5
-2.83184 0.99087322 1.3922659 12
-2.5488207 0.96273404 1.4066588 12.5
-2.1596584 1.228026 1.4088432 17
-2.1330955 1.3353516 1.3804917 18.5
1.1495073 1.309293 2.0062647 17
-2.4660678 1.5004182 1.4686171 18
-1.8317479 1.5088698 1.4053987 21.5
1.1497927 1.4377469 1.9954516 18
1.164077 1.4921373 2.0266647 19
-2.8602109 0.81382161 1.4096203 10
-1.5388663 0.69723701 1.7814687 11
-2.8771963 0.92256391 1.4238898 11
-2.8809495 1.2264271 1.4347523 14
-2.8542862 1.4232285 1.4372536 16
-2.9663022 1.8072573 1.4685203 19
-2.926033 1.9682046 1.4487549 20
-3.3902483 2.1275764 1.4989668 20
-1.5350854 0.53740907 1.9136182 8.5
-1.4782957 1.461973 2.1744115 18.5
-1.464733 1.6299764 2.1151838 20
1.2196057 -0.13726668 3.6844256 1
1.1962259 -0.0030724034 3.6633012 2
1.2733377 0.14243321 3.6897209 4
1.2625127 0.4047406 3.7890213 6
-8.3489714 0.97085899 1.8741871 5
1.2664535 0.59302908 3.7801135 7.5
1.3147222 0.80406487 3.7508481 9
-8.3528519 1.3584384 1.8828546 6.5
1.315856 1.036427 3.7939589 10
1.3084447 1.180504 3.7852719 11
-8.2622004 1.7347324 1.8694922 8
-8.2940044 2.2399235 1.9065548 10
-8.3745642 2.3844106 1.9232336 11
1.3768063 2.1826878 3.8277767 18
1.3407865 2.4293351 3.7512505 19
1.3764672 2.5622098 3.7657316 20
-1.2201402 0.46868911 5.9581828 5
-1.1974882 0.75024736 5.91538 6
-1.2365881 0.78728187 5.9410915 7
1.4997222 1.1239015 12.24274 6
1.8370185 1.0601082 12.305945 6
1.7355375 1.6523489 12.345734 7
1.738924 1.9264094 12.291708 8
-0.69637513 0.12047932 12.35301 2
-0.41779587 0.65005398 12.442621 4
-0.58782935 0.92378753 12.492902 5
-0.38299105 1.3215625 12.474403 6
-0.55951977 1.4851239 12.457109 7
-1.8770803 0.3370645 -1.886279 6.4000001
0.85454106 0.32714391 -1.5583158 8.6000004
0.87365973 0.54227859 -1.5415289 12.454545
0.90905321 0.94996434 -1.4668664 19.142857
-2.8869693 0.45520926 -1.8144048 6.25
-2.3472512 0.35483927 -1.8517123 6
-2.0050449 0.33229372 -1.8723764 6
0.83993149 0.27944973 -1.1546431 8.875
-3.1737146 0.76007611 -1.7857862 9
-2.8185742 0.67559147 -1.8082739 8.8999996
-2.4200604 0.72735268 -1.8410074 10.6
-2.1893914 0.67302173 -1.8521919 10.333333
0.8721987 0.58024865 -1.1788585 14.375
0.88732207 0.49438792 -0.97383332 13.5
-2.4848239 1.2892714 -1.8199859 17
-2.0211794 1.2572196 -1.8616105 18.666666
0.90612149 0.95021182 -1.2021521 20.4
-3.1102383 1.647274 -1.7473508 18
-2.9245729 1.5619822 -1.7759535 17.5
-2.4247994 1.496718 -1.7954324 19.333334
-2.0609076 1.3784893 -1.837998 20
-3.0664129 1.7991297 -1.7292258 19.5
-1.7895501 0.09475781 -1.0679021 3
0.88964951 0.29172307 -0.7646488 9.5
0.90247738 0.53429753 -0.68304515 14.833333
0.90425837 0.80021673 -0.59360838 20.5
-3.4177058 0.15344664 -1.0036767 3
-2.0772932 0.12903143 -0.79764587 3
-1.8408495 0.1069926 -0.79914629 3
-1.6260732 0.12740341 -0.70723629 4
0.92839468 0.56751812 -0.31543931 15.714286
0.94889939 0.86313057 -0.21279538 21
-3.5977006 0.15443018 -0.91321671 3
-2.2538013 0.13159032 -0.40686181 3
-1.8739146 0.09536469 -0.49126574 3
-1.4945573 0.11491777 -0.42030621 4.5
0.94686186 0.28854197 0.09950465 9.375
0.95440209 0.55521679 0.087798089 14.769231
0.98460102 0.87915361 0.071078926 20.5
-1.9625005 0.093778104 -0.11222595 3
-1.2727302 0.078633875 0.26418111 4
0.98606813 0.21466754 0.38304618 7.5
1.0148166 0.21325865 0.57985914 6.8888888
0.96129763 0.50117618 0.41481063 12.833333
1.0342171 0.45066324 0.56150556 11.5
0.90774214 0.77260911 0.54392886 17.5
1.0880439 1.0952631 0.69483829 20.5
1.0728128 1.1738305 0.67363715 22
-1.6556592 0.038690783 0.58451629 2
0.63336182 -0.050304394 0.74959052 1
0.98608184 -0.051128309 0.92670953 1
-3.573921 0.13213077 0.056713909 2
-1.9910296 0.080947489 0.30273691 3
-1.5088719 0.064371496 0.35573187 3
-1.2195216 0.054753687 0.42227075 3
-0.94176817 0.046891123 0.6999917 3
-0.47797072 0.020652749 0.74622953 2
0.78455579 -0.039491717 0.82768691 1
1.0291798 0.15342546 0.89808214 5.5384617
1.0400066 0.43858066 0.88884342 10.4
1.0776109 0.9925074 0.90632153 18.272728
1.0579135 1.1730478 0.93024063 20.666666
-3.6843402 0.11146747 0.50940573 2
-1.9468307 0.04187011 0.71851242 2
-1.705361 0.026934013 0.77722573 2
-1.4035529 0.014004358 0.93061721 2
-0.91098541 0.0011701286 1.0350711 2
-0.47082189 -0.013408307 1.2114493 1
-0.22043404 -0.023204371 1.1116917 1
0.61032093 -0.066545069 1.1511358 1
-1.8246524 0.050301734 0.87624931 2
-0.91270566 0.021401528 0.93966866 2
-0.5895294 0.0078906724 1.0560362 1
-0.084436178 -0.010989107 1.1664889 1
1.0572094 0.17371261 1.3222677 5.6999998
1.0602093 0.41032222 1.3800038 8.666667
1.1175618 1.0877604 1.4828341 17
1.1131898 1.1972542 1.4715102 18.5
-5.2864723 0.12417538 0.61053967 2
-4.0057249 0.099720955 0.8522197 2
-2.0128291 0.052644685 1.115867 2
-1.3967731 0.0077752676 1.1304265 2
-1.0563594 -0.0090697128 1.2673875 2
0.84698892 -0.096885577 1.7147013 1
-2.561759 0.075040951 1.2418036 2
-2.1888039 0.26702151 1.2389826 5.5
-1.7355797 0.20684437 1.2648228 5.0833335
-1.5777022 0.29613262 1.3493758 6.5
-0.69073713 0.012423892 1.2946461 2
0.70380402 0.014246468 1.5791528 2
1.0305822 0.021975361 1.702984 2.6666667
-2.0876927 0.67395753 1.3411151 10.5
-1.6901374 0.70921838 1.3039628 12.571428
-1.5725434 0.6090914 1.3623749 11.2
-1.7442337 1.0402694 1.3317497 16.75
-1.5710224 0.97324866 1.343383 16.5
1.1651182 1.0971206 1.9304425 15
-2.0840547 1.401926 1.3461261 19
-1.8158687 1.4223738 1.3754091 20.5
1.1492858 1.3482431 1.8680428 18
1.1645209 1.2014573 1.9142119 16
1.1506844 1.5452784 1.973128 19
-5.3357244 0.13060242 0.85040152 2
-0.33712599 -0.02439684 2.0862577 1
-3.0331354 0.14083841 1.3192755 2.5
-2.6161432 0.2562407 1.367766 5
-2.335618 0.14736794 1.355602 3
-3.0350192 0.7915054 1.4195105 9.666667
-2.4770095 0.75548828 1.3810103 10.5
-2.2260997 0.66853261 1.3569189 10.2
-1.5464101 0.65087867 1.7906355 10.5
-2.9956958 0.97599143 1.4202433 11.5
-2.5337451 1.0456992 1.3984709 13.5
-2.1802793 0.99737424 1.3720738 14.285714
-2.4382608 1.5720699 1.435324 19
-2.1411662 1.3058857 1.3758855 18
-1.8307112 1.5202899 1.4075004 21.5
1.1618131 1.4152603 2.0105073 18
-2.9517398 1.9374211 1.4483997 20
-3.375288 2.1898365 1.4806378 20.5
-4.6290302 0.052410755 1.3812884 2
-4.3653708 0.085270271 1.4187392 2
-0.38797131 -0.040837351 2.311851 1
-1.5376627 0.56382674 1.9167353 9
-1.4890885 1.4686294 2.1701171 18.5
-1.4550523 1.6301059 2.1142859 20
-20.960012 3.2670796 -1.5334707 6
-0.56719929 -0.048927959 2.6342824 1
-0.71726418 -0.049986105 2.8530953 1
-0.10578188 -0.15272452 3.2492409 0
0.10924664 -0.15446775 3.3446443 0.5
-19.935518 0.70575672 -0.62248409 2
-20.005051 2.211062 -0.6398977 5
-20.000149 3.1371245 -0.64636385 6
-18.827438 3.1764047 -0.58550584 7
1.2037649 -0.14248765 3.6901753 1
1.2418382 0.068427458 3.7026403 3
-8.3454914 0.97071105 1.8461286 5
1.2892634 0.53614426 3.7564185 7
-8.3240004 1.3514782 1.8473269 6.5
1.299166 0.98094249 3.7958815 10
-8.3291521 1.7322922 1.8614317 8
1.2972513 1.1806176 3.7772887 11.5
-8.3025875 2.096987 1.8754877 9.5
-8.2857971 2.3877974 1.8684827 11
1.3847954 2.1773453 3.8101261 18
1.3699193 2.4884939 3.7672484 19.5
-1.3060541 -0.097451732 3.9528534 2
-1.3665268 0.267111 4.3065248 4
-1.3453133 0.78987563 4.2975221 8
-1.3520603 0.54829061 4.2857103 6
-1.3327581 0.9681977 4.2666545 9.5
-1.3128735 -0.02258224 5.8587718 1
-1.2445346 0.29371271 5.9372425 4
-1.2677052 0.7431615 5.9091353 6
-1.2379254 0.6104188 5.9263034 5.5
-1.2678784 0.84326953 5.9531174 7
-1.2310117 1.0377437 5.9425645 8
-1.2176285 1.3246971 5.9453826 9
0.56266689 -0.58020717 11.813132 0
1.1051092 -0.68529224 11.770003 0
1.6589613 -0.79963773 12.002675 0
1.7900059 1.0693254 12.272242 6
1.9402382 1.8805728 12.262328 8
-0.52029419 -0.71363676 12.116836 0
0.30543688 -0.5303812 12.039801 0
0.92401242 0.21175322 12.269634 2
1.4939587 0.023708437 12.28712 2
1.2024646 0.22102757 12.309207 2
1.5554519 1.1181432 12.338696 6
1.6791861 1.0956372 12.343593 6
1.5319886 1.6095548 12.383491 7
1.8293576 1.6029732 12.344587 7
1.4322991 1.8797004 12.411099 8
1.8190148 1.9155346 12.335111 8
-0.74151587 -0.81708211 12.207951 0
-0.62076735 -0.28467801 12.277223 1
-0.61474299 0.13706256 12.361577 2
-0.45811602 0.66045523 12.391526 4
-0.28705904 0.60375732 12.449096 4
-0.48667595 0.8829661 12.415868 5
-0.29819199 0.83920711 12.43174 5
-0.52692842 1.3081701 12.494918 6
-0.3001816 1.359717 12.446521 6
-0.5190537 1.484588 12.468429 7
-0.41978309 1.5820282 12.54355 7
-1.9172313 3.0124092 -5.4840436 19.011
-1.2438972 2.9956851 -5.015976 20.008499
-1.6442232 2.9508574 -4.952961 20.0105
-1.3009439 2.9607434 -4.8191648 20.759001
-0.94830763 2.9468787 -4.7850313 21.00725
-0.77281964 2.9596224 -4.569171 22.0065
-1.4357972 2.9755003 -4.4469452 22.010099
-1.0619162 2.9501507 -4.3466802 22.633188
-0.66849875 2.927633 -4.3409734 22.672668
-1.9281442 1.6053311 -4.0788116 14.3465
-1.8099453 3.0053599 -4.1838951 23.012501
-1.5728552 2.97332 -4.1314282 23.011332
-1.9597454 0.82671177 -3.5446644 9.0144997
-1.829906 0.69295895 -3.6059215 8.0135002
-1.9248998 0.94319284 -3.5622919 10.01425
-1.952894 1.3802301 -3.5564744 14.0145
-1.9323387 1.9635874 -3.5750167 18.0145
-1.7009075 1.8852612 -3.7084413 17.512751
-1.8809547 2.3897159 -3.6123266 21.014166
-1.59688 2.434145 -3.7607028 21.212099
-1.3683398 2.4422288 -3.6122365 22.011
-1.8947308 2.6363745 -3.6105933 22.51425
-1.774222 2.6153579 -3.5288675 23.01375
-1.8563756 0.70125633 -3.4887698 8.0139999
-1.9336047 1.3396207 -3.3538156 14.015
-1.8637223 1.6460892 -3.0887566 18.015499
-1.84885 1.8604745 -3.2266724 19.014999
-1.9036696 0.72130841 -2.9079156 9.2662497
-1.9051596 1.0227866 -2.8703339 12.5165
-1.8634838 1.3765494 -2.7445009 16.51675
-1.8808873 1.9971125 -2.9958491 21.016001
-1.8560076 2.1910791 -2.9686344 22.016001
0.83316147 0.31067806 -1.8223956 8.1315002
-1.808 0.65027767 -2.4505503 9.6842499
0.84778607 0.51509464 -1.7985947 11.131286
-1.819217 1.2100173 -2.3549724 16.51825
-1.7893411 1.4610044 -2.4267964 19.017714
0.87047887 1.5111488 -1.961193 23.132666
-1.8276155 1.7916594 -2.4385958 22.018
-1.7794356 0.43706611 -2.1431987 8.0190001
-1.7828759 0.46193492 -1.9238681 8.3538332
0.85047626 0.3325493 -1.5346837 8.9065552
-1.8475795 0.66560262 -1.9743582 11.22075
0.86845803 0.57872593 -1.5658243 13.184583
-1.8173383 1.1591586 -1.9857887 17.87768
0.90409613 0.98465681 -1.5167156 19.448441
-1.8063354 1.4844155 -1.9670593 21.520641
-1.7120209 1.3311754 -2.0049124 20.019501
0.95016897 1.2436559 -1.353743 23.126499
-1.8931313 0.44371477 -1.8259472 8.3555002
-0.64338279 0.37470415 -1.331153 13.0085
0.82936168 0.28120643 -1.1377492 9.0334997
0.87837315 0.31785226 -0.95867479 9.7883329
-3.1002645 0.86253965 -1.8011103 10.029
-2.6828327 0.78944832 -1.8145636 10.693833
-2.3507268 0.69934654 -1.8342952 10.409883
-2.0213091 0.68624908 -1.8531694 11.300722
-0.65394121 0.55390638 -1.2303685 20.009501
0.8665725 0.60778165 -1.1394751 15.232377
0.88825381 0.69693118 -0.9851377 17.3221
-3.485949 1.2023224 -1.7696183 12.0305
-3.1408794 1.2136177 -1.7496482 14.0295
-2.7749434 1.1221616 -1.7920849 14.3135
-2.4120948 1.1108989 -1.822547 15.425749
-2.0232315 0.9857415 -1.8526927 15.523
0.9060905 0.95274967 -1.176523 20.574602
0.91733062 0.99599606 -1.009761 21.836643
-3.1759863 1.6253637 -1.7432919 17.029665
-2.7587795 1.5315751 -1.7880486 18.15275
-2.3593519 1.4861751 -1.8120281 19.625566
-1.9598 1.5185369 -1.847003 21.822699
0.94740176 1.1993678 -1.2669429 23.1255
-3.2409892 1.9468743 -1.7324742 19.530001
-2.6984744 1.8722416 -1.7700924 21.527626
-2.396548 1.8430518 -1.8065885 22.359167
0.83313704 0.296933 -0.83316445 10.12
0.87613845 0.28709516 -0.6852231 9.7841053
-4.403686 0.93043721 -1.6869646 8.033
-3.6345983 0.76907557 -1.7398701 8.3643332
-3.4044538 0.71312159 -1.7255598 8.0305004
-0.66812378 0.59918249 -1.2118442 21.01
0.82464898 0.58391309 -0.77670687 16.119251
0.89238095 0.57706016 -0.7343685 15.832532
-4.8405175 1.341524 -1.6243038 11.034
-4.3577738 1.2895279 -1.6650115 11.033
-4.1233153 1.2389711 -1.6819642 11.0325
-3.5614269 1.2893782 -1.7135729 13.031
0.85394204 0.90967017 -0.90591097 22.12125
0.90768504 0.8870396 -0.718364 21.529797
-3.9329548 1.7003956 -1.7075938 15.032
-3.5006201 1.5470716 -1.7244767 15.53075
-4.9193707 2.0086875 -1.6395013 15.034
-4.3430443 1.8521514 -1.6645151 15.533001
-3.9104981 1.934902 -1.688684 17.032
-3.6758573 1.9054 -1.7112273 17.698
-3.3782182 1.8662022 -1.7177764 18.5305
-4.3234587 2.2130144 -1.6571659 18.033001
-3.6142819 2.378655 -1.6910979 21.364668
-3.3696649 2.2078161 -1.7146205 21.0305
-4.3893228 2.996762 -1.5793419 21.533501
0.9011445 0.29523826 -0.3199712 10.111346
0.90851653 0.56705499 -0.33841631 15.897437
0.93180621 0.91099817 -0.31398663 22.198349
-5.4816813 3.007174 -1.4326829 19.0355
-4.882319 2.8953874 -1.5642394 20.03425
-4.0848551 2.9518955 -1.1390698 23.0355
-7.8289223 3.1002183 -1.774253 14.036
-4.8348522 3.0018618 -1.4221129 20.634899
-4.5407434 2.9925985 -1.3088008 21.785126
-4.1603136 2.981441 -1.2709591 23.034874
0.92144191 0.26689762 0.06804058 9.1766424
0.93575692 0.57741737 0.090427548 15.492724
0.98163247 0.91049367 0.11259407 20.892759
-8.0976467 3.0795043 -1.5593071 13.53675
-7.4644537 3.0148952 -1.3741738 14.037
-6.5257354 2.9516795 -1.3227737 16.036751
-6.111937 3.0085304 -1.2485492 17.036749
-5.8469725 3.0001733 -1.1865395 18.036833
-5.308681 2.9709871 -1.124871 19.036751
-4.6547542 2.974946 -1.1651243 21.035999
-4.9334288 2.9912932 -0.95378041 20.4373
-4.5206337 2.994132 -0.94984615 21.912001
-4.2864623 3.0001945 -0.88684952 23.037169
0.88382602 0.26788893 0.43586221 8.8498755
1.0255487 0.32051104 0.55757535 8.8994999
0.92005026 0.56633025 0.42979982 14.41275
1.0398047 0.47252131 0.57346523 11.917591
0.9177618 0.89684731 0.41143027 20.100454
1.0672958 1.0268755 0.60776508 20.22419
1.0722295 1.203074 0.54312384 22.699902
-8.5533552 3.0860057 -1.2763402 13.03775
-8.0299606 3.0018003 -1.1171418 14.038
-7.3345823 3.0214946 -1.1008917 14.787874
-6.4775724 2.9414282 -0.9017489 16.03825
-6.3295493 2.9424257 -0.82322621 16.5385
-5.7655549 2.9913311 -0.77842307 18.0385
-5.4798398 2.9801905 -0.64375162 19.039
-4.9567885 2.9641621 -0.61051309 20.539
-6.3142395 3.0411954 -0.95872295 17.038
-5.2407193 2.9970016 -0.83510816 20.038
-4.6183314 2.9776785 -0.5364424 21.639301
-4.3175244 2.9644589 -0.46840099 22.789625
1.0319995 0.31398603 0.92399633 8.5959997
0.87850106 0.59834921 0.86640334 13.59525
1.0565066 0.55891007 0.93290508 12.18298
0.88712811 1.075906 1.0242499 20.09375
1.0726907 0.96586525 0.92731822 17.938238
1.0770663 1.2736412 0.96115911 21.629169
-10.814583 3.1104162 -1.1917371 11.0385
-10.484968 3.0983975 -1.3757598 11.038
-9.3381786 3.0458479 -1.0563546 12.0385
-9.0975704 3.0880592 -0.95079398 12.53875
-8.105855 3.0302615 -0.8478595 13.705501
-7.25138 2.9983501 -0.73502672 15.039
-7.1232977 2.9711549 -0.51832235 15.03975
-6.2549796 2.9742131 -0.47038546 16.789875
-5.476727 2.9676099 -0.31124899 18.8405
-5.0285239 2.9670501 -0.4063814 20.040001
-4.6399331 2.9435382 -0.036993831 21.042
-5.1176777 3.0059822 -0.22977313 20.290874
-4.744348 2.969924 -0.2189872 21.041
-4.3237882 2.9742844 -0.1049408 23.041752
0.96996975 0.300744 1.1656526 8.0935001
1.0590087 0.5924114 1.3174733 11.7931
1.066494 0.96483833 1.3114101 16.468124
1.0949047 1.3304833 1.2931405 20.718376
1.0918323 1.6039672 1.4115543 22.759165
-12.435322 3.0148048 -1.0427964 9.0389996
-10.641853 3.0149822 -0.81823003 11.039249
-9.1050768 3.0189383 -0.5683049 12.03975
-8.4002476 3.027668 -0.4569405 13.04
-7.9358091 3.0138223 -0.37444529 14.04025
-7.7172976 2.9739943 -0.13173935 14.041
-6.9858546 2.9658389 -0.15557262 15.041
-6.6134944 3.0064411 -0.09104082 16.04125
-6.1397099 2.9669361 -0.11317322 17.04125
-6.1034536 2.9606292 0.076043278 17.042
-5.406961 2.9758153 0.13615182 19.0425
-5.1367607 2.9403284 0.12628171 19.842602
-4.7625937 2.9416845 0.28500512 21.043598
-4.4570508 2.9284949 0.28081211 22.043833
-4.4747109 2.9524972 0.31954905 22.044001
-1.7601525 0.39590919 1.2836452 8.0611677
-2.0148776 0.69542044 1.3505472 11.0595
-1.7724534 0.63520426 1.3054451 11.436125
-1.5687723 0.72489995 1.3595284 13.06325
1.0686579 0.5586158 1.698661 10.202
-2.0007808 1.0385176 1.3509576 15.5595
-1.8093195 1.0370229 1.3358946 16.413824
-1.5509542 0.9467119 1.3887926 16.063499
1.1400635 1.0088845 1.7543448 14.891001
-2.0215964 1.354265 1.3569895 19.05925
-1.7332814 1.4446739 1.3681628 21.132999
-1.5464485 1.2550551 1.3680704 20.06325
1.1283336 1.3545141 1.8086895 18.363316
-1.8521307 1.6535597 1.3671486 23.060499
0.78592813 1.6075461 1.5988884 23.089001
1.1565907 1.7236489 1.8063918 21.924082
-10.250579 3.0196877 -0.26397046 11.0405
-9.2216949 3.0392308 -0.2842283 12.0405
-8.6516876 3.0272968 -0.11113068 13.041
-7.6976933 3.0046582 0.019703537 14.0415
-7.3116722 2.9490733 0.31005099 15.0425
-6.7922053 2.9741306 0.23194626 15.792375
-6.0173163 2.9563785 0.38709101 17.243299
-5.6886497 2.9473989 0.62890255 18.0445
-4.8028822 2.9321644 0.60611248 20.245199
-4.603426 2.9201169 0.7217443 21.046
-4.1297984 2.9257767 0.72605407 23.046749
-5.7569876 3.0090499 0.40655658 18.043499
-4.3212667 2.950458 0.55518579 22.0455
-3.9520342 2.9396403 0.93954992 23.04825
-3.0414803 0.73514247 1.4174169 9.0542507
-2.6468623 0.62843728 1.390448 8.8558998
-2.2341249 0.60506338 1.3649248 9.5581245
-1.555172 0.56449175 1.648672 9.9649506
1.0866516 0.65899467 2.0069311 11.0895
1.1411984 0.56269938 2.0985897 9.2895002
-3.3982613 1.0582728 1.4475492 11.303
-3.0703905 1.0866995 1.4311062 12.2541
-2.5890882 1.0760287 1.4079096 13.722889
-2.2056968 1.095722 1.3746086 15.502666
-1.8157611 1.1962284 1.4155143 18.061251
-1.5366518 1.0248491 1.7045699 15.665199
1.0970235 0.95892549 2.1318562 13.089
1.1457591 0.97702831 2.1365287 13.689301
-3.28263 1.4478669 1.449954 14.72
-3.0321736 1.3789014 1.4529536 15.387668
-2.5994098 1.4794509 1.4516208 17.556313
-2.1713121 1.4868464 1.4023869 19.5585
-1.8090122 1.5078063 1.5069522 20.811749
-1.5376939 1.3723994 1.6678463 19.731556
0.8887651 1.3436743 1.9924918 18.087999
1.1647 1.3426523 2.0904453 17.0895
-3.2820964 1.9347415 1.4985886 18.553499
-2.8765843 1.7466385 1.4471589 18.804874
-2.5718694 1.8038293 1.4222503 20.6562
-2.1461413 1.7913361 1.3988074 22.558584
-1.761539 1.7121265 1.6304919 22.395998
-1.5809779 1.6700943 1.7361366 22.064751
1.1673237 1.7526076 1.9792281 21.09
1.187198 1.7570348 2.1968205 20.089167
-3.2772689 2.3826046 1.5070204 22.053499
-3.0347183 2.2805116 1.4770912 22.054251
1.097996 2.117135 2.2039692 23.088499
-13.784884 3.0322855 -0.84958279 9.0395002
-11.223292 3.0645585 -0.26450869 10.0405
-9.9612474 3.0079813 0.038566262 11.04125
-9.1058998 3.0538526 0.11145356 12.0415
-8.8690672 3.0286191 0.17274693 13.04175
-7.9161186 2.9761622 0.36747161 14.0425
-7.6771035 2.9719381 0.59055781 14.04325
-7.1766634 2.93855 0.4501715 15.043
-6.934207 2.987711 0.62403405 15.377
-6.460227 2.9362059 0.76998913 16.0445
-6.0660634 2.9725292 0.8274684 17.045
-5.5595508 2.9310539 0.78431284 18.04525
-5.3721819 2.9248242 1.0366722 18.379831
-4.4694796 2.9129598 1.0601313 21.333645
-4.1654406 2.9156404 1.1614629 22.049002
-3.8552535 2.8947115 1.3044797 23.050501
-5.0119929 2.9701688 0.93464959 20.046499
-4.1068635 2.9302247 1.2299894 22.5495
-4.1794267 0.80376953 1.5007232 8.0509996
-1.8111303 0.53107399 1.9999439 8.5644999
-1.5322475 0.56333184 2.0854962 8.9557772
-4.3651943 1.0151676 1.3926009 9.0500002
-3.870096 0.96046329 1.4868811 9.0517502
-1.5029789 1.0522389 2.05948 14.816875
-4.174119 1.4903638 1.4201299 13.0505
-3.7749083 1.4432321 1.4942416 13.052
-3.5501621 1.480634 1.5160147 14.05275
-1.4911795 1.3528278 2.0636327 17.866899
1.2981262 1.4048283 2.7143314 15.088
-3.9501491 1.9988863 1.5382406 16.801624
-3.473527 1.8488004 1.5197037 17.052999
-1.4696013 1.7818165 1.9423343 22.0665
1.2904267 1.7175926 2.694308 18.087999
-4.2256718 2.2031088 1.5708131 17.051001
-14.853358 3.0289042 -0.58435524 8.04
-12.838783 2.9887815 -0.26256976 9.0404997
-12.387202 2.9699121 0.019123942 9.0410004
-11.763192 2.9815347 0.23060742 9.5415001
-11.425319 3.0404739 -0.018119425 10.041
-9.6786184 2.9969068 0.32534495 12.042
-9.4188223 2.9913142 0.6113838 12.042749
-8.3188686 2.9618647 0.59490049 13.043
-8.1409073 2.9479077 0.72382295 13.0435
-7.3565998 2.9312208 0.78839183 14.044
-6.9814506 2.9759111 1.0164924 15.045001
-6.5714188 2.9050558 1.2253867 16.046
-6.1630759 2.927727 1.1483216 16.546125
-5.8866715 2.9207711 1.3714362 17.047251
-5.2317653 2.9211299 1.2162462 19.047501
-5.0102549 2.9082994 1.4367965 19.04875
-4.2181988 2.9035254 1.4768733 21.383835
-3.7451041 2.5543888 1.5160583 21.052
-3.5878985 2.6292779 1.5291908 22.0525
-3.7168672 2.9119661 1.5182194 23.052
-1.4956028 0.63028443 2.3600712 9.0679998
1.2758975 0.55467635 3.0754771 8.0869999
-1.4759977 1.0530715 2.3305266 14.068
1.2172511 0.80182523 3.1170228 10.0865
-1.4865009 1.5090816 2.3621161 18.067833
1.0511589 1.3895825 2.9153917 15.086
-1.639637 1.8712237 2.3163347 21.0665
1.3212594 1.7289741 3.0407038 17.087166
-1.455798 2.0824251 2.5896068 22.068501
1.3351109 1.9844354 3.0189738 19.08725
-12.649773 3.033654 0.53481019 9.0419998
-11.683389 2.9781902 0.60301125 10.04225
-10.660306 2.9856708 0.74339342 11.042749
-9.238575 3.0080948 0.89409697 12.0435
-8.9259472 2.971 1.128309 12.04425
-7.6164632 2.933183 1.1601002 14.045
-7.4066768 2.9768925 1.4303297 14.046
-7.1832933 2.9854686 1.3677775 15.046
-6.6963539 2.9210424 1.4682481 15.04675
-6.2461338 2.9321756 1.5582289 16.047501
-5.7130985 2.9124169 1.5106312 17.048
1.1669352 2.5852334 3.1198869 22.585999
1.2634046 1.1045226 3.4430809 12.086
-8.6814928 2.0380583 1.3602388 9.0450001
-1.3919032 1.9851395 2.8435674 20.0695
1.3495977 2.0360222 3.3428907 18.0865
-13.135388 3.0660388 0.85332024 9.0424995
-11.065408 2.9612019 1.154626 10.0435
-10.297992 2.9629412 1.1368245 11.04375
-10.065448 2.9552991 1.4340997 11.0445
-8.6724787 2.9515865 1.3726939 12.045
-7.3489962 2.9728067 1.7310334 14.047
-6.8300962 2.9592154 1.736117 15.0475
0.0020845234 2.6845922 3.2904706 23.078751
0.39784059 2.679414 3.432862 23.080999
0.84131229 2.6408541 3.3108912 22.58375
1.2974461 2.6020555 3.4731114 21.419167
1.3520198 2.4772916 3.5437202 20.086
1.2987921 0.86004144 3.7669075 9.5855007
1.168448 1.3812419 3.945224 13.0845
1.2881153 1.2498379 3.8189991 12.08525
1.3572081 1.6907942 3.8151386 15.0855
1.3613064 1.954617 3.7605121 16.752335
-12.400207 2.9892526 1.1905743 9.0432501
-10.599723 2.9431007 1.5202456 10.0445
-10.374296 2.9351974 1.7086095 11.045
-1.2886639 2.7482271 3.4261525 22.737585
-0.95728898 2.7191386 3.4211898 22.822876
-0.53482032 2.6935825 3.547998 22.519888
-0.18341836 2.7428446 3.530144 23.077499
0.37036994 2.6690769 3.6466839 21.580624
0.68093371 2.6348588 3.7410161 21.248835
1.0350343 2.6248424 3.799804 20.639442
1.3270314 2.628402 3.961817 20.084999
0.22605249 2.7681053 3.4349606 23.08
1.8895767 2.9556875 3.9058058 21.0875
-15.310042 2.9467578 1.0817686 8.0424995
-12.770393 2.9988983 1.6683379 9.0439997
-10.704531 2.9926183 1.7808293 10.045
-10.176262 2.9342968 1.9113902 11.0455
-1.3725572 2.7134478 3.735019 21.320875
-0.97446185 2.7063162 3.7668669 21.573063
-0.59309661 2.6618798 4.0437202 20.325251
-0.14648017 2.651845 4.0053968 20.910915
0.14789805 2.6467845 4.0229855 20.479099
0.5833329 2.6039279 3.9766424 20.331375
1.0250952 2.5762157 4.1756277 19.08325
1.2437601 2.5893986 4.0591917 19.084499
1.8695147 2.8219037 4.2462096 19.58675
-1.2885518 1.553719 4.1497245 13.072
-1.2984997 1.7948697 4.2486954 14.572
-11.256548 2.6115935 2.1305654 9.0454998
-1.2941167 2.1518092 4.2953377 16.572001
1.3750237 2.1928735 4.7509713 15.584
-15.475957 2.9633865 1.4149526 8.0430002
-14.111303 2.9651573 1.569487 8.0434999
-12.84119 2.9883053 1.9645134 9.0445004
-1.0996954 2.6816409 4.1989121 20.07275
-0.71147108 2.6574156 4.2312703 19.741333
-0.28689256 2.6350956 4.2863789 19.7435
0.11530712 2.6009192 4.3955402 19.078751
0.52723575 2.6172485 4.4960279 18.8806
0.82022119 2.5778213 4.5274496 18.481899
1.2392759 2.5446684 4.6801372 18.0835
-14.108504 2.9581978 2.0088086 8.0442505
-1.1425169 2.6300454 4.546885 18.472799
-0.71845794 2.6326096 4.6579332 18.674801
-0.29411331 2.6022558 4.6299896 18.57675
0.0638282 2.5991035 4.8955898 17.8783
0.34055319 2.5736763 4.8523231 17.746168
0.88430691 2.5229471 5.0470376 16.831625
1.2243408 2.5114884 5.0292139 16.683002
-1.1940715 2.1148031 5.0640268 15.073
-0.82911789 2.067559 5.0043349 14.5745
-1.1099315 2.641551 5.02981 17.07325
-0.80990982 2.6409743 4.9929271 17.741167
-0.34517238 2.5853667 5.2228808 17.0765
-0.040899366 2.5935149 5.1152153 17.077749
0.37934187 2.4999375 5.3342762 16.41275
0.7257725 2.45344 5.1950865 16.330873
1.3856578 2.4994185 5.5803275 16.083
-1.5679375 2.6249344 5.1513996 17.071501
-1.2185647 2.6333935 5.3672037 16.406334
-0.87443101 2.6311266 5.5069556 16.4744
-0.50492418 2.5696483 5.5255828 16.325874
-0.083934516 2.5491378 5.549921 16.077499
0.32393482 2.5026786 5.7852736 15.079
0.77304316 2.4760625 5.9459124 15.0805
1.0271207 2.4850645 5.8104157 15.0815
1.3766352 2.4437463 6.0717964 14.5825
-1.1983578 1.881362 5.9319034 12.0735
-1.179826 2.2573373 5.9058428 14.0735
-1.4421921 2.5823169 5.9037814 15.0725
-1.0877061 2.5670669 5.9133186 15.07375
-0.19805452 2.5069063 6.0601749 15.077
0.24340895 2.5114791 6.2706332 15.0785
0.57879508 2.4849937 6.0556707 15.07975
1.2762089 2.4472044 6.1951485 14.082
-1.2061993 1.7386624 6.0346236 11.0735
-0.59519458 2.5383022 6.4000278 14.575625
-0.27218029 2.5034366 6.4276814 14.07675
0.10878482 2.4993916 6.445405 14.411334
0.56911516 2.4770954 6.4942288 14.079501
0.95835495 2.4411356 6.5817471 14.08075
1.2015179 2.4447763 6.5601659 14.0815
-0.64446795 2.5214074 6.6046915 14.0755
0.14364329 2.5234206 6.9154701 14.078
1.1199483 2.4436841 6.9617367 13.081
0.33932152 2.4505184 7.355279 13.0785
0.77017772 2.4499478 7.3519998 13.07975
1.0839202 2.4275429 7.6261826 12.0805
-0.82775509 2.5137382 7.3029971 13.075
-0.51791024 2.4814844 7.7062654 13.076
-0.068677872 2.4123816 7.6841526 12.07725
1.3025479 2.4104843 7.7923107 12.081
1.5382335 2.3924999 7.9912672 12.0815
-0.53258681 2.4341774 8.0912113 12.076
-0.32063732 2.4227366 7.9028673 12.0765
-0.88636565 2.4523759 8.2822838 12.075
-0.6975255 2.4439065 8.2226076 12.0755
1.2559061 2.278466 9.1326895 10.58025
1.5214643 2.2869234 8.9736767 11.081
1.2008029 1.6018543 9.6365461 8.0799999
0.54094446 2.2473798 9.5598555 10.0785
0.85241127 2.2633636 9.3708067 10.07925
0.3581132 2.2753208 9.8722935 10.078
-0.074675053 2.2497187 10.180586 10.077
0.13945523 2.267983 10.079968 10.0775
-0.30869004 2.2332077 10.388154 9.0764999
-0.55279028 2.2479668 10.741154 9.0760002
0.77507257 2.0888062 12.044298 8.0784998
0.50308013 2.1803613 12.097519 8.0780001
-1.6906163 1.569838 -2.6945231 17
-1.6833595 1.3553083 -2.4978144 16
-1.6777555 1.4920237 -2.4001274 18
-1.667291 1.5838406 -2.326438 19
-1.7063469 0.29890463 -2.0916562 6
-1.7229682 1.1973143 -2.0626845 16
-1.7191346 1.321811 -2.0491107 17.5
-1.7107427 1.444391 -2.0160897 19
-1.7000839 0.24429731 -1.8555735 5.5
-1.706192 0.39100927 -1.6357902 8
-1.7100594 0.55152535 -1.7591377 9.5
-1.7022358 0.63642967 -1.7330823 11
-1.7009457 0.97280687 -1.6142228 15
-1.7087117 1.0899462 -1.718789 16.5
-1.6990887 1.2933173 -1.6722564 18.5
-1.699787 0.57098395 -1.5622816 10
-1.721938 0.78468907 -1.5060674 13
-1.7150189 0.91709363 -1.505784 15
-1.7211226 1.1088194 -1.4922988 17
-1.7019991 1.296605 -1.5452421 19
-1.67895 1.413353 -1.523118 21
-1.6945432 0.74642193 -1.2305373 13.5
-1.7213334 0.86106896 -1.2085619 15
-1.692041 1.1714331 -1.2948581 19
-1.7015883 0.18937075 -1.1628135 5
-1.6914449 0.29397309 -1.1122682 7.1666665
-1.6765852 0.45602444 -1.0922413 10
-1.6931665 0.61904001 -1.1055398 12
-1.6678607 1.348954 -1.1512554 21.5
-1.7129854 0.11837117 -0.97236449 4.5
-1.7301176 0.34665272 -0.98770273 8
-1.7282131 0.52005017 -0.87873465 11
-1.6851002 0.67820609 -0.96851784 13.5
-1.6954999 0.89345312 -0.96295637 16.5
-1.6894823 1.1051209 -0.92370665 19.5
-1.6866174 1.290592 -0.89871484 22
-1.7540904 0.29382786 -0.71717995 7
-1.7740945 0.55781651 -0.62081647 12
-1.7957953 0.72562516 -0.61141193 14
-1.799546 0.8441233 -0.65684187 16
-1.7371507 1.0910985 -0.67092758 19.75
-1.7243733 1.2325923 -0.69050187 22
-1.7118367 0.1195892 -0.45603919 4.6666665
-1.68764 0.32067949 -0.49023476 8.5
-1.7422429 0.67204618 -0.52089173 14
-1.7517807 0.91388392 -0.4769201 18
-1.7026516 1.0082192 -0.46744534 19
-1.6795832 0.37950024 -0.31660676 10
-1.6861366 0.50221717 -0.34642491 11.5
0.90708399 0.41571382 -0.29944703 16
-1.7475498 0.75490648 -0.34904769 15.5
-1.7461604 0.88428301 -0.24003688 17.5
-1.7092564 1.0382512 -0.26783174 20.333334
0.92080277 0.39465347 -0.13502763 16
0.89962196 0.46756095 -0.10898425 18
-1.6807779 0.60536373 -0.00051603018 14
-1.7238123 1.1013693 -0.14465216 21.5
-1.6910049 -0.0061281323 0.094633281 2
-1.6811194 0.13598588 0.056320071 5
0.92132354 0.37033758 0.12930509 15
0.91424328 0.53177065 0.08656764 19.799999
-1.710247 0.70748216 0.031929843 15.5
-1.7079954 1.099194 0.14124684 21.5
-1.7196765 0.15459231 0.34151506 5.5
0.91355139 0.34009904 0.22928894 13.5
0.94585335 0.48687047 0.38606039 17
-1.7071711 0.92487442 0.34126723 18.5
-1.7045131 1.0790281 0.30048394 21
-1.7107953 0.081804156 0.48534331 4
-1.6923102 0.25549084 0.59066683 7
0.92340249 0.33919221 0.47151679 13
-1.697678 0.53636104 0.43033653 12
0.91254985 0.47063103 0.46760869 16.6
-1.7673666 1.1392088 0.44495398 21
-1.6870353 0.37970352 0.74996567 9
0.92565018 0.34198812 0.70333099 12
0.90856701 0.51190168 0.6618765 16.333334
-1.7163359 0.75111437 0.739896 15
0.90856582 0.63232368 0.61783385 19.5
-1.7108541 0.89981085 0.72004938 17.5
-1.7037914 1.0720105 0.73311329 19.75
0.91090959 0.37613845 0.84409785 12
0.9079392 0.41435462 0.83857524 13
0.93749619 1.0609858 1.5709962 19.5
-4.2770081 2.6789048 3.5421734 17
-4.1259456 2.6847737 3.4662695 18
-4.1748505 2.5310075 3.6797142 16
-3.8490477 2.5042722 3.7962434 17
-3.7756987 2.6756415 3.7492716 18
-2.3555536 0.11431192 3.9461517 3.5
-1.8703365 0.02585271 3.93765 3
-4.0746312 0.28372923 3.9716594 4
-3.8940229 0.37221989 3.9947164 5
-3.4433684 0.34306255 3.9897952 5
-1.8541771 0.25942087 3.9909704 4
-5.603106 0.54322904 3.9647832 5
-4.7111483 0.40411758 3.9280343 5
-4.2885027 0.44121459 3.9743187 5
-3.5992758 0.55966318 3.9776495 6
-2.6809037 0.49810952 3.9797041 6
-2.1582401 0.59188926 3.9897316 7
-4.753655 0.60822934 3.9699492 6
-4.3976917 0.63705951 3.9770706 6
-1.7480156 0.65147239 3.9694788 7
-5.5066481 0.81097853 3.9023321 6
-5.1182556 0.84450108 3.9441442 7
-3.9742098 0.89534998 3.9134085 8
-1.8378093 0.97965723 3.9225647 10
-6.0464664 1.1458287 3.977833 8
-5.3230991 1.0958641 3.9499936 8
-4.7232866 1.135591 3.9651031 8.5
-4.4978328 1.1234124 3.9390571 8
-3.8378477 1.1633906 3.9526837 9
-2.3613465 1.0658782 3.9353878 9.5
-3.9812827 1.3276763 3.8860557 10
-3.05038 1.3853903 3.9243515 11
-2.8711298 1.2004445 3.9334776 10
-2.625901 1.2129557 3.9695435 11
-2.3700607 1.2224408 3.9385312 11
-4.4936805 1.494458 3.9091158 10
-3.7883301 1.4460342 3.9413798 11
-3.5247777 1.5886486 3.9583745 12
-5.8686562 1.6489685 4.0024529 10
-3.7940516 1.7150857 3.946722 12
-5.8039622 2.2762916 3.9373493 13
-4.9429917 2.2502604 3.9673474 14
-3.8473091 2.5087578 3.9389639 16
-6.3518925 2.6394489 3.9441013 14
-5.6080618 2.6324065 3.900569 14
-3.0375323 2.6727605 3.9722846 19
-3.4399312 0.30231899 4.0088143 4
-2.9733114 0.25074196 4.04814 4
-2.2834492 0.57330668 4.0055833 6
-1.8764067 0.41973513 4.0375118 5.5
-1.7052304 0.46190777 4.032094 6
-4.0874367 0.66523981 4.0129824 6
-2.7118597 0.7593106 4.0122576 7
-2.3780808 0.79623485 4.0466604 8
-1.7816613 0.70193243 4.020483 8
-3.1030378 0.99399358 4.0052605 9
-2.8823454 0.93151921 4.029294 8.5
-1.7637967 0.8460719 4.007246 9
-3.5914392 1.1210806 4.0067353 9
-3.4448481 1.2788634 4.0102735 10
-2.9218261 1.6518857 4.0755944 13
-5.0276232 1.9487627 4.0372252 12
-3.7172329 1.8520358 4.0362206 13
-3.3722219 1.8617556 4.0341749 14
-3.1023214 1.8509495 4.0795069 14
-2.6425712 1.854485 4.0476975 14
-2.4816487 1.8616247 4.0506883 15
-2.0090885 1.9383711 4.078115 15.5
-1.7408826 1.9902556 4.0837274 16
-5.9062099 2.0752175 4.0174961 11.5
-5.0227237 2.0897317 4.0388217 13
-4.0053439 2.1586094 4.0615096 14
-3.3215437 2.0257139 4.0485287 15
-2.5279357 2.1718016 4.0292368 16
-1.7704046 2.1113198 4.0750794 17
-3.9803014 2.2816784 4.0362167 15
-3.3188879 2.203774 4.0363345 16
-2.911927 2.377115 4.1561728 17
-2.4824986 2.2407222 4.0647817 17
-1.7292272 2.210758 4.0011115 18
-3.0600121 2.5175812 4.0783043 17.5
-5.1191645 2.6648664 4.0088682 15
-3.5627141 2.6384575 4.0655928 17
-2.5883267 2.6529028 4.0053205 19
-2.1725261 2.6538506 4.0283518 20
-1.3244345 0.447429 15.085958 3
-1.6767749 1.3636259 -2.4508922 16.5
-1.6834289 0.26441479 -2.0807648 5.5
-1.6908187 1.3877665 -2.2163975 17.5
-1.6934232 0.31684107 -1.7578335 6.5999999
-1.7137729 0.57362461 -1.6353551 10
-1.7096779 1.0772086 -1.6351728 16.5
-1.7011437 1.2825446 -1.6473382 18.5
-1.7006334 0.39883998 -1.5791864 8
-1.7030772 0.63806808 -1.4504873 11.5
-1.7087542 1.0056661 -1.4332836 16.454546
-1.6960528 1.3200111 -1.4370942 19.875
-1.7079071 0.24851403 -1.0130849 6.4545455
-1.7111144 0.60617131 -0.99389094 12
-1.7194725 1.0052873 -0.94900137 17.90909
-1.6899353 1.2748713 -1.0227118 21.200001
-1.720364 0.21029888 -0.56629777 6.1999998
-1.5809977 0.035089284 -0.6567297 3
-1.1063287 0.059222907 -0.43118376 4
-1.7600421 0.65294397 -0.57632345 13.6
-1.7471867 0.98961151 -0.64763486 18.299999
-1.7113744 1.2111015 -0.75384742 21.5
-1.7082297 0.23169854 -0.2672253 6.7857141
-1.2598677 0.047938824 -0.19516027 4
-1.0675218 0.057397008 -0.15390329 4
0.92147827 0.39155373 -0.070093483 16
-1.7162919 0.58312774 -0.20268348 13
0.91472059 0.49961144 -0.2144839 18.200001
-1.7409154 0.96044064 -0.18196665 18.888889
-1.6688373 -0.01166445 0.11170929 2
-1.512736 -0.0082977414 0.20239048 2
-1.7016035 0.21731877 0.21813533 6.5384617
-1.3511282 0.016261339 0.089762256 3
-1.0330213 0.04131509 0.22721097 3.6666667
0.91550082 0.37393066 0.2354203 14.833333
-1.7167854 0.59210396 0.1686953 13.071428
0.91737115 0.48518047 0.22001353 17.818182
-1.7313315 0.96731883 0.20300584 18.916666
-1.6716418 -0.0016894341 0.56924522 2
-1.6950672 0.22211899 0.58023441 6.5
-0.84019274 0.044409692 0.56402081 4
0.91867733 0.34743282 0.55530423 12.857142
-1.7030979 0.60470539 0.58636338 13
0.90688336 0.52321237 0.56594419 17.333334
-1.7173836 0.98643142 0.57945436 18.785715
-0.60862833 -0.0029643774 1.1698537 2
-1.4094961 0.011754457 0.99549401 2.5
-1.0633867 0.006492272 1.063161 2.5
0.90934086 0.37562665 0.83099234 12
0.90013701 0.44101584 0.82345122 14
-2.1322389 -0.0076192319 1.456007 2
-1.0132852 -0.0081531778 1.2613028 2
-0.044643234 -0.024669513 1.4431239 2
-1.5334133 0.0057455599 1.4024986 2
-0.94519663 0.00077658892 1.4187217 2
0.93881589 1.0801114 1.5678018 20
-2.3118908 -0.015084565 1.7016562 2
-0.99247473 -0.023173928 1.6330203 2
-0.59135008 -0.0082163364 1.7958307 2
-0.075498052 -0.026365489 1.7001957 2
-5.45362 -0.10363668 2.1267424 2
-2.001687 -0.16225076 2.3935537 1
-1.6057792 -0.14507169 2.1964614 1
-0.49139538 -0.025736272 2.0028255 2
-0.30432436 -0.021294862 2.0043972 2
-0.79261333 -0.063860774 2.7127314 2
-0.35526881 -0.061317831 2.7140937 2
-11.682227 -0.063989669 2.8664656 2
-1.5261955 -0.18603438 3.1080978 1
5.22763e-07 -0.082920134 2.9893146 1
-0.21183552 -0.10338753 3.3319304 1
-3.3416176 0.73304993 3.3394432 7
-4.1177688 2.6708565 3.5393567 17.333334
-5.1063108 -0.12268579 3.932822 2
-4.0696135 -0.14668828 3.9244611 2
-2.9971395 -0.10668029 3.9016089 1.5
-2.7096829 -0.140838 3.7891057 1
-2.2227213 -0.062897608 3.9721749 2
-1.9092083 -0.099933252 3.9402735 2
-7.0032349 0.37718892 3.9568 4
-6.2141819 0.13510922 3.9385481 3
-5.9496098 0.11390245 3.9851313 3
-5.5586829 0.18915087 3.9382465 3.5
-4.6240306 0.38286269 3.9584329 4.3333335
-4.1337347 0.26049617 3.969733 4
-3.8717582 0.18266366 3.9661176 3.5999999
-3.3383391 0.18477769 3.9636042 3.3333333
-3.0805638 0.12310724 3.9328864 3
-2.5150256 0.21225722 3.9649317 4
-2.2032042 0.13391957 3.9626884 3.4285715
-1.9047519 0.14921814 3.9483647 3.5
-6.482645 0.43291289 3.9531851 4
-5.9997826 0.71951318 3.9514177 6
-5.9419327 0.64953172 3.9716158 5.5
-5.4421477 0.52064186 3.9604411 5
-4.9980607 0.61952883 3.9603958 5.5
-4.5763059 0.62707388 3.9804411 5.8000002
-4.232564 0.63445908 3.9892597 6.1428571
-3.7840335 0.66841429 3.9842455 6.3333335
-3.4455128 0.63500971 3.9910421 6.4000001
-3.0079675 0.46387997 3.9910669 5.5
-2.551899 0.58282393 3.9855433 6.3333335
-2.1424007 0.55449289 3.9768717 6.5
-1.8679947 0.58941072 3.974333 6.6666665
-8.4874382 1.0602627 3.9811077 6
-6.6089368 0.93715292 3.9614246 6.5
-6.0844736 0.92988235 3.9766679 7
-5.9148932 1.0979271 3.9518518 7.5
-5.3933454 0.95565736 3.9522977 6.8000002
-5.0627761 0.97267562 3.9693696 7.1999998
-4.6075721 1.0409867 3.9732995 8
-4.0434432 1.0189044 3.9289773 8.5
-3.7596686 1.0375133 3.9442697 8.5
-3.4361925 1.008839 3.9388633 8.666667
-2.9803774 0.95014346 3.9470532 8.5
-2.6011481 1.0883774 3.941282 9.8000002
-2.3714225 1.06707 3.9237955 9.5
-1.87925 0.90982276 3.9533005 9.5
-6.5663033 1.2535608 3.9557819 8
-4.5270152 1.4272355 3.9463148 10
-3.7669435 1.3747568 3.942143 10.666667
-3.4491954 1.4470739 3.9452364 11.5
-3.0117106 1.308084 3.946075 10.6
-2.5630517 1.2347761 3.9400187 11
-3.6848907 1.6673802 3.9442263 12
-3.5941751 1.6248102 3.9596012 12
-5.7288122 2.2446165 3.9489055 13
-4.9432192 2.250972 3.9417498 14
-6.322413 2.5680537 3.969909 13.5
-5.5990825 2.5489745 3.9628646 14
-5.5388699 2.5185342 3.9733579 14
-4.1004462 2.5331504 3.7354298 16.25
-3.9040706 2.579077 3.7621763 17
-2.9653344 2.6681457 3.9785054 19
-2.7031429 2.6503134 3.986068 19
-0.76006371 -0.15903491 4.3591895 1
-6.2565651 0.014813274 4.0571055 2
-5.7833567 0.075082064 4.0440116 3
-4.5994077 0.18524143 4.0484123 3
-3.3683569 0.29551205 4.0319872 4.5
-2.9979899 0.24917211 4.0472908 4
-2.5427244 0.29930508 4.0406857 4.3333335
-2.222842 0.28350031 4.0173469 4.5
-1.907734 0.26823795 4.0059543 4
-4.2354336 0.57831329 4.0102162 5.6666665
-3.7387798 0.65102768 4.0066338 6.25
-3.4124045 0.63077915 4.0088749 6.4000001
-3.0427637 0.56542414 4.0131435 6
-2.5991483 0.64616024 4.0141401 6.8571429
-2.2221253 0.58278668 4.0120959 6.5
-1.8521458 0.52760679 4.0278587 6.4000001
-4.8370385 0.87634391 4.0037384 7
-3.3514481 1.057284 4.0144911 9
-2.99843 0.96551883 4.0279188 8.75
-2.7631376 0.90425617 4.027555 8
-2.1291616 0.81251603 4.0221772 8
-1.8624054 0.83958286 4.0264411 8.666667
-4.6835241 1.3814727 4.012723 10
-3.771558 1.2487614 4.015059 10
-3.3599808 1.285208 4.0180893 10
-2.6378369 1.5286636 4.0461679 12
-6.4037113 1.763098 4.0177712 10
-5.7551084 1.8746328 4.0235415 11
-5.0978713 1.9485689 4.0314636 12
-3.809561 1.8617967 4.0467243 13
-3.3514919 1.8413957 4.045084 13.4
-2.9986544 1.7744926 4.0493717 13.6
-2.6309116 1.7923154 4.0677767 14
-2.1923304 1.917647 4.0730748 15.333333
-6.4362612 2.0585797 4.0220923 11
-6.3758817 2.1856663 4.0089126 12
-5.8252573 2.0964091 4.0226932 11.666667
-5.1095705 2.2342834 4.0249391 13.5
-3.79953 2.1649175 4.0488448 14.5
-3.3813426 2.173717 4.0562549 15.333333
-3.0049517 2.158869 4.0743523 15.833333
-2.5951481 2.2356508 4.0751781 16.714285
-2.2341919 2.2131081 4.0770168 17.166666
-1.8414518 2.1291039 4.0608587 17
-5.6732006 2.423496 4.0346951 13
-5.114501 2.6627953 4.0313573 15
-3.6115808 2.5558758 4.0484514 16.5
-3.5750978 2.5534043 4.0591102 16.5
-2.9386108 2.5288041 4.0592022 17.799999
-2.6690412 2.5824168 4.0295038 18.666666
-2.2205763 2.5875957 4.0500336 19.4
-1.5717336 -0.21297193 5.39503 1
-0.70905787 -0.25133994 5.8491077 1
-1.6759751 -0.28164095 6.8832273 1
-1.3287375 -0.090593934 15.185084 2
-0.52731496 -0.085951865 15.097984 2
0.42777738 -0.065248638 15.174471 1
-0.96634245 0.24185051 14.831356 3
-0.59394586 0.33234853 14.964026 3
-0.57919109 -0.089501679 15.200098 2
-2.910383e-10 0.14238492 15.300297 3
-1.3935646 2.8764753 -4.4076786 21.007
-1.6674802 2.8715007 -4.1111355 21.342169
-1.4243621 2.8831608 -4.1808453 21.5075
-1.6892992 2.6111288 -3.7096829 21.00975
-1.1115333 2.9116261 -3.9724064 22.50625
-1.6957978 1.2490101 -3.419908 13.0105
-1.7088492 2.2982445 -3.3758857 20.01075
-1.6870748 2.4596448 -3.3149226 21.51075
-1.7021847 0.74567276 -2.9484003 9.6786661
-1.6952323 1.0380282 -2.9352341 12.512
-1.5561535 0.92981243 -2.9145033 11.26125
-1.6778249 1.4743755 -2.8935976 16.011999
-1.6902702 1.6976084 -3.0329111 17.344999
-1.69128 2.2444482 -2.9350889 21.512001
-1.6795278 2.4689753 -3.0606475 22.511499
-1.7134262 0.6002866 -2.5404649 8.8136005
-1.670648 0.93888658 -2.5546663 12.346583
-1.5727584 1.0108901 -2.6559927 13.01225
-1.6789029 1.4823897 -2.5820477 17.213202
-1.6808685 1.9710314 -2.6937969 21.012751
-1.6987271 2.1026011 -2.5727799 22.263374
-1.7111628 0.60743934 -2.1438546 9.5868559
-1.5857497 0.72108763 -2.2202621 11.01425
-1.6991557 0.9548077 -2.1600983 13.158143
-1.5936651 0.9899745 -2.2735913 13.514
-1.688797 1.3966242 -2.1898637 17.651407
-1.6879611 1.7864336 -2.1921816 21.348389
1.1040874 1.6167217 -2.0753174 22.13275
-1.6810398 2.0305653 -2.291991 23.0145
1.0030361 0.34017432 -1.6540565 8.1315002
-1.694699 0.61250818 -1.7695416 10.434167
1.1100001 0.56794274 -1.7421988 11.331
1.2944002 0.70489454 -1.8132132 12.62975
-1.6762737 0.9561159 -1.8301362 14.471545
1.3738126 1.1528769 -1.7139794 18.1285
-1.708529 1.2995284 -1.8532104 18.142063
1.1724918 1.5186172 -1.8136042 22.797501
1.2346174 1.5836444 -1.7580904 23.129999
-1.6811967 1.7190413 -1.8078897 22.572723
-1.6910789 0.39541304 -1.239354 9.0214996
1.0268277 0.31409609 -1.4315732 8.4630003
-1.6918852 0.62723953 -1.3583026 11.645499
1.0811994 0.61611462 -1.4113346 13.557535
-1.6996365 0.93565983 -1.3930044 15.656635
1.0893822 1.0218168 -1.4134089 19.545584
-1.6846972 1.3794878 -1.3473771 21.087198
1.0949538 1.2516358 -1.4331843 22.629002
-1.6537864 1.622375 -1.4501548 23.019501
-1.707491 0.35248354 -0.96479034 8.0241995
1.0082893 0.31054354 -0.99506229 9.8180771
-1.7077494 0.62808663 -1.0018564 12.461344
1.0299337 0.61027789 -0.98163491 15.805359
-1.701558 1.0033488 -1.0118002 17.760553
1.0434026 0.94467562 -1.0062993 21.493921
-1.675814 1.3063221 -0.95590383 22.024124
-1.7163731 0.34137961 -0.56492424 8.4572859
0.92455274 0.2872355 -0.55318928 11.002603
-1.7452523 0.63520902 -0.59275448 13.314216
0.92611945 0.58891439 -0.53541279 18.997089
-1.7467213 1.013371 -0.58208627 18.861958
1.0251688 0.87154996 -0.74598449 22.5224
-1.7207859 1.2829067 -0.584001 22.528502
-1.6921223 0.33435464 -0.20146455 8.6696367
0.91868991 0.33148512 -0.27926028 13.448037
-1.7283574 0.64015162 -0.20861855 13.87324
0.91672498 0.54081571 -0.19319476 19.532015
-1.7394987 0.96899968 -0.19026393 19.033499
-1.7342956 1.2663972 -0.3220135 22.831799
-1.7042249 0.34143662 0.20405306 8.681571
0.91810447 0.34214735 0.26200923 13.751651
-1.7211385 0.58597177 0.22597058 13.061682
0.91711009 0.55159265 0.18916361 19.799997
-1.7314969 1.0208826 0.16369569 19.927017
-1.7251875 1.2560556 0.28256661 22.664688
-1.695635 0.35674974 0.53100777 8.9179373
0.91050702 0.29210019 0.58642691 11.156194
-1.71157 0.60917962 0.60654336 13.043766
-1.5420624 0.52342308 0.71777868 12.046
0.91449863 0.59011376 0.56826478 18.851725
-1.7377297 1.0133128 0.55809331 19.107613
-1.5905492 0.87407935 0.78742224 17.046499
0.92214674 0.84292418 0.68994957 23.09325
-1.7111338 1.2961723 0.59104258 22.686428
-1.7732309 0.39130676 0.87442553 9.0465002
0.90159786 0.33496475 0.96791947 10.489248
0.89855671 0.57638365 1.0028439 15.644335
-1.7026609 1.0452192 0.81709564 19.046249
0.91205734 0.90646964 0.97761434 22.089281
0.93266922 0.36077809 1.4144906 9.4603748
0.91304129 0.61725879 1.3836125 14.138028
0.94118637 0.98283815 1.4090879 19.799788
0.97195786 1.206846 1.5220584 22.084999
-4.3542843 2.8071058 1.3774463 21.042999
0.96819276 0.3428072 1.7603316 8.0834999
0.91886139 0.59960955 1.7753271 11.88295
0.92642766 1.0572382 1.7507508 18.416502
0.95328224 1.3546292 1.8441656 21.416334
-6.0487552 2.7188296 1.6340508 16.042
-5.9179716 2.7088518 1.8022037 16.042749
-3.2577426 2.7824795 1.9370347 23.04825
0.79774809 0.69058979 2.3472788 11.0795
0.81415635 0.63481194 2.0937781 11.0805
0.94860983 0.97412956 2.0919428 15.581751
0.92295009 1.3260908 2.1772389 19.247831
-5.5936489 2.7033737 2.1919558 16.0445
-4.1105218 2.7151799 2.3790908 19.048
-3.7328081 2.7409592 2.2307954 21.048334
-3.2666149 2.7655458 2.1336381 23.04925
-3.0415301 2.7748561 2.289825 23.050751
0.95143193 0.89615947 2.6150739 12.413333
-5.6480875 2.6940353 2.7099705 16.046249
-5.4339027 2.6922355 2.4627278 16.54575
-5.0824671 2.7094595 2.6454861 17.047001
-4.6670699 2.6764383 2.6998682 17.714666
-3.8150854 2.6998608 2.5535054 20.049501
-3.3702173 2.7281697 2.5777373 21.175936
-2.9945188 2.7265067 2.6896224 22.05275
-2.5897081 2.7276115 2.7714558 23.05475
0.85063261 0.62555259 3.0492866 8.5782499
0.92389435 0.89289725 3.1516893 11.0785
-6.5581303 2.7052193 3.0572648 14.046
-6.2519283 2.6610017 3.0888033 14.046499
-5.7126255 2.6910477 3.060992 15.04725
-5.3668075 2.6660175 2.9425461 16.047501
-4.9790015 2.6542432 3.0571902 16.6486
-4.4677043 2.6876531 2.8587224 18.049
-4.1705713 2.6674838 2.9912453 18.050251
-3.8906598 2.6601913 3.1294875 19.0515
-3.3141859 2.7178454 2.992733 20.452801
-2.9937823 2.7062588 3.0660048 21.054251
-2.7734456 2.7020233 3.1621914 21.0555
-2.2088706 2.7405269 3.029197 23.057501
-1.9784696 2.7238431 3.1101689 23.059
0.78838378 0.68740678 3.2031302 9.0775003
-5.5471954 1.0559053 3.5498502 8.0489998
0.786044 0.86647511 3.202955 11.0775
0.91615391 1.0207291 3.4024048 12.078
-6.5554643 2.6181962 3.5116653 13.54725
-5.7880583 2.6914885 3.4355552 15.04825
-5.4237456 2.6531057 3.5379415 15.04925
-4.823844 2.6527646 3.2322245 16.0495
-4.6066003 2.6387041 3.4321249 16.479216
