# .PCD v0.7 - Point Cloud Data file format
VERSION 0.7
FIELDS x y z intensity
SIZE 4 4 4 4
TYPE F F F F
COUNT 1 1 1 1
WIDTH 436
HEIGHT 1
VIEWPOINT 0 0 0 1 0 0 0
POINTS 436
DATA ascii
-3.6939917 2.1371846 -4.507719 17
-3.6543143 2.405684 -4.4454117 18
1.7677857 0.80884659 -3.8290565 8
2.3076179 0.7739144 -3.7006464 7
2.0583992 0.88144624 -3.7644119 8
2.2836273 0.92700535 -3.6550348 8.5
2.0662103 1.6882608 -3.7396913 15
2.4777339 1.6866957 -3.6319182 14
2.023324 1.8783162 -3.7111099 16
2.4764597 1.8914934 -3.6173732 15.5
2.2961962 2.701272 -3.6627641 21
2.0034611 2.8417327 -3.7227886 22
2.2848032 2.8453066 -3.6443851 22
3.2540038 0.91339236 -3.4296279 7
3.3690462 1.1205466 -3.4121757 8.5
2.7890661 2.2884829 -3.5211899 17.5
2.0990558 2.9573698 -3.5511642 23
2.2106357 3.049119 -3.4842281 23
3.3960958 0.98380488 -3.3675315 7
3.5112772 1.1626656 -3.366576 8.5
-1.5901992 0.69251692 -3.1216059 9
-1.6190959 0.68454421 -2.902998 13
4.9750786 2.147332 -2.8490157 12
-1.5636699 0.349379 -2.6129062 6
-1.5751301 0.40776148 -2.6118379 7
-1.5161649 0.051308636 -2.478924 5.5
-1.4954948 0.21826974 -2.4225559 8.5
-1.5520549 0.54202473 -2.4262843 10
-1.5358539 0.6622923 -2.4186482 12
-1.5616174 0.89808595 -2.4286902 12
1.0752779 0.87263155 -2.4439778 15
-1.5716128 1.0367804 -2.4706099 13.5
-1.5470972 0.35663724 -2.2710955 8.5
-1.5498083 0.51126862 -2.2668133 9.083334
-1.5733961 0.71546263 -2.3407276 10.333333
-1.5556583 1.0667895 -2.3242965 16
-1.5545121 1.2652428 -2.329236 18
-1.4936304 0.12482651 -2.0866895 7
-1.5367523 0.29490641 -2.0603604 8.833333
-1.5687644 0.48819289 -2.1739252 11
1.0941978 0.41134694 -2.0576792 9
-1.5881399 0.61181331 -2.1765542 12.5
-1.6003512 0.80896485 -2.1060383 12
-1.5633035 0.83654737 -2.0995395 16
-1.6055456 1.0269601 -2.1268761 18
-1.570466 1.1017294 -2.1086028 17.833334
1.0815403 1.0585299 -2.0986214 20
-1.5609765 1.3258712 -2.1757653 19.5
-1.5812496 1.4107434 -2.0615668 19
-1.5200858 0.30386108 -1.9796455 7.875
-1.6031938 0.45575842 -1.9025601 8
-1.5728371 0.53719425 -1.9067931 9
1.0842879 0.41931218 -1.8530097 9.5
1.0825385 0.69821233 -1.8892264 14
-1.5698566 0.80649239 -1.9181623 13
-1.5762792 1.1359794 -1.9160391 18.333334
-1.5874013 1.2304353 -1.9652396 17.5
-1.5503212 0.11749408 -1.6827531 4.8333335
-1.5121101 0.27876803 -1.7023607 9.0555553
-1.6066012 0.5556798 -1.6760294 10
-1.5283421 0.48012194 -1.7305937 11.666667
1.0971882 0.52265668 -1.6582472 12
-1.6055502 0.61077452 -1.6706034 11
-1.5408682 0.7547403 -1.6450038 16.333334
-1.3942955 0.78629577 -1.643405 17.5
-1.5944585 0.91431254 -1.7282953 14.5
1.0574853 0.96813321 -1.7129602 20.5
-1.5789621 1.0497487 -1.6779436 18.5
-1.600872 0.34688291 -1.4907631 8
-1.5504894 0.32175589 -1.5116283 9.25
-1.5407344 0.49012482 -1.4986988 12.333333
1.0749651 0.5624066 -1.4153396 14
-1.6067786 0.60124052 -1.4634491 11
-1.5835346 0.68403941 -1.5381972 12.5
1.0500476 0.61095417 -1.4698881 15.5
-1.6001005 0.91307694 -1.4778442 15
-1.5715642 0.88164061 -1.5018333 17.5
-1.5818775 1.0104198 -1.4775676 17
-1.5915596 1.2551907 -1.535954 19.5
-1.4892403 0.081624843 -1.2714334 6.1666665
-1.5523682 0.24648887 -1.2159534 7.4166665
1.0643637 0.39993221 -1.2803893 11
-1.5308458 0.49294341 -1.2908238 13.900001
-1.5437 0.68143404 -1.2876511 17.875
1.0603986 0.60999191 -1.3123951 15.75
-1.6243454 0.90181714 -1.3737706 16
-1.5498346 0.84516376 -1.392974 17
-1.5742646 1.0758283 -1.3335552 19.25
-1.5913111 1.2256148 -1.3077787 20
-1.5095617 0.075009704 -1.0900819 6.5
-1.5587374 0.31761801 -1.0944062 8.666667
1.0564686 0.25221324 -1.1150476 8
-1.5895504 0.54567593 -1.1918169 11
1.0909264 0.42908075 -1.1127341 11.25
-1.5444551 0.72172576 -1.1267277 16.166666
1.0457313 0.65598726 -1.0876653 16.5
-1.5662615 0.88680351 -1.1261903 18.5
1.0218241 0.80703127 -1.0642582 21
1.7881196 0.92908835 -1.0486829 15.25
-1.6008296 1.1347113 -1.1015667 20
-1.5544802 1.0283229 -1.1656883 20.666666
-1.5126183 0.10965434 -0.92011416 6.4166665
-1.5476612 0.31947386 -0.85981274 9.666667
1.0614873 0.30177516 -0.94463754 9
-1.5335344 0.4925029 -0.91198087 14.537037
1.0629053 0.47934091 -0.88549644 13.333333
-1.5476412 0.68502194 -0.8628934 16
1.0812744 0.63322252 -0.81586421 16.25
-1.559823 0.89326167 -0.88062835 20.166666
1.7530469 0.8936075 -0.89063156 15.25
-1.5890417 1.1267935 -0.80093455 21
1.7557218 1.1778862 -0.92494309 19
-1.5440807 0.15403932 -0.74065077 8.5
-1.5478779 0.32239091 -0.7102493 10
0.9925909 0.31618142 -0.63561749 11
1.0493939 0.3133004 -0.70345545 9.9833336
1.7431289 0.30525902 -0.79692596 6
1.0334158 0.53522313 -0.70785958 16.083334
1.7128537 0.42924213 -0.72456259 8
-1.5215622 0.69250655 -0.66503137 18
1.067536 0.69575214 -0.72716469 18
-1.6416082 0.88898438 -0.65565127 21
-1.5704802 0.91682673 -0.68947607 19.5
-1.5921634 1.0834396 -0.71473569 20.5
-1.6142137 0.081441775 -0.4966011 4
-1.5280952 0.07691139 -0.48049197 6.0999999
-1.5202084 0.27534577 -0.51741624 9.75
-1.560586 0.55539685 -0.53976512 16.5
1.0266358 0.47070995 -0.53744447 14
-1.7008066 0.68925804 -0.40093249 18
-1.5404592 0.73375338 -0.46618962 19
1.0419635 0.63135296 -0.46314743 19
1.6097785 0.72292858 -0.46349493 14
-1.7257069 0.93678755 -0.41093314 21
-1.557671 0.97239333 -0.57582384 20
-1.5714251 1.0101349 -0.4926011 21
-1.6750187 -0.0410624 -0.28815538 5
-1.6768939 0.072266556 -0.28587934 6.5
-1.5063193 0.077701591 -0.3618024 6
0.99667466 0.17817102 -0.28062662 8
-1.6661911 0.26664969 -0.39496771 10
-1.5066583 0.25965819 -0.39695123 9.5
1.0326228 0.29410368 -0.32520512 10.125
-1.5278451 0.46134001 -0.28592616 13.25
1.0040388 0.44717148 -0.29076126 15.5
-1.7158096 0.62634057 -0.39126253 16.5
-1.5687761 0.61870182 -0.30229577 16
1.0348362 0.70030874 -0.20946929 21
-1.5573361 0.9080112 -0.30108705 21
1.5824366 1.0712003 -0.27794206 20
-1.7673148 -0.087859668 -0.027168542 4
-1.6907997 0.083518967 -0.089566492 5.25
-1.5263414 0.08733578 -0.13577697 5.5
0.98958081 0.17901146 -0.12096672 8
-1.5204298 0.26686323 -0.099389166 9.75
1.0395321 0.31162375 -0.072544605 9.666666
-1.5295805 0.48581624 -0.1281279 13.75
0.98241597 0.49312162 -0.056134813 18
1.0317084 0.56730819 -0.096939832 17.258928
1.5164557 0.46100202 -0.072305962 9.5
-1.5406711 0.72018909 -0.080720022 17.5
-1.5761538 0.95295489 -0.058497861 20.75
1.0426452 0.90986162 -0.04899925 21.5
-1.5792882 1.0750544 -0.10210632 22
1.5435481 1.1120844 -0.092392445 19
-1.5637368 -0.00099597417 0.17159832 4
-1.7024847 0.060863547 0.15758947 5.75
-1.5554223 0.12866543 0.12350143 6.625
0.98896009 0.19020049 0.13081557 9
-1.8252931 0.37924454 0.18883884 11.5
-1.5045106 0.35762516 0.069853187 11
0.98942858 0.23652409 0.13366993 10
1.04213 0.2007076 0.01401794 7
1.2808096 0.22561805 0.090473056 5
-1.8458027 0.44399688 0.19817275 12.5
-1.5745668 0.46035948 0.14370687 11.5
1.031899 0.4914898 0.12384961 13.666667
-1.5615723 0.62079477 0.076788306 15.75
0.98317969 0.65118128 0.18711126 21
1.0140055 0.67088664 0.093606718 20.5
-1.8372593 0.93475235 0.029870719 20
-1.5811491 0.85199761 0.10126984 19
0.99624866 0.99499589 0.17358118 22
1.0256171 0.93462491 0.076236486 20
-1.5832291 1.0072502 0.12040794 21.333334
-1.8341308 -0.10807376 0.34076026 3.75
-1.5573477 -0.0019247645 0.28794605 4
-1.8391366 0.088053897 0.39879525 7
-1.5720261 0.093971677 0.39094609 5
0.98023254 0.1549186 0.37427583 7
1.002911 0.15207681 0.34031701 7
-1.8304172 0.28326449 0.35676253 9.5
-1.5596914 0.30667362 0.31367132 9.5
0.97677201 0.2872189 0.28978792 11.5
1.0155569 0.30943224 0.2822226 9.833333
1.4787731 0.29748949 0.26710194 5
-1.8396803 0.50497651 0.31659096 12.5
-1.5667796 0.50705653 0.2703687 12.900001
0.99395734 0.46400744 0.31731397 16
1.0013561 0.51839989 0.28160846 18
1.4379846 0.49187875 0.20194679 10
-1.583956 0.68443924 0.32777357 15.916667
1.4139404 0.62609148 0.21064943 13.333333
-1.6170533 0.90278083 0.2931757 18.75
-1.5738953 0.85202497 0.24728887 18.666666
-1.6191596 1.0357354 0.39529538 21
-1.5956049 1.115947 0.26537582 22.5
1.0297452 1.1045704 0.39311641 22
1.3870264 1.0608298 0.3669647 20
-1.6333692 0.031087853 0.50294417 3.5
0.96781206 0.15740353 0.55994046 7
-1.8806058 0.34846562 0.47810668 10.5
-1.5317487 0.29731208 0.47782505 9
0.97923595 0.20377366 0.51848936 8
1.0144763 0.28305769 0.52960461 8.25
1.512453 0.30472291 0.56832594 5.5
-1.8882823 0.421354 0.45211476 12
-1.7729725 0.4994745 0.48383218 13
-1.586861 0.47024959 0.50520921 11
0.98148042 0.45862487 0.50753385 15
1.017141 0.55774337 0.42402542 15.25
-1.6086882 0.64411902 0.47456008 14
-1.5956725 0.77867001 0.59581631 15.5
0.9959358 0.68197888 0.43587911 17.666666
-1.6206214 0.91289401 0.54133785 18.5
-1.5963783 0.97361362 0.45084709 19.200001
0.99944645 0.90714502 0.49204886 22
1.0193365 0.8594197 0.50395232 21
1.4101011 0.87157357 0.40286607 17
1.0433639 1.0574988 0.41932744 21
-1.6318469 0.0099791959 0.68673307 2.5
-1.5527054 0.089650974 0.69788247 4.5
0.97422552 0.11297599 0.63875073 5
-1.5502365 0.28859529 0.72437358 7.75
0.97538698 0.28682834 0.72644395 10
1.1052696 0.23024155 0.72503871 4
-1.6120391 0.48189169 0.66526258 11.5
-1.5940833 0.44127005 0.74296427 11
0.98104507 0.49242646 0.70300627 15
1.0357387 0.52457929 0.78079367 11.5
1.3591421 0.44409603 0.70352274 8.666667
-1.5807209 0.65324122 0.70619124 13.833333
1.0387396 0.7248702 0.72466511 14
-1.6394455 0.95062673 0.77316165 18.5
-1.5912337 0.98985642 0.66329688 18.5
0.99412954 0.81797022 0.71725452 21.5
1.0070286 0.97325075 0.7657342 20.5
1.3521324 0.91423148 0.66348559 17
-1.6250383 1.1035614 0.62347722 21.5
-2.0006685 1.2966284 0.6085884 21.5
-1.6198663 1.2007149 0.79167306 22
-1.9796144 1.4414623 0.61057609 23
-1.9804343 0.11547019 0.88609856 6.5
-1.5543559 0.13188292 0.85745573 6
1.3884691 0.1322009 0.92786127 3
1.4170295 0.07684283 0.92724651 2
-1.9849275 0.31142688 0.81876761 9
-1.6261258 0.26316911 0.84572113 8
-1.5259265 0.2238747 0.80307525 7
0.97404456 0.38081226 0.81318951 12
1.0744618 0.3417618 0.85763693 6.75
-1.9997038 0.47175789 0.80464751 11.5
-1.6234531 0.46031526 0.90017688 10.5
-1.4756852 0.50185472 0.85235196 11
0.97094136 0.4217734 0.80586183 13
1.018288 0.5128693 0.94192827 11.5
1.3093488 0.41265312 0.97996551 7.75
-2.0259299 0.60193449 0.91277486 13
-1.6198721 0.69325179 0.88628131 14.5
0.98835802 0.64062023 0.83518463 16.25
1.0225585 0.79137605 0.88593632 14.5
1.306386 0.66973943 0.93180901 11.866666
-1.6232188 0.92498749 0.87690288 17
-1.5968497 0.85960215 0.88120174 17
1.3378567 0.81741536 0.80451781 14.5
-1.6254581 1.1043247 0.93229991 19.433332
1.039489 1.0088766 0.97984368 17
-1.5901722 -0.045062624 1.0328504 3
-2.0306005 0.18418762 1.1237128 7
-1.615625 0.058811605 1.043467 4
-1.5808221 0.077233396 1.0968547 5
0.95278949 0.1612249 1.1783969 5
1.0668327 0.17017907 1.1154226 5
-2.0394416 0.26914543 1.1258314 8
-1.6103119 0.29911783 1.0052854 8
-1.5864102 0.2327629 1.13653 7
0.94543457 0.20215443 1.1443675 7
1.0308914 0.28161567 1.0878857 7
-2.0572042 0.57551521 1.0987232 12
-1.5895188 0.51115805 1.1201594 11.25
0.96395046 0.56050044 1.1080371 14.5
1.0285606 0.49630398 1.0907302 10.25
-1.613693 0.6834805 1.0838935 14
1.0217099 0.67050183 1.1182332 12.5
-1.6128047 0.81451482 1.0185136 16
1.0140234 0.90210575 1.144701 17.5
1.2522373 0.91084915 1.1038388 15.333333
-1.6275473 1.1247281 1.0711513 17.666666
-1.6394814 1.3033556 1.1007913 21.5
1.1773407 1.3598878 1.1148369 21.5
1.2390007 1.2425764 1.0750612 19.75
-1.6107793 1.4273909 1.0840011 23
-1.6230292 0.0019459843 1.3014524 2
1.164819 0.13607652 1.3069651 3
-1.6217374 0.34132707 1.2427199 7.5
1.0293034 0.3301076 1.3826309 7.5
-1.615657 0.54558462 1.2672634 11
-1.5804129 0.47218505 1.3532197 9
0.96706456 0.53428262 1.2583363 13
-1.6329803 0.79816926 1.3465645 13.5
-1.5879141 0.62091613 1.3441539 11
0.97953075 0.70619154 1.3282914 16
1.084808 0.74067038 1.3434274 13
1.2194728 0.73551369 1.2619617 12
-1.6469837 0.87452894 1.3027234 15
0.98482841 0.88622707 1.3445243 18.5
1.0840299 0.91088939 1.3726997 15.5
1.2944937 0.89688396 1.2573273 12.5
-1.623328 1.05723 1.2557868 17.5
-1.672405 1.3510591 1.3771975 20.5
1.1805334 1.2409979 1.220737 19.5
-1.6436083 0.14417879 1.4699039 4.5
1.0087681 0.18538369 1.5336493 5
-1.6314095 0.31139046 1.4808706 7.3333335
0.97018445 0.28158358 1.4797311 7.5
1.009908 0.25423071 1.512208 6
-1.6224542 0.43564388 1.5070885 9
0.9845081 0.58657467 1.5770928 12
1.0161638 0.55242288 1.4739656 10.5
-1.6293905 0.69668281 1.549329 12.5
0.99075162 0.68471634 1.5542173 13.25
-1.6511849 0.91984773 1.5223495 15.5
0.97510976 0.89058447 1.5026944 15
-1.65372 1.2709862 1.528206 18.666666
1.1266483 1.3419839 1.4803526 19
-1.6372132 1.4340032 1.4915895 20.5
-1.624336 0.11705862 1.6199834 5
0.96516186 0.17783901 1.6410285 5
-1.6063145 0.26121303 1.6595976 6.5
-1.6186662 0.44154903 1.7399138 9
-1.5879222 0.51327717 1.6233871 9
0.99374044 0.49026269 1.6097556 11
-1.5738544 0.62510931 1.6099451 10.5
1.0884922 0.67172766 1.7976842 10
0.98217613 0.90836549 1.6984531 17
1.0817897 0.87666345 1.6531826 13.25
-1.6639662 1.0620725 1.7061472 16.25
-1.6623236 1.2731479 1.6719646 17.5
-1.6445496 1.4421774 1.7318146 20.5
0.98223108 1.511753 1.7949865 20
1.0164307 1.5161291 1.6230133 21
-1.6014211 1.6339508 1.6664784 21
-1.66466 0.3551003 1.9112663 7
-1.6478055 0.52149999 1.9110897 9.25
0.98579913 0.46566433 1.8149809 10
-1.6622963 0.68322062 1.8802067 11.25
0.97337174 0.63808501 1.8099021 12.5
-2.3090262 0.82292467 1.9474785 12
-1.6404448 0.80891061 1.8490964 13
1.0667818 0.90629923 1.8693736 12
-1.6626797 1.1932888 1.994229 16.5
-1.6469436 1.3790867 1.8779292 18.5
1.0270351 1.2822152 1.8678896 17
0.97951442 1.4044119 1.8385754 18.5
-1.6308165 0.47144958 2.0527008 8.666667
-1.5838881 0.42771238 2.0231442 7.5
1.0447716 0.65838325 2.0301423 9.5
0.89596874 1.5685188 2.1119258 19
-1.6655803 1.7671819 2.0100832 21.5
12.65489 2.9084249 2.0385473 7
-1.6669818 0.25049883 2.266125 5.5
-1.6528012 1.2810588 2.3592067 16
-1.650044 1.4952465 2.3143902 18
-1.6212878 0.54681236 2.5338268 8.75
-1.6282189 1.7629412 2.5156462 20
-1.6513404 1.3296872 2.6514983 16
-1.6456962 1.5319767 2.6283004 17.5
-1.6540526 1.6665422 2.623322 19
0.75965744 0.67995375 2.8915854 8
-1.6713234 0.36087665 3.2791913 5.5
-1.6723205 0.47660211 3.2795804 7
1.0339745 0.91721338 3.3159533 9
1.0324847 1.1004627 3.3640282 10
1.1007268 1.2513273 3.3602333 11
0.44285578 1.9483194 3.7976532 16
0.42227918 2.0408788 3.6997561 17
1.2517576 0.57586384 3.9553659 4
1.305316 0.85096586 3.958843 6
1.0024436 0.98946655 4.1626067 8
-2.655133 2.3071749 4.5395026 16
-2.4981141 2.455097 4.5883446 17.25
0.039159738 2.5787759 4.5096154 16.333334
0.068743505 2.7806373 4.4984694 18
-2.3968816 2.3539298 4.7277322 16
-0.25507963 2.5866234 4.6867294 16
-0.44449961 2.6895869 4.6805234 17
0.93240982 0.89458245 4.9650307 7.5
0.92199957 1.0558014 4.9616961 9
0.87287509 0.42764449 6.0923195 4
0.93767458 1.0372756 6.067677 8
-2.0770729 0.745538 7.9059315 5
-2.2279391 1.0844018 7.9806576 6
-2.1880276 1.0821385 7.9371252 7
-2.1018655 1.9214988 7.9333248 9.5
-1.7856436 1.9192821 7.9236345 9.5
-1.8239499 0.90707392 9.2723875 6
-2.087889 1.0774666 9.2331438 6
-1.8568066 1.1224667 9.2519379 7
-2.3869247 1.6201226 9.3065109 8
-1.9719901 1.709646 9.3626728 8
-2.4488811 1.999979 9.3072834 9
-1.9761502 1.9901066 9.2813044 9
-2.4491343 2.0629966 9.3103151 10
-1.9926156 2.1137328 9.3263969 10
-1.8820992 0.53341973 9.4507322 5
-2.033813 -0.35602134 10.514284 1
-1.9729435 0.42584941 10.636557 4
-2.1270912 0.92113537 10.727104 5
-1.8344125 0.96607798 10.668156 5
-2.2636216 1.1054474 10.685637 6
-1.9123394 1.1521399 10.696054 6
-2.3251407 1.5051299 10.706435 7
-1.9653368 1.636645 10.660023 7
-1.8053906 1.8136461 10.754725 8
-2.3092306 2.0183194 10.71928 8
-2.1156538 2.3310802 10.671072 9
-1.8040339 2.3123388 10.719108 9
-6.3407817 0.17670549 15.677212 4
-6.086391 0.72261328 15.830004 5
1.7530426 0.47400326 18.912701 2
-1.517706 0.61438614 19.000753 3
-1.621294 0.82112288 19.022781 4
-1.6905528 1.5911438 19.263124 5
-0.059996992 -0.887555 19.402666 1
-0.20432614 -1.202341 21.559324 1
-1.6930429 -0.78500277 21.75642 1
