# .PCD v0.7 - Point Cloud Data file format
VERSION 0.7
FIELDS x y z intensity
SIZE 4 4 4 4
TYPE F F F F
COUNT 1 1 1 1
WIDTH 1216
HEIGHT 1
VIEWPOINT 0 0 0 1 0 0 0
POINTS 1216
DATA ascii
0.8870253 0.55281013 -2.5794044 10.13125
2.1225865 0.52702266 -2.5948911 6
-1.5586923 0.72156298 -2.5333693 10.346
5.7353477 0.85175723 -2.5429883 4
-1.5543226 0.96143556 -2.5477793 13.406
3.954809 0.92850482 -2.502826 7
5.6695814 0.99087316 -2.5192506 5
5.067534 1.0600482 -2.562602 6
3.1383989 1.1545768 -2.5819123 10.1175
2.8017917 1.2601166 -2.5468385 11.620251
-1.5656911 1.3646035 -2.5344319 18.26375
3.0902152 1.3104894 -2.5128105 11.619
-1.5531707 1.5133445 -2.5401125 18.0126
3.7581482 1.5131056 -2.5259523 11.1155
-1.547624 1.6873388 -2.5190115 21.18025
0.98412293 1.6875694 -2.5678153 23.132
-1.5516756 1.7723109 -2.5296049 20.262627
3.8095007 1.8902156 -2.5102069 14.11675
4.3923683 1.8923686 -2.565969 12.61425
1.7367636 1.9903517 -2.5682883 22.623249
5.1765471 1.9902374 -2.5706043 11.11425
5.6303444 1.9862665 -2.5072093 10.363375
4.6488996 2.1566246 -2.5116692 13.1135
-5.709105 2.2088733 -2.5020888 17.025999
-3.6582041 2.4716284 -2.5490944 23.021999
3.2388484 2.5404024 -2.5419908 20.116501
4.9045854 2.6446226 -2.500205 15.113
6.0185051 2.663465 -2.5950029 13.112
3.6805983 3.0872991 -2.5243106 21.116751
4.6113858 3.1275475 -2.5115938 18.11475
5.7097678 3.2269495 -2.5158403 16.112
5.4911122 3.3143444 -2.5315783 17.112249
-2.192265 -0.17323561 -2.422632 3
-1.5161649 0.051308636 -2.478924 5.5
-1.4954948 0.21826974 -2.4225559 8.5
-1.5702783 0.33392555 -2.437897 6
-1.5420358 0.49931645 -2.4185007 8
-1.5620741 0.58473295 -2.4340677 12
-1.5377913 0.6247865 -2.4245064 11.388889
-1.5566244 0.70662892 -2.4326775 13
-1.5616174 0.89808595 -2.4286902 12
1.0755153 0.87438124 -2.4232755 15.25
1.8464571 0.881396 -2.4029529 12.12225
-1.5862722 0.93214148 -2.4265511 16.016001
-1.5728879 1.0202479 -2.457665 13.5
4.2410502 1.0142633 -2.4243186 7
3.8622723 1.1056999 -2.4396791 8.1164999
4.9639521 1.2777051 -2.4595382 8.1129999
1.2825249 1.3175344 -2.4485528 19.126249
-1.5870987 1.5605657 -2.4423857 22.682333
1.0117099 1.5191919 -2.4589343 22.63125
2.7426288 1.6706332 -2.4348011 15.7845
3.5334823 1.6630001 -2.4333487 13.115499
2.0093093 2.0619035 -2.4985237 22.12125
2.2968669 2.1397209 -2.4086685 21.369249
2.7879214 2.1069322 -2.4507914 18.119499
-4.1543665 2.4364631 -2.4669766 21.022249
6.5597067 2.9353418 -2.4571483 13.111
5.0227604 3.1428745 -2.4740543 17.446001
5.3192878 3.2315691 -2.4753726 17.113501
5.5291252 3.3243191 -2.414644 17.113001
-1.5032071 0.1507273 -2.3716199 7.25
-1.5091882 0.29971933 -2.3489928 9.666667
5.0901589 0.31910491 -2.3870907 2
-1.5345397 0.42438802 -2.3384171 11.578119
0.99577385 0.48075485 -2.3492162 9.1289997
1.0649421 0.43819094 -2.368397 8.7546253
1.1115506 0.41148329 -2.3243876 8.4604998
3.0006461 0.43745679 -2.3691871 4
3.2596803 0.48109713 -2.3263996 4
-1.5646321 0.50814277 -2.3752565 10.8345
1.0777432 0.64497483 -2.339283 11.945566
-1.5733961 0.71546263 -2.3407276 10.333333
1.0759783 0.85610706 -2.3639855 14.981833
6.1702385 0.82375067 -2.3993068 4
-1.5510802 1.0653601 -2.3249874 16
0.91514778 1.0076724 -2.3814139 17.129499
-1.5876468 1.1587979 -2.3748956 21.60603
-1.5743878 1.2714972 -2.3501978 19.162001
-1.5610496 1.3556578 -2.3347845 19
1.0310977 1.3873291 -2.3622112 22.581955
5.3596177 1.3962539 -2.3462787 8.1120005
3.478368 1.4791466 -2.3689835 12.117
3.8111014 1.5293528 -2.3471706 11.116
3.0865843 1.6796253 -2.3966713 14.6165
3.6807756 1.7828548 -2.3192399 14.1145
4.8292036 1.8832828 -2.3229251 11.6125
-7.9897652 1.9577197 -2.3272977 13.0285
4.4509244 1.9855543 -2.3241973 13.1145
6.0130353 2.1245716 -2.3832498 10.1125
6.2077603 2.1897953 -2.3172908 10.112
2.5071325 2.207664 -2.3563499 21.118
2.7044036 2.2830577 -2.3152323 21.117001
4.8802376 2.2958348 -2.355469 14.1125
5.1209626 2.2097428 -2.3465035 12.778834
-4.6685176 2.3621542 -2.3793459 20.025
5.7986422 2.5289326 -2.3428636 13.1125
5.2857265 2.7480083 -2.378274 15.112
3.9184046 3.1162848 -2.30059 20.715199
4.879158 3.1162851 -2.3652716 17.61375
5.5123186 3.2540042 -2.333288 16.6115
-1.4972584 0.18138789 -2.2531705 8.1853333
-1.5599946 0.35235748 -2.2499819 7.8888888
-1.515864 0.49123666 -2.2404838 9.5
-1.5837526 0.5313006 -2.2931426 8.666667
3.3753731 0.50690407 -2.2937853 4
3.8718133 0.59370548 -2.24336 4
4.351778 0.54383576 -2.2051597 4
1.0334753 0.68079627 -2.2754722 13.460584
-1.5570962 0.85546184 -2.2864628 17.962915
-1.5749702 0.9008978 -2.2502301 12.8
2.7733355 0.92029017 -2.2682273 9.1169996
1.0763814 1.0644516 -2.2982798 18.703634
1.5299792 1.1400424 -2.2393084 17.122999
4.7384987 1.1710285 -2.2848675 7
2.4329839 1.2880328 -2.2789168 14.11825
1.6454773 1.383683 -2.2698555 19.12225
5.5749307 1.4659934 -2.2783422 8.1114998
-1.5660752 1.5130006 -2.2064428 19.014166
3.283679 1.8986899 -2.246151 16.115
-6.5381155 2.0994303 -2.2492824 15.02775
4.7016215 2.1534908 -2.2046368 13.1135
5.4548898 2.1831157 -2.2797217 12.1115
-5.8085093 2.2131381 -2.2609818 17.027
3.2509775 2.4905481 -2.2852128 20.117001
3.1535342 2.5052361 -2.233923 20.615124
3.2926862 2.5415502 -2.2322123 20.116501
5.7146864 2.851223 -2.2287869 14.111
3.8641818 3.1638269 -2.2668366 21.613501
5.5472102 3.3088343 -2.2186148 17.112249
-1.5061215 -0.070068017 -2.1659906 4
2.1523705 0.3718484 -2.106132 5
-1.5494671 0.49314487 -2.1485538 10.357143
-1.5643443 0.54965663 -2.1520655 9.7808208
-1.5825005 0.61244881 -2.1757255 12.5
-1.6029673 0.81328726 -2.123538 12
-1.577702 0.83943874 -2.1606867 12.5
-1.5651569 0.95537585 -2.1027648 15.8
-1.6055456 1.0269601 -2.1268761 18
-1.5735329 1.0086856 -2.1664777 14.347749
-1.5766573 1.1176351 -2.1590066 19
-1.5587162 1.2625932 -2.1187906 19
5.0141239 1.2733825 -2.1574497 8.1129999
-1.5609765 1.3258712 -2.1757653 19.5
5.5484667 1.6742107 -2.1374938 9.1110001
6.0871487 1.6236889 -2.1353886 8.1105003
-1.5582194 1.7434609 -2.1937389 21.347502
4.9921365 1.8468986 -2.1342628 11.1115
4.7806044 1.9669379 -2.1036503 12.113
4.1984935 2.1732628 -2.1227052 15.1125
-5.9253941 2.237134 -2.1563342 17.0275
-5.0131955 2.3667836 -2.1473444 19.026501
-4.6206369 2.3431394 -2.1336272 20.025999
6.0103769 2.3032422 -2.1382949 11.1105
6.6147237 2.9263082 -2.1467478 13.111
3.7690334 3.1344492 -2.1209135 21.612999
5.0196099 3.1921141 -2.1694911 18.112751
7.2968416 3.3169115 -2.132544 13.1095
-1.5134969 0.19711815 -2.0270491 8.5
-1.4936304 0.12482651 -2.0866895 7
-1.5139081 0.24332294 -2.0844803 8.4257507
-1.6037667 0.32770702 -2.0306046 6.5
-1.5451536 0.34233543 -2.0409663 9
1.08079 0.3836478 -2.0388305 8.3783751
1.0941978 0.41134694 -2.0576792 9
1.0655624 0.60748774 -2.0528097 12.517361
4.9470701 0.6547879 -2.0243213 4
7.5323629 0.60884696 -2.0995035 2
-1.5566351 0.84728527 -2.0827332 17.076588
-1.5807959 0.94859684 -2.0108306 17.968998
2.7219608 0.92876506 -2.0805376 9.6159992
3.1891608 0.96930659 -2.0612733 9.1145
-1.5828654 1.0463125 -2.0375354 19.328405
1.0739086 1.061177 -2.0649757 19.689026
-1.5697448 1.1725641 -2.0647907 18
6.374054 1.1305785 -2.0195439 5
-1.6043386 1.2770898 -2.0737963 21.633928
-1.586001 1.293098 -2.0708838 17.5
1.0464137 1.3118013 -2.0280261 22.6735
5.4101853 1.3901536 -2.0437274 8.1120005
-1.5769376 1.4066972 -2.071537 19.829573
1.0467856 1.4546742 -2.0193024 22.464334
2.3434448 1.4819621 -2.0943081 16.61725
3.1058462 1.6035717 -2.0909982 14.447999
1.1359361 1.7004634 -2.0759518 22.6325
5.1584411 1.9304994 -2.0198967 11.444167
5.1858592 2.1079454 -2.0615635 12.11225
4.9334364 2.2911692 -2.0477858 14.1125
3.9904881 3.1769574 -2.0853646 21.114
6.6984601 3.1522267 -2.0294847 14.1095
5.455317 3.2155988 -2.0777216 16.860626
5.5336518 3.2793677 -2.0155187 17.1115
-1.2098674 0.044380028 -1.9766176 6
-1.5234146 0.15710275 -1.9009411 6.4000001
-1.5365024 0.2688587 -1.9640527 7.1725001
-1.4956398 0.27621886 -1.9862146 8
4.7915645 0.29739884 -1.9277716 2
-1.5214052 0.35397297 -1.976935 8.5
1.0468485 0.36124635 -1.9001861 8.8378572
-1.6031938 0.45575842 -1.9025601 8
-1.5262152 0.43797004 -1.9520338 11.924731
1.0858166 0.43270034 -1.9508038 9.3770618
-1.5728371 0.53719425 -1.9067931 9
-1.5884037 0.69392318 -1.9222564 11.015834
1.0843965 0.61746442 -1.9969447 11.464166
1.0726709 0.70013636 -1.9577827 14.742762
-1.5586946 0.85058361 -1.925855 16.692734
1.0664005 0.93702865 -1.9326009 16.130501
-1.5648388 1.0953524 -1.9485896 20
1.0644866 1.0638925 -1.9554245 20.815767
3.4281218 1.0375712 -1.9054654 9.1129999
-1.5855948 1.1471761 -1.9959884 16
-1.5874013 1.2304353 -1.9652396 17.5
4.0697565 1.2825794 -1.950628 9.1120005
-1.5817264 1.3070666 -1.9716301 18
2.8675742 1.591293 -1.9237926 15.61425
5.5077887 2.1763582 -1.9729202 12.1115
-4.5869579 2.3335373 -1.9251025 20.027
5.7695627 2.8434148 -1.9184592 14.111
3.2375824 3.0738013 -1.9526186 23.115
-1.4705253 -0.057900205 -1.8480282 4
-1.3375379 0.011431295 -1.8543826 5.5
-1.2718779 0.015330343 -1.8651721 5
-1.4869375 0.16915606 -1.8801838 8.3556671
-1.5081555 0.36975962 -1.8997891 12
-1.2935864 0.35692263 -1.8492169 10.51425
2.993114 0.32808775 -1.8801204 3
3.2635288 0.30708495 -1.8234415 3
4.7975283 0.3257505 -1.8527606 2
1.0779809 0.41426435 -1.8728918 9.5
7.5762014 0.59462792 -1.8044984 2
-1.5892363 0.62526238 -1.8235868 10.666667
1.053751 0.694601 -1.8889133 14.6117
-1.6109865 0.78562266 -1.8804111 12.516251
1.0907485 0.70146209 -1.8824949 14
5.4632163 0.75061554 -1.8478253 4
-1.3438693 0.84352088 -1.8302705 17.5145
-1.6115476 0.92916799 -1.856523 14.266375
-1.4251097 0.94621909 -1.8416642 20.51725
-1.3244269 0.91359979 -1.857654 20.016251
-1.5924214 1.0073906 -1.8671662 15.301929
1.0050104 1.0712637 -1.8477973 21.872751
-1.5773785 1.1813492 -1.8060539 19.25
-1.3618982 1.199587 -1.8162174 22.0145
-1.4085685 1.3343053 -1.85338 23.0145
3.2138193 1.6187561 -1.8651702 14.113
-1.5773784 1.7126915 -1.8812256 22.349335
5.7866135 2.1802619 -1.8227572 11.1095
4.9004998 2.3441095 -1.8849838 14.1105
5.1003671 2.389045 -1.8109822 14.11
6.6219296 2.9718246 -1.855288 13.109
3.4002211 3.087894 -1.8337405 23.114
4.8127871 3.1265144 -1.8360918 18.11025
-1.5181755 0.031951223 -1.750592 4.5
-1.6054746 0.3162345 -1.7394732 6.8000002
-1.5581794 0.30496517 -1.7410836 7.3665595
-1.4999748 0.37448895 -1.7731404 12.5
-1.5221088 0.4189547 -1.7341294 11
-1.22535 0.44194764 -1.7834258 12.014125
1.0825052 0.41282198 -1.7018049 9.0038128
-1.5416083 0.55080891 -1.768157 12.359375
-1.6043094 0.63083774 -1.7791551 10.888889
-1.5482138 0.79520971 -1.7295253 20
-1.2921958 0.8975544 -1.7393155 19.01475
-1.584267 0.92127723 -1.7374514 15.339722
1.0576413 0.96220386 -1.714179 20.5
-1.5627632 1.0037284 -1.7137928 20
1.0804991 1.0873586 -1.7086726 19.707581
-1.4251088 1.1356975 -1.7548941 23.018
-1.6044999 1.2007091 -1.7557684 18.017
-1.58292 1.3453141 -1.7569678 20.601112
1.0692124 1.341331 -1.7324688 22.728849
1.1058444 1.4200701 -1.7126521 22.797501
4.2027106 1.8635113 -1.7033889 13.1105
7.1800218 1.8532054 -1.7535912 8.1084995
-6.4257946 2.1198666 -1.7143412 16.029501
-6.0690322 2.2520592 -1.7876005 17.028999
5.4749508 3.1993773 -1.7226176 17.1105
5.5056262 3.1751525 -1.7892026 17.109501
6.754302 3.1404479 -1.7179708 14.1095
7.0700688 3.3306766 -1.7157657 13.774999
-2.7391367 -0.23746487 -1.6787879 3
-1.3127172 0.023574112 -1.6272194 5.3333335
-1.5445652 0.16800033 -1.6594006 5.75
-1.521163 0.22728765 -1.6577884 7.1666665
-1.5291147 0.47579482 -1.6348165 12.001163
1.1099012 0.48062164 -1.6636244 11
-1.6066012 0.5556798 -1.6760294 10
-1.536249 0.5021373 -1.6050576 11.333333
1.0859573 0.56539106 -1.651172 13
1.1206995 0.55379665 -1.6798491 11.1305
-1.6055502 0.61077452 -1.6706034 11
-1.5324348 0.69873035 -1.604169 14
1.0566162 0.63292629 -1.6516682 13.970485
-1.5419556 0.7702809 -1.6013172 15
-1.3942955 0.78629577 -1.643405 17.5
-1.5420104 0.80144322 -1.6057137 15.5
-1.3981622 0.8046695 -1.6348896 17.666666
1.1053239 0.85539228 -1.6552294 16.130501
-1.6039972 0.94935882 -1.6750212 15
-1.5625951 0.94650978 -1.6284101 19.761629
-1.5951608 1.0957689 -1.6420944 17
1.0436445 1.0297647 -1.6093047 21.72415
-1.6131285 1.182318 -1.6034503 22.689667
4.685586 1.3183559 -1.6847621 8.1099997
-4.5969925 2.3564713 -1.6237869 21.0285
3.3967402 3.0813589 -1.6911283 23.11125
7.3991709 3.3212438 -1.6570809 13.108
-1.4840583 0.16714832 -1.5397543 8.8903189
-1.5547693 0.2761347 -1.5794835 7.5691152
-1.3461239 0.21345322 -1.5982976 8.7947226
-1.5220418 0.37080798 -1.5642632 12.642857
1.0507681 0.37405238 -1.5809832 9.8083677
-1.5451918 0.4718262 -1.5599676 12.127853
-1.3688335 0.42792678 -1.598218 12.216999
-1.5246339 0.59783119 -1.5314415 15
-1.6008327 0.68699098 -1.5974524 12
-1.5835346 0.68403941 -1.5381972 12.5
1.0505193 0.66423982 -1.5402111 16.095026
-1.2067493 0.7919786 -1.5554948 20.518749
-1.5711212 0.85190499 -1.5754402 17.616655
-1.4042585 0.83821189 -1.5617495 18.408649
-1.5682324 0.93106109 -1.5949538 19.5
1.0282995 0.99544054 -1.5668647 22.172564
-1.4578954 1.0571405 -1.5723883 23.020332
-1.4198245 1.1724918 -1.518296 23.017668
-1.5915596 1.2551907 -1.535954 19.5
4.9883652 1.3833616 -1.5341945 8.1090002
4.8701982 2.0305645 -1.5891372 12.10925
6.6773214 2.9593217 -1.5447261 13.109
3.5100923 3.1369395 -1.5896289 23.1105
5.1733513 3.1934259 -1.5438607 17.508701
-1.3367904 0.16541047 -1.4822917 8.8543596
-1.5364262 0.29879817 -1.4564914 8
-1.0051174 0.23803279 -1.4099233 11.019
-1.600872 0.34688291 -1.4907631 8
-1.5601294 0.33843213 -1.4150763 9.083333
1.0289975 0.37287161 -1.4974031 10.007
1.1246008 0.36120656 -1.4840759 8.9291
-1.5695295 0.44915748 -1.438512 11
-1.4969126 0.40869215 -1.4738127 14
-1.3520769 0.41221392 -1.4308915 13.688334
1.0879643 0.41084144 -1.4920805 10.403287
-1.526265 0.56624699 -1.4279852 13
1.0749651 0.5624066 -1.4153396 14
1.1358718 0.59563887 -1.4191747 12.861833
-1.6071498 0.60495961 -1.4393184 11.25975
1.0518308 0.60572535 -1.4675832 15.25
-1.5321419 0.76503533 -1.4861737 20.333334
-1.5736139 0.84859544 -1.4932516 18.5
-1.6038055 0.94438428 -1.4493847 15.76831
-1.5348673 0.92947781 -1.4259249 20.5
-1.4444746 0.9085412 -1.4812595 21.421421
1.1386826 0.98346704 -1.4463279 18.599262
-1.5851493 1.0214984 -1.4657009 17
-1.6041498 1.2386492 -1.4549371 19.666666
-1.5934055 1.263537 -1.4717028 19.666666
1.1462063 1.2811389 -1.4433036 22.79525
-1.5901426 1.4239804 -1.4089993 22.0194
4.958869 2.0580592 -1.4411604 12.1085
-6.3739352 2.1328278 -1.433223 16.0305
-1.2010803 0.27063 -1.3971913 11.021
-1.5790746 0.36599329 -1.3638238 8.0197001
-1.5250785 0.4606986 -1.3189597 13.166666
-1.5822642 0.57259202 -1.3747866 11.096891
-1.5784889 0.62606901 -1.3028283 12
1.0509531 0.63686514 -1.3276124 15.625187
-1.5196866 0.73701394 -1.3539121 20
-1.5498346 0.84516376 -1.392974 17
-1.6243454 0.90181714 -1.3737706 16
-1.5863392 0.99904853 -1.3356491 17.27
-1.5586878 1.0442542 -1.3486153 20
1.0544997 1.0464003 -1.3230101 21.791916
-1.615454 1.1377243 -1.3678759 23.025751
-1.5898415 1.1074026 -1.318495 18.5
-1.5913111 1.2256148 -1.3077787 20
-1.6062362 1.3439218 -1.3931416 21.019644
-1.5883528 1.3040169 -1.3297837 23.022598
3.5696509 3.0929711 -1.3453853 23.108999
6.8163567 3.3232403 -1.3439693 14.10725
7.4556704 3.3053794 -1.3449732 13.108
7.5958228 3.3319945 -1.3289834 13.107
-1.5529531 0.09610837 -1.2999613 5
-1.457384 0.07438308 -1.2571694 6.75
-1.5361366 0.25490385 -1.2395194 8.1059732
1.0638704 0.37584469 -1.2555137 10.361549
3.8800254 0.31839684 -1.2288532 2
-1.5527322 0.45930588 -1.2598774 11.214286
-1.5361464 0.52014297 -1.2469485 13.443085
-1.4998138 0.55177236 -1.2729896 17.200001
-1.5418527 0.6736877 -1.2452302 19.5
1.0561731 0.61222637 -1.2659277 15.973312
-1.5163984 0.71244735 -1.2417232 20.5
-1.5627484 0.93556643 -1.2722394 19.527863
1.0365688 0.94923574 -1.27704 22.488132
-1.4559467 1.0905588 -1.2742977 23.020571
5.2153335 3.1601353 -1.2612509 17.1075
7.0218153 3.3360229 -1.2859617 14.108
-2.3843477 -0.19393338 -1.156425 3
-1.5356131 0.011961691 -1.1581495 4.5
-1.4547174 0.053110335 -1.1537321 6.583333
-0.88069201 0.042275667 -1.1739883 6
-1.4817104 0.145169 -1.1580049 8.6939592
-1.377646 0.18113387 -1.1911664 8.7715216
-0.95749527 0.24545421 -1.1107714 11.019
1.0564686 0.25221324 -1.1150476 8
-1.5711761 0.36105502 -1.1220533 8.5
-0.39515561 0.35790503 -1.1963198 16.009001
1.0507641 0.36750507 -1.1835854 10.148179
-1.5064791 0.47993466 -1.1285533 15.976395
-1.4487724 0.463368 -1.1722436 13.836889
-0.38760448 0.49183252 -1.108176 21.00975
1.0788943 0.45208398 -1.1764189 12
-1.5479262 0.52881664 -1.1514475 13.818182
1.0899881 0.58427233 -1.1529582 15
-1.5551521 0.65486968 -1.1800092 13
1.0474266 0.63776708 -1.1278101 16.282543
-1.5266733 0.76640064 -1.1686099 19.887501
-1.4988648 0.75145531 -1.1849763 18.5
-1.5388072 0.87370282 -1.1239774 19.955608
-1.4692622 0.8663947 -1.1898136 20.265707
-1.118511 0.82971227 -1.1240182 22.02
0.99900246 0.92721778 -1.1028798 23.110834
1.0644283 0.95578086 -1.1810776 22.585791
-1.5544802 1.0283229 -1.1656883 20.666666
-1.6037259 1.1366875 -1.1110709 20
3.7502666 3.1155961 -1.1143832 22.1075
4.8329234 3.1909757 -1.1683283 18.60725
5.2733293 3.1893318 -1.150321 17.441666
6.6967115 3.2968376 -1.1005797 14.1065
6.9578381 3.3358254 -1.118221 14.1075
-1.5327495 -0.0025668801 -1.0654125 4
-1.5476171 0.076618582 -1.0639529 5
-1.4889917 0.037547041 -1.0172489 6.5
-1.459429 0.16101301 -1.056401 9.1152039
1.1935126 0.13338755 -1.0054194 3
1.5752405 0.15463439 -1.095192 3
1.7013261 0.181849 -1.0724705 3
-1.5314002 0.22032703 -1.0835555 7.5
-1.1533562 0.27855429 -1.0977712 11.021
-1.5683466 0.33364654 -1.0327941 8.5075836
-1.406381 0.39389187 -1.0083817 13.885036
1.8400568 0.33563328 -1.0916024 5.5
1.0933552 0.41285115 -1.0717578 10.841053
1.1029586 0.40607753 -1.0490493 10.5
1.4972438 0.5110541 -1.0981698 10.1115
-1.5741436 0.60415012 -1.0490065 12.613479
1.0483614 0.66273081 -1.0659665 17
-1.5793482 0.75885242 -1.0151973 17
1.0218241 0.80703127 -1.0642582 21
1.7986721 0.87173223 -1.0603261 14.504601
1.535054 0.92258042 -1.0284339 17.1145
1.7763121 0.97823918 -1.0431736 16
-1.6240816 1.0684724 -1.0419661 21.275459
1.7469937 1.1638221 -1.0523889 18.7136
1.7421854 1.2532187 -1.005554 20.109213
-1.5908709 1.3519619 -1.0337653 22.622799
-1.6065947 1.4146134 -1.0725023 23.022499
1.7397373 1.4106131 -1.0188427 22.113125
3.818258 3.1251113 -1.0244848 22.107
5.4061356 3.1982422 -1.0873384 17.10675
5.908247 3.2137642 -1.0581512 16.106501
7.6937957 3.331183 -1.0704236 13.10625
-1.8332365 -0.14546263 -0.92421293 3
-1.45156 -0.015829252 -0.91945773 5
-0.98337334 -0.023162531 -0.90268695 3
-1.5129113 0.074787855 -0.97286332 5.6666665
-1.542825 0.15418036 -0.97910726 6.5
-1.4912345 0.17814648 -0.98576266 8.5
1.0069016 0.29586428 -0.92481816 9.4582996
-1.5565208 0.33370876 -0.96335787 8
1.0614873 0.30177516 -0.94463754 9
3.9245539 0.31024513 -0.92942619 2
-1.5596228 0.45376277 -0.93062639 13.277778
1.0799124 0.46101311 -0.94033194 13
-1.542719 0.55103636 -0.96199179 14.480769
1.0157123 0.55835748 -0.95235705 15.079751
1.7395416 0.50651306 -0.96628761 9.1090002
-1.5381463 0.84538269 -0.92696214 20.5
-1.5802901 0.97199488 -0.9324162 18.408901
1.0261045 0.92841488 -0.93976271 22.269718
1.7452431 0.90849203 -0.97711408 15.709
-1.5985342 1.1573364 -0.96390939 23.026875
1.7557218 1.1778862 -0.92494309 19
3.9574246 3.1988866 -0.9499377 22.106501
5.9648995 3.2120724 -0.92345107 16.106001
-1.6004183 -0.12688284 -0.860174 3
-1.5775956 0.040640652 -0.84206742 4
-1.5195853 0.11329705 -0.89034915 6.5
-1.4646708 0.16929878 -0.85276848 8.4954815
-1.5244066 0.25179693 -0.84469223 9.3005228
-1.5384716 0.3355104 -0.80404055 11
1.0526454 0.35134602 -0.84870809 10.755909
-1.5273722 0.45161173 -0.83545387 14.219424
-1.4928503 0.49767482 -0.83278716 16.5
1.0650146 0.46380672 -0.83735251 12.666667
-1.5269696 0.51032901 -0.88812572 13.484367
1.0508399 0.54506236 -0.8283084 15.187302
-1.5572395 0.64199531 -0.86270463 15
1.0644184 0.63399225 -0.83438987 16.911392
-1.5284441 0.77107531 -0.863271 18
-1.5540279 0.85271138 -0.85594851 20.186546
1.0543174 0.89278573 -0.82171857 23.111502
1.755338 0.88810849 -0.88350534 15.125
-1.5749341 0.93098491 -0.86719894 20.124857
-1.5890417 1.1267935 -0.80093455 21
1.7049565 1.4033598 -0.82960713 22.838226
6.5689883 3.2657008 -0.86724192 15.10575
-1.589696 -0.10085069 -0.7534529 3.5
-1.0671102 -0.054610461 -0.70566094 4
-1.504564 0.078380845 -0.79231465 6.8571429
-1.5440807 0.15403932 -0.74065077 8.5
-1.4735794 0.19108602 -0.72997391 9.7433605
1.227049 0.11525427 -0.72433084 3
1.4719417 0.13616301 -0.71698308 3
1.5317571 0.13468428 -0.78140646 2
1.7012258 0.14138623 -0.73689425 2
1.052032 0.29969263 -0.75450873 9.333333
3.1846809 0.26439697 -0.78763211 2
-1.5478779 0.32239091 -0.7102493 10
1.0655272 0.36684421 -0.76283211 10.871988
1.7541981 0.31163782 -0.78949118 5.875
-1.5129988 0.47387716 -0.76830989 15.784402
-1.4449699 0.43893248 -0.73965853 14.564981
1.1021266 0.42236242 -0.79979169 11.105206
1.7294679 0.45813847 -0.74313575 8.4718132
-1.5196279 0.54251158 -0.76077771 17
1.036423 0.53349018 -0.75429004 15.875
-1.5620457 0.6938501 -0.76108897 15
1.0510308 0.65450186 -0.76468712 16.825397
-1.5501003 0.78587294 -0.7393285 21.359421
1.0489767 0.77707696 -0.79534227 21
1.7238555 0.80744487 -0.73435867 14.418953
-1.5622482 0.95709509 -0.70145911 21
1.036495 0.96076548 -0.7510938 22.841633
-1.622618 1.0685937 -0.73461235 21.777248
-1.5921634 1.0834396 -0.71473569 20.5
1.724077 1.1765082 -0.75515062 19.824335
3.9268622 3.1094954 -0.71585894 22.105249
5.6700864 3.2138638 -0.7281037 16.105249
6.7533898 3.2799892 -0.78828943 14.1065
7.7505836 3.3112533 -0.75840646 13.10625
-1.4767441 -0.071678475 -0.69128394 4
-0.98697507 -0.068028614 -0.68699032 4
-1.629531 0.19360498 -0.66087091 9.2833757
-1.5899545 0.15687697 -0.63513422 8.5296659
1.1644346 0.1353718 -0.64785409 3
1.7183892 0.15769833 -0.64871794 2.5
1.0211176 0.27867553 -0.64487207 10
0.9925909 0.31618142 -0.63561749 11
1.0434389 0.32856375 -0.67906773 10
-1.6127452 0.42323375 -0.62326747 13.529834
1.7060808 0.49904603 -0.69220781 8.9053993
-1.572112 0.59291691 -0.60224473 13.466666
1.0274013 0.53868902 -0.61499864 16.5
1.5914849 0.50525552 -0.68521178 10.10975
-1.5162008 0.67264682 -0.60846728 19
1.0768156 0.65508974 -0.6930759 16.5
-1.6493293 0.7975089 -0.63077182 19.47422
-1.4864402 0.71102279 -0.62553775 20
-1.7028846 0.8890965 -0.63765961 20.908812
-1.6563762 0.86569619 -0.64355707 20.583334
-1.5787122 0.87655842 -0.67749304 18
-1.4837509 0.80183285 -0.69750309 21.392981
1.0173761 0.85285199 -0.65774393 22.621084
-1.6122109 0.92852497 -0.67292482 21.75
-1.5800996 0.98977256 -0.62319243 19.666666
-1.6755509 1.0799353 -0.67641872 23.029167
1.685842 1.1534991 -0.66077083 19.771521
-1.590718 1.2607363 -0.69321859 22.826603
5.2468643 3.239207 -0.67040122 18.105
7.9967871 3.3969982 -0.62639403 13.105
8.9943647 3.4505219 -0.64849794 11.105
-1.5323521 0.049705371 -0.51362282 5.8666668
-1.541283 0.23844238 -0.53247738 8.1610165
-1.5408595 0.34184617 -0.554977 10.192572
1.0022215 0.30989128 -0.55246276 11.146498
-1.612119 0.42320281 -0.53234184 13.701917
1.0278603 0.47879893 -0.56294394 14.25
1.6066334 0.46450061 -0.55526942 9.2145557
-1.57409 0.54367316 -0.59116346 16
1.0423096 0.53550684 -0.51115894 16.222221
-1.5740473 0.62845153 -0.5803706 14.177951
1.0118474 0.6182763 -0.58540148 18.453243
-1.5428156 0.79088515 -0.5111658 20
-1.6022091 0.88501745 -0.58721542 18
1.5852594 0.81009787 -0.56329644 15.1035
1.7150365 0.80259651 -0.51554155 14.925228
-1.5658398 0.95776969 -0.55859321 20.249054
-3.0910921 1.2856148 -0.58729124 18.034
6.4661531 3.2616343 -0.50539404 15.1045
6.62568 3.2479529 -0.55506629 15.10575
-1.3679169 -0.1084099 -0.47442532 3
-1.052866 -0.011554837 -0.47801596 3.3333333
-0.95911199 -0.064016834 -0.45198861 3.5
-1.6142137 0.081441775 -0.4966011 4
-1.5234969 0.059111111 -0.47385955 5.818182
-1.607013 0.13667388 -0.44607389 6.6509428
-1.5136873 0.13273716 -0.4408963 6.8095241
-1.4437841 0.18236612 -0.41955599 9.4075623
1.5929303 0.13293351 -0.46283716 2
-1.5154005 0.23826432 -0.42076325 9.2296429
1.049842 0.34846961 -0.46935216 11.045319
1.1092348 0.39417589 -0.40740263 9.6818342
-1.5267656 0.43707407 -0.46486771 12.8875
-1.4412519 0.46197477 -0.4470824 15.079718
-1.5389185 0.55027789 -0.47336268 15.639361
-1.7008066 0.68925804 -0.40093249 18
1.0505131 0.64606309 -0.46251816 18.018322
-1.5425173 0.73600721 -0.45931801 19
1.6080594 0.72198296 -0.46090257 14
-1.7223423 0.82054311 -0.41077214 19.166666
-1.558053 0.87868679 -0.46358708 20.668533
1.0498401 0.89871311 -0.41339403 22.992165
-1.7257069 0.93678755 -0.41093314 21
-1.5714251 1.0101349 -0.4926011 21
1.6644206 1.1623582 -0.47239751 20.582621
3.4861052 3.097347 -0.43930677 23.1035
5.7735868 3.217592 -0.40070117 16.104
9.0443296 3.4246309 -0.44206238 11.1045
-1.6783334 -0.033524312 -0.316064 4.625
-1.2309257 -0.082638338 -0.3876721 3
-1.0454395 -0.012296492 -0.30138436 4
-0.97361219 -0.073149726 -0.35782197 3
-1.5063193 0.077701591 -0.3618024 6
1.262508 0.12529317 -0.32948494 3
1.7386115 0.13953516 -0.34671775 2
1.8047508 0.16276172 -0.30104411 2.6666667
-1.6661911 0.26664969 -0.39496771 10
-1.5076401 0.23414701 -0.37770319 9.5093813
1.0127407 0.21217416 -0.33622447 9
2.4587679 0.21552622 -0.39029604 2
1.0525049 0.37603319 -0.31418577 11.25
-1.7046695 0.4460085 -0.39736408 13
-1.6765043 0.43112659 -0.34905475 13.323854
-1.5298452 0.45637718 -0.33456689 13
-1.4289898 0.48340759 -0.3262223 15.51089
1.0253334 0.40850347 -0.36613846 10.55875
1.6157122 0.44654119 -0.36125913 9.1049433
1.7403998 0.48787755 -0.37453592 8.7718325
-1.5278225 0.53949159 -0.34050241 15.559997
1.705333 0.50670725 -0.33495232 9.100666
-1.7158096 0.62634057 -0.39126253 16.5
-1.6009657 0.62439775 -0.31932229 14.0315
-1.5667632 0.6099152 -0.32296759 17
1.024924 0.67991573 -0.34524137 16.239899
-1.4359061 0.79392326 -0.38276353 21.287968
1.5794243 0.74579728 -0.31990978 14.875715
-1.7271975 0.83182985 -0.3572768 19.533455
-1.5575676 0.83487976 -0.34339082 20.408321
-1.4480819 0.81426692 -0.37443838 21.318998
-1.7274017 1.0455573 -0.34073979 23.033751
1.0651898 1.0472325 -0.36420822 22.208889
1.6874106 1.1154127 -0.31479132 18.900379
4.8903465 3.2192376 -0.38750666 18.60375
8.0539637 3.3737571 -0.31416404 13.105
-1.6585429 -0.054129787 -0.27389523 4.5
-0.97860295 -0.054226849 -0.27254766 3
-1.6768939 0.072266556 -0.28587934 6.5
-1.0131352 0.044719424 -0.21193713 4
-1.7915329 0.19308995 -0.24716169 9.0384378
0.99667466 0.17817102 -0.28062662 8
1.0991955 0.11858508 -0.23670697 3
-1.5508277 0.20879312 -0.21233457 6.5999999
1.6048638 0.29487592 -0.2714932 5.3333335
-1.5702091 0.31835619 -0.20022045 9.0331049
1.7926905 0.30466917 -0.23470217 4.6666665
-1.688432 0.42068931 -0.24035922 12.99725
-1.5243633 0.41542637 -0.23143224 12.5
1.0040388 0.44717148 -0.29076126 15.5
1.5756106 0.45884305 -0.26028544 8.9174089
-1.5786848 0.5928604 -0.21212012 14.002947
-1.570789 0.62748849 -0.28162396 15
1.5989702 0.67309898 -0.23328352 12.598969
1.0348362 0.70030874 -0.20946929 21
1.73692 0.78366274 -0.2858845 13.489
-1.7652704 0.88639396 -0.2574288 19.983137
-1.6042706 0.89110291 -0.22344783 18.5
-1.5715852 0.97274041 -0.26494044 21.75
0.98819423 0.9886027 -0.29960102 21.971188
-1.5781218 1.0018289 -0.20361033 20.84388
1.5692277 1.075526 -0.27304009 20.201256
1.5599791 1.1479045 -0.24508148 20.289547
3.5729558 3.1085377 -0.26006532 23.102499
-1.6242169 0.08944346 -0.13477929 4
-1.5443709 0.049143489 -0.10586363 5
-1.0740359 0.00042640488 -0.13363743 4
-1.612123 0.12520222 -0.16371389 4.8333335
-1.5125517 0.13293946 -0.13614145 6.3823528
-1.409839 0.19467051 -0.14623433 9.5412502
0.98958081 0.17901146 -0.12096672 8
-1.5229086 0.22589551 -0.13475999 8.7694998
0.99600708 0.26992458 -0.18234773 10.973201
1.0001823 0.27712977 -0.19993341 10.962963
3.3551135 0.28135055 -0.13452923 2
1.0423576 0.32521617 -0.13089745 10.36066
-1.5055941 0.42895442 -0.1534493 13.5
-1.6029093 0.56297743 -0.15872607 13
-1.5410651 0.54819036 -0.13931216 14.921806
-1.4938408 0.51610237 -0.14729232 15
1.0336413 0.577766 -0.15783735 17.441122
1.7417032 0.50318438 -0.16080607 9.6022501
-1.5287826 0.74838692 -0.15715289 18.5
-1.6036141 0.87587643 -0.1967259 19.033249
-1.4727613 0.81950122 -0.15506178 21.0366
-1.5810267 0.92860246 -0.15036634 20.342607
-1.5792882 1.0750544 -0.10210632 22
-1.7641633 1.1416497 -0.12254655 23.040503
1.5021449 1.3622 -0.16050863 23.09775
1.7124397 1.5497431 -0.190992 23.099001
3.5425084 3.0862808 -0.12663385 23.1035
5.8764553 3.2284555 -0.12309432 16.103001
6.5229955 3.2422113 -0.19319862 15.1045
-1.7673148 -0.087859668 -0.027168542 4
-0.94290704 -0.070250779 -0.09601599 2.5
-1.7573826 0.077594474 -0.044353694 6.5
-1.6890601 0.028120831 -0.0046311617 5.6666665
-1.5259802 0.1023839 -0.04174453 6.0588236
1.2905623 0.12176066 -0.086313665 3
1.7959758 0.14624527 -0.0044247508 2
-1.5216765 0.24467912 -0.05700326 8.8864479
1.0210556 0.29604989 -0.0004581511 10
2.5047457 0.20708773 -0.089742899 2
-1.5200675 0.34448534 -0.045300245 11.25
1.0513847 0.36260462 -0.073824704 10.20319
1.7609361 0.38957268 -0.079537332 6
-1.5786465 0.45059758 -0.016399285 11.5
0.98241597 0.49312162 -0.056134813 18
1.0026337 0.46491703 -0.096660756 16.545454
1.1413656 0.42142221 -0.0026738048 9.4266672
1.5164557 0.46100202 -0.072305962 9.5
-1.5433602 0.53403336 -0.013762176 14.211585
-1.4388219 0.52982199 -0.071626931 16.037849
1.0270116 0.56654572 -0.063677222 17.1614
-1.5401959 0.62573999 -0.0015415251 16
1.0328703 0.64445341 -0.079322115 18.011448
-1.5649232 0.75824243 -0.0070327623 17
-1.4595971 0.72152245 -0.062210381 19.0425
1.117668 0.81684166 -0.0020045042 16.76
-1.5740825 0.93224514 -0.051116519 20.564034
1.032009 0.91994166 -0.050287336 21.92329
1.5588685 1.0848399 -0.017068267 19
1.7530451 1.0091441 -0.012556702 17.2115
1.5451775 1.1117094 -0.094677269 19
1.5817014 1.3412012 -0.052188456 23.1005
1.6810892 1.30097 -0.015504003 20.59675
6.0884829 3.2554264 -0.033238471 15.602751
8.9438467 3.42764 -0.036822438 11.6035
9.3006134 3.4333565 -0.010747075 11.1035
-0.8173303 -0.052259784 0.025133252 3
-1.7702419 0.0034332862 0.064791322 5.4615383
-1.6199691 0.06734027 0.048696399 5
-0.24308711 2.6594847e-05 0.076377392 2.6666667
-1.750053 0.18971443 0.068375051 8.9274998
-1.5290619 0.1790825 0.048041165 8
1.5586212 0.12386476 0.027492285 2
1.8191088 0.16072893 0.01787287 2
-1.52599 0.23103948 0.037573814 9.1332083
1.04213 0.2007076 0.01401794 7
1.279603 0.22612016 0.093034863 5
-1.5045106 0.35762516 0.069853187 11
1.5061898 0.3368654 0.044432253 7
-1.7646582 0.40710348 0.037144005 12.297536
-1.5210018 0.46387213 0.038885593 13.275113
-1.4252763 0.4645074 0.043155193 14.31659
1.0341539 0.4138937 0.060816675 10.295834
1.5769358 0.44736525 0.066822171 8.6726017
-1.5417234 0.5338906 0.030658722 14.1
1.032473 0.56944388 0.079083025 15
-1.5615723 0.62079477 0.076788306 15.75
1.0144042 0.68787962 0.021021605 14.935735
1.5116676 0.6891762 0.075862676 13.990189
-1.8069125 0.79955393 0.044875622 18.132126
1.0168145 0.71513915 0.0058671832 21
1.7748404 0.71168518 0.050599992 12.699599
-1.5881432 0.86515254 0.034770578 19.269157
1.0257472 0.8734498 0.057181209 23.1005
-1.8349891 0.9295913 0.019383475 20
1.0262054 0.95045042 0.025097152 20.055555
0.97889411 1.0716511 0.026109934 21.52043
1.5074064 1.096543 0.03899765 20.698917
-1.8144687 1.1260064 0.076530576 22.305532
3.6102078 3.0818086 0.054017872 23.102501
-1.5029674 -0.13243054 0.13104284 2
-1.5637368 -0.00099597417 0.17159832 4
-1.0179486 -0.012088927 0.17062253 3.5
-1.7980888 0.095286675 0.13896286 7
-1.6068807 0.026440417 0.17621607 4.5
-1.58099 0.022020083 0.1896818 4.5
-1.0738875 0.02999023 0.15460265 3.5
-1.5558187 0.15677956 0.12814137 7
-1.4049181 0.16660678 0.12927206 8.4177494
0.98896009 0.19020049 0.13081557 9
-1.5347472 0.22792014 0.15980774 7.875
0.99202746 0.26018262 0.16591384 10.647058
-1.8252931 0.37924454 0.18883884 11.5
-1.5767953 0.32644305 0.14294071 9.1047335
-1.8458027 0.44399688 0.19817275 12.5
-1.7701237 0.44815376 0.12162983 12.459521
-1.5745668 0.46035948 0.14370687 11.5
0.99986607 0.48047811 0.19241463 16.722221
1.0059304 0.49015021 0.19962794 15
-1.5820988 0.59314436 0.18656683 14.038676
-1.5826836 0.68625414 0.16388635 15.666667
0.98317969 0.65118128 0.18711126 21
1.0111966 0.62663406 0.18134625 20
1.4108052 0.67214924 0.18479663 14
1.5893484 0.71068746 0.13783395 12.373407
1.7457192 0.77105212 0.13547397 12.326
-1.76789 0.86054593 0.16756564 18.418644
-1.5788231 0.85257286 0.13919407 19
0.99624866 0.99499589 0.17358118 22
1.0125349 0.92815441 0.13229865 21
-1.5840979 1.0069518 0.14799145 21.1078
-1.7782067 1.1349317 0.12761146 22.043325
-1.6319695 1.1414456 0.10930985 22.798374
1.1757091 1.119452 0.17357659 19.292002
1.5036342 1.1701802 0.15306449 19.831964
1.4828992 1.3920865 0.16945761 22.693649
1.6723374 1.3639168 0.11705571 21.095249
-1.2792225 -0.13389701 0.21024895 2
-0.99915957 -0.10096351 0.28857273 2
-1.5573477 -0.0019247645 0.28794605 4
-0.8584609 -0.090632811 0.25094163 2
-0.13475597 -0.014070459 0.23298609 1
-1.6205608 0.094758481 0.20962797 4.2857141
-1.5691094 0.16215484 0.27631462 6.8666668
1.5791957 0.13212216 0.25485998 2
-1.558406 0.24105102 0.24005859 8.7297001
0.98301268 0.28677511 0.25023678 11.511616
1.0158532 0.26780242 0.26739562 8.75
1.4852014 0.24394298 0.27878451 4
-1.8267403 0.3866916 0.20866174 11.6
1.0205421 0.33578748 0.27834943 10.466214
1.4723448 0.35103601 0.25541937 6
1.508382 0.32420492 0.29123831 5.5999999
-1.8398399 0.48520273 0.23960865 12.5
-1.551507 0.46925554 0.27261236 12.322222
1.4379846 0.49187875 0.20194679 10
-1.5734158 0.55328536 0.25362244 13.884727
1.0013561 0.51839989 0.28160846 18
-1.6059896 0.62895143 0.2909894 14.4401
-1.5676135 0.61159378 0.27577502 14.666667
1.0085573 0.62537825 0.23746496 18.927544
1.4139404 0.62609148 0.21064943 13.333333
-1.6100314 0.7383129 0.21244068 16.5
-1.5778759 0.71060783 0.26844341 16.5
1.7421732 0.74539578 0.25757372 13.097
-1.5806506 0.81075573 0.27056527 18
-1.6066271 0.95116442 0.27833715 19.781973
-1.5748341 0.95970106 0.21792756 20.25
-1.6152179 1.0370289 0.2610929 21
1.0235 1.0234008 0.29247397 21.5
-1.5956049 1.115947 0.26537582 22.5
1.7443898 1.2573977 0.26966721 20.097
5.8980918 3.2058663 0.28969508 16.1015
6.3049088 3.2567074 0.22544312 15.103
-1.8165727 -0.15668969 0.31577951 3
-1.8516887 -0.059457816 0.36574101 4.5
-0.7383517 -0.054382384 0.30166584 3
-0.29728466 -0.0069753169 0.31014121 3
-1.8391366 0.088053897 0.39879525 7
-1.6091299 0.011423623 0.3318522 3.8571429
-1.5720261 0.093971677 0.39094609 5
-0.17648235 0.027210984 0.39260572 3.25
0.29580033 0.046154801 0.33761609 2
0.96622449 0.090058982 0.36721462 3
-1.8101103 0.17079498 0.31226379 8.3745003
-1.549628 0.11108297 0.30424374 5.7857141
0.98023254 0.1549186 0.37427583 7
1.002911 0.15207681 0.34031701 7
-1.8304172 0.28326449 0.35676253 9.5
-1.5307595 0.26317874 0.34853482 8.6741867
-1.4437578 0.25522283 0.35782492 9.0472498
1.0537241 0.28152132 0.30598271 6
-1.8041594 0.38214141 0.3988353 11.2
-1.5746528 0.33965018 0.35768598 10
1.0191102 0.38114536 0.33269256 10.573167
0.99395734 0.46400744 0.31731397 16
-1.8390169 0.53840232 0.39459026 12.75
-1.5673671 0.53205645 0.36451983 13.108042
1.0134082 0.56435865 0.35397905 15.545455
-1.5910467 0.62911826 0.36922699 15
1.0225165 0.66065747 0.34013516 15.19105
-1.5992881 0.78643721 0.39764887 17.5
-1.6334335 0.85120219 0.300125 18
-1.5918294 0.89801478 0.33460844 18.636364
1.012934 0.8825928 0.32612646 22.411476
-1.6093839 0.90565217 0.33125859 19.333334
-1.5923952 0.90270662 0.364685 18.513535
-1.6326237 1.0388796 0.37841523 21.022499
1.0205233 1.0157695 0.36738116 21.127905
1.3930452 1.0786417 0.35720292 20.25
-1.6294923 1.1764764 0.30553925 23.044416
1.0297452 1.1045704 0.39311641 22
-1.6121097 1.2092619 0.37692344 22.84535
0.9575057 1.3695648 0.32961845 23.088749
1.6845834 1.3835866 0.39768732 20.092501
3.7810659 3.1219013 0.35196829 22.099251
6.0887985 3.25158 0.31553704 15.6015
8.5213385 3.4504986 0.33031929 12.1025
-1.4539673 -0.12084165 0.46600151 2
-1.8518293 -0.032629155 0.45521832 5
-1.7341189 -0.023689022 0.4071399 5
-0.74734527 -0.045575533 0.49372143 2
-0.54788405 -0.042789318 0.43819177 2
-1.6151973 0.039633885 0.45197994 4
0.54733092 0.01409939 0.49976909 1
-1.5081253 0.1729047 0.48384774 7.1428571
-1.5295424 0.27110416 0.454864 8.6520624
1.0160354 0.22673528 0.48916835 7
1.2634817 0.28293547 0.49630702 5.5
-1.8784463 0.36850709 0.45885658 10.875
-1.5662179 0.34012288 0.44272622 9.5212498
-1.8882823 0.421354 0.45211476 12
-1.7611122 0.47863972 0.45102352 12.771352
-1.6202872 0.49915278 0.43536961 13.046
-1.5299952 0.47318414 0.45297134 11.965751
1.0240375 0.40747193 0.47761095 8.3374996
1.2108134 0.44034213 0.46052039 8.0893755
1.4593154 0.43571311 0.41954106 8.8624611
-1.720068 0.50714344 0.47034121 12.6467
1.017141 0.55774337 0.42402542 15.25
-1.6086882 0.64411902 0.47456008 14
0.9959358 0.68197888 0.43587911 17.666666
1.0186396 0.70668805 0.43053627 13.164962
1.1905165 0.74382913 0.47828519 12.736293
1.3885593 0.75595838 0.45348293 15
1.4781641 0.72580224 0.41551429 13.8936
-1.805953 0.80207956 0.40003282 17.37575
-1.5912806 0.89591104 0.41048765 18.053461
1.4101011 0.87157357 0.40286607 17
-1.5963783 0.97361362 0.45084709 19.200001
0.99944645 0.90714502 0.49204886 22
1.0021751 0.94984341 0.46667516 19.793959
-1.6420979 1.0201043 0.43268275 21
1.0433639 1.0574988 0.41932744 21
-1.7945997 1.1579155 0.40141708 21.965769
-1.6437116 1.1597955 0.41161537 21.0532
1.1612953 1.1140205 0.43777168 18.222866
1.451219 1.1262308 0.44817942 20.280748
-1.6000135 1.2157862 0.42657256 23.042
1.4311645 1.3661468 0.49475139 23.092667
-1.4186236 -0.17131527 0.54019779 2
-1.3111371 -0.14870282 0.51782817 2
-1.0771515 -0.12939294 0.56112599 2
-1.5603809 -0.0031542662 0.53019333 4.5
-0.24498421 -0.03678247 0.5682708 1
-1.651541 0.022541819 0.55390841 3
-0.61817545 0.0047295084 0.56966066 3.5
0.96781206 0.15740353 0.55994046 7
1.5461276 0.19753437 0.50834143 3.3333333
-1.5548029 0.22439685 0.55696249 7.6641307
0.97910053 0.22334135 0.55275226 8.5666666
1.5209695 0.27038682 0.54724652 5.0714283
-1.544331 0.33631772 0.53575379 9.583334
0.98065341 0.31864595 0.52770537 11.630067
1.0129173 0.33938012 0.57004088 9.5
1.5112581 0.34663022 0.57074767 6
-1.9339032 0.46065307 0.54947078 11.52323
-1.586861 0.47024959 0.50520921 11
0.98148042 0.45862487 0.50753385 15
1.3784801 0.44385585 0.58468658 8.9656868
-1.5873781 0.58599669 0.53417742 13.428039
0.98576981 0.58226424 0.58742076 17.823038
-1.6092178 0.63649619 0.57875866 14.168875
-1.592106 0.61129344 0.59095693 13.666667
-1.5956725 0.77867001 0.59581631 15.5
1.3622186 0.71021765 0.5808174 13.84075
1.5404242 0.71409756 0.52049148 11.703705
-1.9575473 0.88513678 0.54848117 17.543251
-1.7082399 0.81508559 0.51245522 16.618786
-1.6164585 0.88788712 0.54125446 18.5
1.0193365 0.8594197 0.50395232 21
-1.6247845 0.9379009 0.54142118 18.5
-1.642737 1.1295933 0.54154903 22
1.4551052 1.1554877 0.51486063 18.413279
-1.9739045 1.2051294 0.54409516 21.043301
-1.7710962 1.2323356 0.52172828 21.816576
-1.6511655 1.2111319 0.59743571 22.54775
1.394622 1.455873 0.51761544 22.311666
-1.4191213 -0.16861074 0.62148476 2
-1.6295277 -0.0008219108 0.64010656 2
-0.70832491 -0.058818564 0.62619716 3
-0.31657463 -0.027358962 0.65888542 2.5
-1.6214849 0.035246965 0.68314207 3.5999999
-1.5527054 0.089650974 0.69788247 4.5
-0.89776218 0.020903127 0.69181639 3
0.21490377 0.017717276 0.64700556 1
-1.6210705 0.18051536 0.60968161 5.7647057
-1.5685979 0.13305876 0.67608976 5.9285712
0.97422552 0.11297599 0.63875073 5
-1.5433489 0.20441811 0.67183238 6.5
1.5840849 0.25331393 0.69084483 4
-1.6109577 0.32443017 0.63255566 8.5445004
0.99748689 0.34057805 0.69171888 9.3978844
1.0107155 0.31540814 0.68069637 8.8571424
-1.6208737 0.42815745 0.67039865 10.440958
1.3438731 0.4875232 0.67271453 10
-1.6087952 0.52642351 0.66823918 13
-1.5984106 0.55132246 0.63064617 13.238761
0.9838109 0.51664758 0.60855418 16
1.5368725 0.51734012 0.60093272 8.5336113
-1.6460019 0.63550681 0.67418003 14.215307
-1.5846053 0.66013354 0.66603869 14.25
0.99714762 0.61913633 0.67406482 15.310085
-1.9575424 0.74622756 0.6627332 14.647099
1.3529279 0.71324593 0.6031208 14
0.98007679 0.82592636 0.62874299 22.731363
1.3712651 0.86793745 0.6737718 16
-1.6269261 0.95118934 0.65210932 18.901398
-1.5917201 0.97046685 0.6410569 18.85
1.007117 0.92490757 0.67553723 20.703159
1.3479619 0.94268036 0.66103697 17.5
-1.9913058 1.0735034 0.60338104 18.796625
-1.6274363 1.0763326 0.62515187 21
1.3467784 1.0780466 0.65929073 19.09
-1.6226403 1.1307901 0.62180263 22
-2.0004778 1.2970912 0.61484808 21.5
-1.6198744 1.2499156 0.61105281 23.04425
1.2748842 1.2811413 0.65667844 20.487101
-1.9483376 1.4590991 0.64789796 23.024
1.1234025 1.4050009 0.61652207 21.087999
1.2739506 1.433094 0.69483531 21.836876
0.94468951 1.5589731 0.68568122 23.086
5.2065239 3.0593736 0.65860915 16.099501
5.8488655 3.234652 0.61861479 16.10025
6.0360579 3.2181249 0.61172098 16.1015
-1.5424161 -0.022047454 0.74709719 3.125
-0.85031873 -0.0971184 0.79166204 2
-0.34344196 -0.030039959 0.78584099 2
0.14189012 -0.0055349539 0.791888 2
-0.70919096 0.020058446 0.70686144 3
-0.13261585 0.02095844 0.74802339 3.3333333
0.24765784 0.014274484 0.79598528 2
0.32653725 0.032370146 0.72045255 2
0.40330711 0.023599016 0.72161448 1.8
0.54670328 0.020606766 0.73504978 1
-1.5435934 0.16772392 0.75470972 6.3611112
1.4954461 0.12755121 0.7627371 2
-1.5665216 0.25189847 0.75813961 8.1227856
0.97538698 0.28682834 0.72644395 10
1.1052696 0.23024155 0.72503871 4
1.6889412 0.25284615 0.79462671 4
-1.5571241 0.37277249 0.77691478 9
1.1051804 0.32731017 0.79464215 6
-1.6219242 0.41279685 0.79776025 10.333333
-1.5940833 0.44127005 0.74296427 11
0.98104507 0.49242646 0.70300627 15
1.0520881 0.42073703 0.73563236 8.8873501
1.3591421 0.44409603 0.70352274 8.666667
-1.6015035 0.54327035 0.74466884 12.538462
-1.570537 0.56684339 0.76800931 12.151475
1.0253001 0.53630239 0.78691882 12.166667
1.3933301 0.51140404 0.72127235 9.0869999
-1.5729522 0.63945657 0.78649622 13
1.0438441 0.65378362 0.72836727 12.983982
1.0355272 0.71724361 0.75806117 13.772728
0.99287379 0.81453454 0.71793938 21.5
-1.6276526 0.94667774 0.7578721 18.148148
-1.5946012 0.93430513 0.74790937 17.252827
1.0070286 0.97325075 0.7657342 20.5
0.97360003 1.0252808 0.70635307 17.085751
1.0373813 1.0831333 0.74235433 19.420786
-1.6034019 1.1852463 0.78774935 20
1.1389443 1.1215818 0.79881155 16.642277
-1.6272148 1.2148986 0.76877594 22.149755
1.0382396 1.2966509 0.78628796 22.087215
-1.6201122 1.3137182 0.77063328 21.598454
1.3843586 1.3850011 0.79432589 22.289202
7.6557722 3.3780394 0.74044001 13.101
-1.5599147 -0.17413166 0.88046241 2
-1.1593039 -0.13659006 0.88448793 2
-1.3006942 -0.074037336 0.88043189 2
-1.0861503 -0.082686469 0.87235028 1.5
-0.92444766 -0.092676848 0.84662068 2
-0.21562079 -0.018653631 0.83860111 1.6666666
-1.5311044 0.07659436 0.81858689 5
-0.21038692 0.010541776 0.83108801 2
0.13075502 0.025646912 0.88000458 1
0.63668919 0.022085682 0.84791481 1.5
0.9913469 0.048959367 0.88675946 2
1.3149315 0.081019618 0.88146251 2
-1.9729863 0.11106522 0.80528146 6.5
-1.6718695 0.1408736 0.80311203 7
-1.5776074 0.18717147 0.89632463 7
-1.6261258 0.26316911 0.84572113 8
-1.5259265 0.2238747 0.80307525 7
1.0094086 0.29884177 0.84748125 7.5
-1.9849275 0.31142688 0.81876761 9
0.97404456 0.38081226 0.81318951 12
1.139515 0.38468182 0.86779255 6
1.3620098 0.33738735 0.83753389 6.5
-2.0006664 0.42276865 0.89061314 10.533334
-1.9875491 0.45548725 0.83569223 11.231209
-1.5018028 0.49788594 0.8146553 11.34257
-1.4785632 0.4434635 0.86172271 10
0.97094136 0.4217734 0.80586183 13
-1.591318 0.58999878 0.85017812 13.04725
-1.47385 0.53506321 0.846421 11.5
1.5443226 0.51150191 0.80916941 8.0874996
1.6595262 0.51790881 0.81004018 8.0904999
-1.6231031 0.65978312 0.87408513 14
0.98764867 0.65956646 0.82848865 14.861667
1.3296869 0.63059199 0.82180685 11.6
-1.9658539 0.750036 0.8938756 14.048785
1.0225585 0.79137605 0.88593632 14.5
1.1264524 0.74315196 0.85350966 11.711063
1.3193526 0.74199313 0.86405766 13.466084
1.5515498 0.70493168 0.81269401 12.031059
-1.5968497 0.85960215 0.88120174 17
1.3378567 0.81741536 0.80451781 14.5
-1.619859 0.94359034 0.84904337 16.951231
1.044616 0.94367087 0.8516553 17
-1.6405312 1.0195243 0.85608131 18
-2.0026019 1.1533372 0.85221773 19.569691
-1.9621656 1.139744 0.88342917 18.299
1.298386 1.1651558 0.87338895 19.754251
1.496034 1.1530584 0.80545765 18.661249
-1.6379614 1.2403985 0.8774327 19.693047
-1.804288 1.3116479 0.80289656 22.332357
1.0859301 1.3906792 0.83287895 19.58625
1.2725365 1.3820331 0.88960546 22.373072
-1.857766 1.554323 0.86404181 23.049751
-1.6982043 1.5470072 0.88277209 23.056499
0.98708105 1.7246511 0.85592234 23.085501
5.3200321 2.6984615 0.81421781 14.099
5.1300006 3.0438437 0.83917189 16.098751
7.41395 3.3628683 0.872509 13.1005
-0.97504407 -0.0088349804 0.95461893 2
-0.29933572 -0.0088256476 0.97048742 2
0.18844201 -0.0091653317 0.98872256 1
0.22950163 -0.022077542 0.90491307 0
-1.9602524 0.048500739 0.91439575 5.4444447
-1.6149749 0.078694098 0.97087622 4.5999999
-0.57679975 0.013536044 0.99300164 3
-0.089843325 0.0038803127 0.90783387 2
0.20718639 0.019984663 0.9144904 1
1.4170295 0.07684283 0.92724651 2
-1.9514424 0.11680673 0.96527958 6.25
1.2783226 0.10223491 0.94646466 2
1.3884691 0.1322009 0.92786127 3
-1.5981051 0.27500927 0.96310693 7
1.3662651 0.28061259 0.93551779 4.5
-1.6210866 0.39086175 0.92399406 9.5
-1.9649897 0.47016943 0.95955896 10.587539
-1.7422105 0.4082208 0.93672574 10.05025
-1.6234531 0.46031526 0.90017688 10.5
1.2734538 0.48560464 0.94621897 8.0843124
1.3246255 0.42760748 0.94239151 8.1185503
0.96916282 0.5764693 0.98503029 15.475465
1.018288 0.5128693 0.94192827 11.5
-2.0259299 0.60193449 0.91277486 13
-1.6254685 0.63004029 0.99690694 12.982605
-1.5999889 0.69933379 0.92722571 14
1.2958452 0.6157155 0.99240547 11
-1.61341 0.76018912 0.91067362 15.5
1.2936257 0.76291084 0.9812147 13
1.3476572 0.79089731 0.95148027 12.085125
1.556178 0.7106263 0.94681454 10.420042
-1.9939128 0.82292658 0.91586691 15.591726
1.0611019 0.96098715 0.99476796 16
-1.6268138 1.0373805 0.9681946 18.918375
1.039489 1.0088766 0.97984368 17
1.5093917 1.067448 0.98364615 14.800644
-1.7716539 1.1903706 0.93397057 19.550564
-1.6176448 1.1869907 0.94608057 20.25
1.2498741 1.155187 0.93925166 17.469269
-1.613227 1.2327731 0.92862153 21.5
-1.6250515 1.3098443 0.95778173 22.355846
-1.8648762 1.475361 0.99152297 23.048
1.4928538 1.4650736 0.93000555 19.553501
5.9261999 3.2107582 0.98609149 15.099
-0.94720829 -0.12831867 1.0788674 1
-1.5901722 -0.045062624 1.0328504 3
-1.4882969 -0.01255655 1.0678575 2
-1.3799645 -0.066500038 1.0764124 2
-0.99209809 -0.093996003 1.0887972 2
-0.65345997 -0.039108228 1.0071507 2
-0.54208535 -0.0252342 1.0685124 2.25
-0.34228489 -0.00065239775 1.0799472 2
0.039786305 -0.012571871 1.0237794 2
-1.615625 0.058811605 1.043467 4
-1.5900148 0.075304724 1.0589776 4.5
-0.20265493 0.010486551 1.0710593 2.6666667
-1.5918216 0.16474743 1.0607255 6.1111112
-1.6195116 0.25252214 1.0027727 6.9666667
-1.5635631 0.28217 1.0538306 8.0550833
0.96307081 0.22438723 1.0861355 7.4000001
1.0325377 0.28987128 1.0710737 7
-1.6197428 0.37325528 1.0486131 8.6205711
0.95636714 0.33531633 1.0009328 10.339541
1.0328746 0.43643367 1.0355028 8.4449167
-2.0572042 0.57551521 1.0987232 12
-1.6039799 0.52369368 1.0740508 11.5
-1.5914764 0.58713835 1.0939051 12.5
-2.0805783 0.6408267 1.0837476 13
-1.6187679 0.67089564 1.0608317 14
1.0260895 0.64332902 1.0936071 13
1.0271702 0.76739055 1.0901694 13
-1.6514542 0.8213715 1.0194235 15.77575
-1.620713 0.95857656 1.0735189 17.495895
0.98332345 0.92940688 1.0174714 21.51825
1.2559849 0.9860599 1.0507424 17
-1.6547492 1.0745839 1.0825261 17
1.0308493 1.063653 1.0744879 17.392731
1.264408 1.0375684 1.0059097 17.6
-1.6255282 1.1472396 1.0746526 17.833334
-1.6213336 1.2463253 1.0428594 19.25
1.2204707 1.2729867 1.0490894 20.5
-1.6338376 1.3392618 1.0621033 22.026249
1.0099703 1.3139126 1.0952457 23.087
-2.1354954 1.4695103 1.0551753 21.047001
-1.6107793 1.4273909 1.0840011 23
1.1857257 1.4132314 1.0765288 22
1.2235707 1.4862834 1.0007068 21.150932
