# .PCD v0.7 - Point Cloud Data file format
VERSION 0.7
FIELDS x y z intensity
SIZE 4 4 4 4
TYPE F F F F
COUNT 1 1 1 1
WIDTH 1206
HEIGHT 1
VIEWPOINT 0 0 0 1 0 0 0
POINTS 1206
DATA ascii
-3.3789201 2.5075655 -4.8776841 18.011499
-1.6118841 2.7908933 -5.1167088 21.007
-1.4473513 2.7816608 -4.831943 21.673334
-1.3570088 2.8026814 -4.9762549 21.006001
-4.4042687 -0.19281091 -4.7615385 4
-4.5853767 0.20840864 -4.6644773 5.5
-3.8013728 0.28635046 -4.4933343 6
-3.5022852 0.02372246 -4.5258541 5
-4.421155 0.46496525 -4.4416962 8.0170002
-2.461638 0.49922809 -4.5043707 8.0102501
-2.7172287 1.0818688 -4.5332947 12.011
-4.363296 1.4092754 -4.4041767 13.01675
-3.6543665 1.2543725 -4.4930363 12.5145
-3.5456057 1.2280194 -4.7107654 12.0135
-8.746995 1.8639542 -4.7925072 12.023
-4.2903609 1.9121987 -4.5740767 15.016
-3.1665938 1.9356575 -4.4733939 16.011999
-6.7631035 2.0924816 -4.6391306 14.0205
-6.0902615 2.1724048 -4.5383019 15.02
-5.8987231 2.1886806 -4.7726016 15.019
-4.8817568 2.2367101 -4.5421124 16.0175
-4.6205778 2.3017607 -4.6812611 16.682938
-3.7577367 2.2710342 -4.5592794 17.680668
-4.084754 2.4203961 -4.4855299 18.515499
-3.6261032 2.4990931 -4.5798798 19.01375
-3.4329379 2.5053294 -4.6441207 18.679167
-2.8655365 2.5688267 -4.5095778 20.677834
-2.6890478 2.5587068 -4.6269379 20.009876
-2.2243731 2.561296 -4.5786996 20.757999
-1.6178838 2.7250473 -4.6351147 23.00775
-1.4164557 2.7641957 -4.6135259 22.873449
-1.4611351 2.8325827 -4.4558582 21.340584
6.093853 3.8712299 -4.6481991 16.36875
5.9962931 4.1786275 -4.7188683 17.118999
-4.1590853 0.23166323 -4.2945671 6
-3.37955 0.35866562 -4.0288696 7
-3.0110443 0.65710407 -4.1175556 9.6135998
-4.3126202 0.82507598 -4.0283184 10.018
-3.5827987 1.1276834 -4.0311866 12.01575
-3.1079988 1.1732562 -4.210629 13.0135
-2.6625676 1.1119039 -4.1737823 12.511499
-4.3135648 1.4428431 -4.0970368 13.01675
-3.8856573 1.302702 -4.300077 13.01575
-3.5997012 1.2904503 -4.0084205 13.015
-8.5030174 1.8905531 -4.0131845 12.0245
-4.239234 1.9464711 -4.2642217 15.016
-2.8943105 1.8433955 -4.0413852 18.013
-6.5859299 2.1221273 -4.1996803 14.354833
-6.1971455 2.1667273 -4.1871338 15.02075
-5.327817 2.2456629 -4.122592 16.019751
-4.975153 2.2807384 -4.185307 16.351831
-4.6738758 2.2024138 -4.3331485 16.017084
-1.6435903 2.282949 -4.0139418 21.508125
-3.7931931 2.4452627 -4.1933975 18.848333
-3.3244963 2.5051894 -4.0417089 21.014439
-3.0674403 2.5130525 -4.214642 20.345999
-2.5760615 2.5985839 -4.2225499 21.482553
-2.2555432 2.5954418 -4.2165775 21.792383
-1.8735573 2.5740376 -4.171175 23.0075
-1.4038197 2.8548706 -4.2230968 21.840666
-1.1674204 2.8633482 -4.2520509 23.006001
6.1285744 3.7223749 -4.2933087 15.7845
-3.4404457 -0.0143434 -3.6909425 5
-2.9673615 0.68315935 -3.9010746 9.3466673
-2.4418766 0.58799797 -3.8906517 9.0120001
-1.5124454 0.56979132 -3.7431633 9.5102882
1.563669 0.6461938 -3.7120137 8.13025
1.827323 0.62818956 -3.7798009 6.8922997
2.3196301 0.4522227 -3.69666 5
-3.6114061 1.0146849 -3.7250788 12.017
-2.6076324 1.1394985 -3.8141365 13.012
1.535024 1.00493 -3.8330607 10.9306
1.8094658 1.0636808 -3.7109871 10.940155
2.1917374 0.97005683 -3.68999 9.2275953
2.6016414 0.9312889 -3.6003435 8.6257496
-3.836194 1.3343067 -3.9937403 13.01575
-3.5144348 1.3287961 -3.6870911 14.01675
-2.9799786 1.2197371 -3.929493 13.5135
-2.6266384 1.2739475 -3.9132524 14.0125
-2.2452536 1.2619482 -3.7066221 15.011499
1.8344225 1.5287924 -3.7544539 14.018499
2.220144 1.5765935 -3.6564152 13.672818
2.537101 1.279862 -3.6175656 11.5246
-2.6020877 1.7792588 -3.9708173 18.011999
-2.2719913 1.934105 -3.8912239 19.344
1.7694486 1.8108673 -3.7782853 16.129499
2.5083849 1.6869594 -3.6285048 14
-7.8800559 2.0047932 -3.7738895 13.0245
-7.3814678 2.0503805 -3.9515047 14.0235
-6.7986746 2.1517231 -3.7954073 14.689834
-6.3650055 2.1824508 -3.8740802 15.0215
-5.3772936 2.2549813 -3.8077564 16.1203
-4.585886 2.3477025 -3.7333856 18.269375
-3.7496719 2.0551355 -3.7592638 18.017
-2.131222 2.1222727 -3.7554264 20.843416
-1.8016975 2.087719 -3.6375222 22.01
-1.5603778 2.2488561 -3.7554846 22.25675
1.8910664 2.0002832 -3.7691772 17
2.1752868 2.1030371 -3.6976693 17.357143
2.5372651 2.0513861 -3.6195154 16.187626
-3.9332912 2.4526265 -3.9338453 19.016001
-3.4757929 2.5071104 -3.7025394 21.015751
-3.0225883 2.5463073 -3.8332322 21.440155
-2.1422758 2.6523459 -3.7993784 23.009312
-1.7669382 2.5652676 -3.8474674 23.008331
-1.5305297 2.5647285 -3.8504612 21.508751
1.0134225 2.4420495 -3.7697597 22.383251
1.3381927 2.5716271 -3.8416948 21.703417
1.8592669 2.6689034 -3.7122822 21.303396
2.1112013 2.7862332 -3.6754537 21.714285
-1.9170597 2.9477339 -3.6933937 23.011
-1.2774445 2.8777714 -3.766748 22.674166
-1.0795231 2.888463 -3.862613 23.00625
2.1668987 2.9346995 -3.6638565 22.563751
6.0796804 3.6529841 -3.8175614 16.116125
5.8458734 4.0812106 -3.8684845 18.115999
-2.916883 -0.01716518 -3.589674 5
-2.3410978 -0.18495767 -3.2604032 3
-1.9526544 0.32808864 -3.5430329 8.0109997
-2.052901 0.71292514 -3.4927595 11.0115
-1.8344865 0.55819237 -3.497545 9.760375
-1.5251782 0.55836415 -3.3768177 8.5734692
1.6397742 0.66239393 -3.3841231 8.1300001
2.2506745 0.75150472 -3.3267651 8.1265001
2.7909238 0.73453921 -3.3384671 7
3.3235986 0.51609874 -3.3949611 4.166667
3.8936331 0.4889228 -3.3915396 4
-2.0847797 1.1425765 -3.4597738 15.345
-1.9305434 1.0802467 -3.3489656 15.01125
-1.5485673 0.89568764 -3.4293079 11.94128
1.5300136 1.0448045 -3.5040019 11.796875
1.7882471 0.91408825 -3.4938061 9.5460424
2.1861453 1.0188717 -3.4032564 9.8650236
2.6723328 1.0076734 -3.4737985 9.2906876
3.0289941 1.0067519 -3.4539578 8.4692974
3.3896332 1.0136986 -3.3756435 7.6551251
3.8140841 0.99032426 -3.3120575 7.5595002
4.207757 0.96908766 -3.2659149 6
-1.5935419 1.2026253 -3.4901476 16.678167
1.4249294 1.5537353 -3.3870378 17.129499
1.822322 1.590583 -3.555917 15.877687
2.6947548 1.4108083 -3.3293653 12.024126
2.9988618 1.4110208 -3.4960129 11.456208
3.3694711 1.3175967 -3.3137999 10.037541
3.837203 1.3539314 -3.3008463 9.7027493
-9.6734505 1.7309266 -3.3228326 11.027
-9.0621891 1.8743706 -3.3777111 12.0265
-8.3539915 1.9186203 -3.5595746 12.5255
-2.3484764 1.6168555 -3.5270658 18.512501
-1.6676915 1.8536148 -3.4003098 21.510437
-1.5946951 1.6379173 -3.2267561 21.012125
0.98406327 1.9833864 -3.4319851 21.9828
2.1477604 1.7778642 -3.3775175 16.641834
2.5710256 1.713567 -3.4775381 14.461882
3.0289924 1.6949555 -3.419203 13.439017
3.3607662 1.8123482 -3.3737404 13.12075
3.8132765 1.7196336 -3.3171089 11.994437
4.4743161 1.8035591 -3.219583 11.118
-6.92487 2.0519187 -3.4336195 14.024375
-6.6037912 2.1527827 -3.3255277 15.023875
-5.4881911 2.2400143 -3.3760033 16.89703
-4.6250715 2.336956 -3.253428 19.02125
-4.0582337 2.3974509 -3.5959675 20.018499
-2.172384 2.0969915 -3.4125054 22.261875
-1.485414 2.178441 -3.5110071 22.50675
1.4074141 2.1361418 -3.4307337 21.305288
1.7915298 2.2634709 -3.3869259 21.376833
2.6862254 2.2782912 -3.5613849 17.658333
2.9407134 2.2100172 -3.4607151 16.766214
3.3130639 2.0864499 -3.3655956 15.264572
3.8010359 2.2134314 -3.3322303 14.952916
4.1036906 2.3181095 -3.2554793 14.617625
-3.7559967 2.4550018 -3.2562733 21.518917
-3.5086825 2.5185034 -3.397192 21.0165
-3.0643761 2.5488138 -3.4669342 22.681915
-2.6843162 2.5930076 -3.5797114 22.6126
-1.5647221 2.4589832 -3.3680649 23.01025
1.0417311 2.4578516 -3.399956 23.13275
2.127198 2.4538965 -3.4465191 20.750937
2.5704882 2.6063035 -3.4026482 20.268385
2.8276827 2.5988743 -3.2389512 20.12125
3.3400159 2.4223418 -3.3375716 17.121401
3.7959712 2.5008833 -3.2065506 16.619499
-1.4858354 2.9008102 -3.5962102 23.009001
2.1948597 3.0363533 -3.4893105 23.042
2.666429 2.8169496 -3.546937 20.6245
2.9291704 2.8669393 -3.4782972 20.40893
3.4080181 3.0036845 -3.345125 19.921051
5.9036183 4.0819483 -3.5514786 18.115999
-2.5842352 -0.22788243 -2.8677056 3
-1.5064666 0.25001413 -3.0210896 8.0135002
-1.6178076 0.76962453 -3.1227481 9.0109997
-1.5385724 0.54126132 -3.0687232 8.9537477
1.3646327 0.67167139 -3.0037286 9.5739717
1.7949786 0.46967372 -3.0546134 6
2.5633307 0.48802149 -2.8294609 5
3.1689804 0.72304362 -2.9110401 6
3.4853375 0.54764825 -3.0513511 4.5
3.8206701 0.47879803 -3.194412 4
4.9640522 0.62881202 -2.8805752 4
-1.5642591 0.97450691 -3.0004792 13.774916
1.5253471 1.0359659 -3.1839416 12.129875
1.878381 1.1911871 -2.9908841 13.62525
2.2695856 1.0758039 -2.9982576 11.12325
2.6911902 1.060526 -3.0084002 10.123
3.1417506 1.1867236 -3.0218713 10.12125
3.3789964 1.0711384 -2.9265842 9.1184998
3.9481118 0.98479539 -3.0087786 7.3724999
4.7696004 0.96709484 -3.0785112 5.6666665
5.4585295 0.86060905 -2.87324 4.5
-1.6063519 1.5032765 -2.880367 22.51425
-1.5662966 1.3158615 -3.0188556 17.095617
1.1726304 1.5229338 -2.8176174 19.795668
1.3705584 1.4243022 -3.0511782 17.319107
1.8423822 1.3270565 -2.9255323 15.125
2.2198794 1.5095239 -3.0831685 14.12525
2.7113037 1.2365842 -2.8648517 11.520499
3.0988858 1.2165992 -2.816608 10.690286
3.9252741 1.3616296 -3.1364462 9.4941874
4.2698441 1.4541519 -3.1893516 9.1184998
4.7404237 1.5098478 -3.0711966 9.1170006
4.989491 1.5412383 -2.933326 8.6160002
-8.1840143 1.9215553 -3.100317 13.0265
-1.5617285 1.6969017 -2.8815365 20.023321
0.99326104 1.7406648 -2.9832485 22.531351
1.7825238 1.6747876 -3.1854706 17.726398
2.2479043 1.6513577 -3.1884646 15.923902
2.5657403 1.9893664 -3.1590707 17.7222
2.9926498 1.832685 -3.0824602 15.037417
3.375123 1.777958 -3.0851417 13.1205
3.8680356 1.7953094 -2.8825436 12.8675
4.176733 1.7614858 -3.001204 11.408896
4.6615367 1.8273472 -3.0840561 11.115875
5.0446057 1.8473282 -2.9423134 10.504333
-6.4375196 2.1104176 -2.9692581 15.025249
-5.7978373 2.1989868 -3.0101252 17.02425
-4.0938125 2.3748131 -3.1230555 20.0205
-1.5668793 2.1011565 -2.9862647 21.761375
1.4617498 2.3535292 -3.1294963 23.12925
1.9534206 2.392817 -3.0349987 22.125999
2.0898831 2.1507158 -2.9476302 20.013916
2.6156785 2.0547681 -2.8525128 18.121334
2.9708025 2.1550522 -3.0156498 17.319901
3.3054712 2.2317951 -3.0121589 16.61875
3.6961384 2.2501912 -3.108732 15.86875
4.1906538 2.2860551 -3.0182669 14.332108
4.9041667 2.1439683 -2.9165685 12.335556
5.3556418 2.2734792 -2.8053229 12.11475
-4.0909967 2.4172032 -3.1600666 20.019749
-3.9021647 2.4658628 -2.9446151 21.019501
-3.1779234 2.513521 -3.1411085 23.0175
2.6618612 2.5425971 -2.8990617 21.122
3.0581286 2.5912068 -2.9887917 19.953169
3.2872641 2.6607153 -3.1123097 19.341833
3.9930077 2.4176781 -2.8206766 16.115999
4.4995503 2.4692092 -3.0430744 15.1165
4.8664432 2.715965 -3.0032892 15.115
2.6142087 3.0332091 -3.195009 23.123249
2.9114606 3.0710573 -3.1108284 22.12175
3.2717063 3.0908208 -2.9271479 21.619751
3.8091705 3.0949917 -3.1331737 19.785666
4.2027316 3.0947073 -2.9163024 18.783417
4.7682567 3.0840828 -3.0560718 17.116501
4.951951 3.0527539 -2.9337492 16.615749
5.3037062 3.1199231 -2.8165112 16.530834
-3.5650229 -0.34230268 -2.5456944 3
-2.6068082 -0.22170588 -2.5279233 3
-2.2491784 -0.18383859 -2.5117378 3
-1.5350189 0.3131094 -2.6152606 8.047287
-1.5497997 0.61999232 -2.5383432 10.68428
1.0002862 0.63204312 -2.6962109 10.997406
1.3374259 0.75012076 -2.6325152 11.127399
2.1225865 0.52702266 -2.5948911 6
2.9732265 0.64064199 -2.6370051 5.8888888
5.066287 0.78629804 -2.7982278 4
-1.5735443 0.94196558 -2.5450969 14.4401
1.0656451 0.98284924 -2.5927277 15.988833
1.5096824 0.98876566 -2.7459688 12.877375
1.8872664 1.0400932 -2.5453944 12.87375
2.2268908 0.98311734 -2.7719827 10.62325
3.1383989 1.1545768 -2.5819123 10.1175
3.9170518 1.0542769 -2.6020381 7.8375626
4.2262092 1.0472344 -2.5971639 7.3716664
4.7342811 0.99022162 -2.7815728 6
5.067534 1.0600482 -2.562602 6
5.7024646 0.92131519 -2.5311193 4.5
-1.56679 1.3932256 -2.6109047 19.240921
0.5871762 1.5502654 -2.6321478 23.133499
1.0268228 1.4881046 -2.5919428 21.880524
1.3457315 1.4244301 -2.6146984 19.251625
1.8903532 1.5348908 -2.71069 17.3235
2.3168082 1.4661807 -2.6610098 15.120999
2.9323289 1.3194143 -2.56306 12.11925
3.4235315 1.3595821 -2.6083457 11.11675
3.7581482 1.5131056 -2.5259523 11.1155
4.9639521 1.2777051 -2.4595382 8.1129999
5.4396572 1.503715 -2.7943418 8.1147499
-1.5496497 1.7298248 -2.5243082 20.721439
1.000837 1.7303841 -2.6612825 23.13225
1.4348094 1.9904795 -2.7501678 23.126286
1.7367636 1.9903517 -2.5682883 22.623249
2.7426288 1.6706332 -2.4348011 15.7845
2.9869499 1.7777349 -2.6201637 15.11975
3.5334823 1.6630001 -2.4333487 13.115499
3.8625708 1.8094368 -2.5939732 13.11625
4.3923683 1.8923686 -2.565969 12.61425
4.7281508 1.9383812 -2.7618089 11.615749
5.1765471 1.9902374 -2.5706043 11.11425
5.4157634 1.7769449 -2.7784505 9.781333
5.6303444 1.9862665 -2.5072093 10.363375
-6.4638796 2.129802 -2.7384007 15.026
-5.7086263 2.2202923 -2.6274533 17.025249
-4.6496744 2.3430886 -2.788861 19.356501
-1.5402462 2.150656 -2.6648538 22.011999
2.1530881 2.1008122 -2.4535961 21.745251
2.7879214 2.1069322 -2.4507914 18.119499
2.934865 2.1361256 -2.7343612 17.453667
3.6947086 2.3768756 -2.7603025 17.118
4.6488996 2.1566246 -2.5116692 13.1135
5.5800748 2.1787772 -2.7195392 11.446917
5.960474 2.1305687 -2.6895373 10.1125
6.1549773 2.1967213 -2.6238489 10.112
-4.1810613 2.4243517 -2.6232362 21.022249
-3.6582041 2.4716284 -2.5490944 23.021999
-3.5925314 2.5002823 -2.6961777 23.021
3.1461921 2.4427657 -2.6647546 19.450834
3.2388484 2.5404024 -2.5419908 20.116501
4.9125843 2.6797457 -2.596751 15.114
5.7448816 2.5345147 -2.6514552 13.1125
6.0185051 2.663465 -2.5950029 13.112
3.4570017 3.0173354 -2.7536325 20.818449
3.6805983 3.0872991 -2.5243106 21.116751
4.5656209 3.1219378 -2.6531372 18.337194
4.9728727 3.1081934 -2.6059754 17.279917
6.5597067 2.9353418 -2.4571483 13.111
5.4531493 3.2997346 -2.537323 17.112938
5.7097678 3.2269495 -2.5158403 16.112
-1.5061215 -0.070068017 -2.1659906 4
-1.6037667 0.32770702 -2.0306046 6.5
-1.5194677 0.2432247 -2.2130666 8.1033611
1.08079 0.3836478 -2.0388305 8.3783751
2.1523705 0.3718484 -2.106132 5
5.0901589 0.31910491 -2.3870907 2
-1.5558152 0.52383763 -2.2193139 10.698092
1.0614666 0.54335666 -2.3021557 10.620979
3.0006461 0.43745679 -2.3691871 4
3.3175268 0.49400061 -2.3100924 4
3.8718133 0.59370548 -2.24336 4
4.351778 0.54383576 -2.2051597 4
4.9470701 0.6547879 -2.0243213 4
7.5323629 0.60884696 -2.0995035 2
-1.6055832 0.81760961 -2.1410375 12
-1.5711352 0.9885838 -2.1552613 17.571154
1.0419525 0.96963251 -2.2877991 17.034969
1.5299792 1.1400424 -2.2393084 17.122999
2.7476482 0.92452765 -2.1743824 9.3664989
3.1891608 0.96930659 -2.0612733 9.1145
4.7384987 1.1710285 -2.2848675 7
6.2721462 0.97716463 -2.2094254 4.5
-1.6043386 1.2770898 -2.0737963 21.633928
-1.5731219 1.3507919 -2.1972613 19.249552
1.0414323 1.3846016 -2.1365132 22.573263
1.6454773 1.383683 -2.2698555 19.12225
2.3434448 1.4819621 -2.0943081 16.61725
2.4329839 1.2880328 -2.2789168 14.11825
3.478368 1.4791466 -2.3689835 12.117
3.8111014 1.5293528 -2.3471706 11.116
5.0141239 1.2733825 -2.1574497 8.1129999
5.4482446 1.4174671 -2.2227829 8.1118326
-7.9897652 1.9577197 -2.3272977 13.0285
-1.5582194 1.7434609 -2.1937389 21.347502
1.1359361 1.7004634 -2.0759518 22.6325
3.0962152 1.6415985 -2.2438347 14.532249
3.283679 1.8986899 -2.246151 16.115
3.6807756 1.7828548 -2.3192399 14.1145
4.6157646 1.9762461 -2.2139239 12.61375
4.9932609 1.8868936 -2.1590281 11.389389
5.5484667 1.6742107 -2.1374938 9.1110001
6.0871487 1.6236889 -2.1353886 8.1105003
-6.5381155 2.0994303 -2.2492824 15.02775
-5.8669519 2.225136 -2.208658 17.02725
-5.0131955 2.3667836 -2.1473444 19.026501
-4.644577 2.3526468 -2.2564864 20.025499
2.6057682 2.2453609 -2.3357911 21.1175
4.1984935 2.1732628 -2.1227052 15.1125
4.7016215 2.1534908 -2.2046368 13.1135
5.0301237 2.2261729 -2.2028303 13.279021
5.4548898 2.1831157 -2.2797217 12.1115
6.0770574 2.2058697 -2.2796118 10.445001
3.1535342 2.5052361 -2.233923 20.615124
3.271832 2.5160491 -2.2587125 20.116751
5.2857265 2.7480083 -2.378274 15.112
5.7986422 2.5289326 -2.3428636 13.1125
3.8855269 3.1478796 -2.1934261 21.263924
4.9493837 3.1541996 -2.2673812 17.863251
5.7146864 2.851223 -2.2287869 14.111
6.6565919 3.0392675 -2.0881162 13.61025
5.5121245 3.2644513 -2.1612859 16.923969
7.2968416 3.3169115 -2.132544 13.1095
-2.7391367 -0.23746487 -1.6787879 3
-1.4705253 -0.057900205 -1.8480282 4
-1.6054746 0.3162345 -1.7394732 6.8000002
-1.4397219 0.19545723 -1.8263792 7.3526578
1.0468485 0.36124635 -1.9001861 8.8378572
2.993114 0.32808775 -1.8801204 3
3.2635288 0.30708495 -1.8234415 3
4.7945461 0.31157467 -1.8902661 2
-1.6076479 0.7082302 -1.8297832 11.70257
-1.5110346 0.51631135 -1.7801672 11.733517
1.0753257 0.55931574 -1.812802 12.016444
5.4632163 0.75061554 -1.8478253 4
7.5762014 0.59462792 -1.8044984 2
-1.6095577 1.0202817 -1.7116648 17.31868
-1.467859 0.95983398 -1.7715979 18.695007
1.0604517 1.0001392 -1.7749182 19.554464
3.4281218 1.0375712 -1.9054654 9.1129999
-1.6044999 1.2007091 -1.7557684 18.017
-1.5390337 1.3330001 -1.8347363 20.55418
1.0875285 1.3807006 -1.7225604 22.763176
2.8675742 1.591293 -1.9237926 15.61425
4.0697565 1.2825794 -1.950628 9.1120005
4.685586 1.3183559 -1.6847621 8.1099997
-1.5773784 1.7126915 -1.8812256 22.349335
3.2138193 1.6187561 -1.8651702 14.113
4.2027106 1.8635113 -1.7033889 13.1105
7.1800218 1.8532054 -1.7535912 8.1084995
-6.4257946 2.1198666 -1.7143412 16.029501
-6.0690322 2.2520592 -1.7876005 17.028999
-4.5919752 2.3450043 -1.7744447 20.52775
5.0004334 2.3665771 -1.847983 14.11025
5.5077887 2.1763582 -1.9729202 12.1115
5.7866135 2.1802619 -1.8227572 11.1095
3.3448479 3.0810182 -1.8258291 23.113417
4.8127871 3.1265144 -1.8360918 18.11025
5.4902887 3.1872649 -1.7559102 17.110001
5.7695627 2.8434148 -1.9184592 14.111
6.6881161 3.0561361 -1.7866294 13.60925
7.0700688 3.3306766 -1.7157657 13.774999
7.3991709 3.3212438 -1.6570809 13.108
-1.4664931 0.26788193 -1.4249703 9.1697493
-1.0051174 0.23803279 -1.4099233 11.019
1.065914 0.36859617 -1.3840213 9.8651114
3.8800254 0.31839684 -1.2288532 2
-1.604177 0.64783484 -1.5063201 11.75975
-1.4826258 0.55745023 -1.3891851 14.623569
1.0674206 0.60195076 -1.4313209 14.593168
-1.6089233 1.0192667 -1.4127287 18.44356
-1.514195 0.96944386 -1.4307406 20.267347
1.0572701 0.99399692 -1.4360216 21.444889
-1.605193 1.2912855 -1.4240394 20.343155
-1.5906337 1.3305115 -1.4034953 21.569555
1.1462063 1.2811389 -1.4433036 22.79525
4.9883652 1.3833616 -1.5341945 8.1090002
-6.3739352 2.1328278 -1.433223 16.0305
4.9145336 2.044312 -1.5151489 12.108875
3.5398717 3.1149554 -1.4675071 23.109749
5.1733513 3.1934259 -1.5438607 17.508701
5.2153335 3.1601353 -1.2612509 17.1075
6.6773214 2.9593217 -1.5447261 13.109
6.919086 3.3296316 -1.3149655 14.107625
7.5257463 3.318687 -1.3369783 13.1075
-2.3843477 -0.19393338 -1.156425 3
-1.7168274 -0.13617274 -0.89219344 3
-1.4921548 -0.0091980658 -0.9924351 4.5
-0.98337334 -0.023162531 -0.90268695 3
-1.483062 0.20010597 -1.0125234 8.5274487
-0.99718112 0.1887614 -1.1275103 9.3466673
-0.39515561 0.35790503 -1.1963198 16.009001
1.0712938 0.2998898 -0.96224773 8.8236589
1.5752405 0.15463439 -1.095192 3
1.7706914 0.25874114 -1.0820365 4.25
3.9245539 0.31024513 -0.92942619 2
-1.5266856 0.54668564 -1.0057584 14.966
-0.38760448 0.49183252 -1.108176 21.00975
1.0612407 0.562796 -0.97572494 14.986582
1.4972438 0.5110541 -1.0981698 10.1115
1.7395416 0.50651306 -0.96628761 9.1090002
-1.6182618 1.0918695 -1.068169 20.850306
-1.552344 0.91903913 -0.95218009 20.29558
-1.118511 0.82971227 -1.1240182 22.02
1.0339915 0.92652285 -0.99704015 22.669514
1.535054 0.92258042 -1.0284339 17.1145
1.770378 0.94473702 -1.0126404 15.7394
-1.6065947 1.4146134 -1.0725023 23.022499
-1.5908709 1.3519619 -1.0337653 22.622799
1.7289597 1.3557305 -0.95133466 21.686853
3.8419831 3.1465313 -1.0296019 22.107
4.8329234 3.1909757 -1.1683283 18.60725
5.3397322 3.1937871 -1.1188297 17.274208
5.936573 3.2129183 -0.99080116 16.106251
6.6328497 3.2812691 -0.9839108 14.606125
6.9578381 3.3358254 -1.118221 14.1075
7.6937957 3.331183 -1.0704236 13.10625
-1.478119 -0.093646348 -0.63972074 3.5
-1.0165159 -0.049552687 -0.58066392 3.7083333
-1.614519 0.15565091 -0.5176729 7.5284209
-1.5175543 0.18061511 -0.56742382 8.1703215
1.0598727 0.3331196 -0.57759511 10.185822
1.4559195 0.12975878 -0.6713894 2.5
1.728294 0.2057004 -0.72255629 3.4166667
3.1846809 0.26439697 -0.78763211 2
-1.6247312 0.5479818 -0.59546036 15.568657
-1.5178672 0.54761368 -0.59457219 15.514708
1.049855 0.59794378 -0.61657828 16.383015
1.5914849 0.50525552 -0.68521178 10.10975
1.6662841 0.54290473 -0.6168741 10.265896
-1.6521186 0.94987065 -0.63635725 20.863644
-1.5533007 0.90831584 -0.55797088 20.523979
1.0350516 0.91827404 -0.64333141 22.824127
1.5852594 0.81009787 -0.56329644 15.1035
1.7061812 0.98497528 -0.64542961 17.323603
-3.0910921 1.2856148 -0.58729124 18.034
-1.590718 1.2607363 -0.69321859 22.826603
3.4861052 3.097347 -0.43930677 23.1035
3.9268622 3.1094954 -0.71585894 22.105249
5.2468643 3.239207 -0.67040122 18.105
5.7218366 3.2157278 -0.56440246 16.104626
6.6150742 3.2631922 -0.61624998 14.77225
7.8736854 3.3541257 -0.69240022 13.105625
9.0193472 3.4375763 -0.54528016 11.10475
-1.6602001 -0.050360743 -0.28784955 4.3125
-1.2309257 -0.082638338 -0.3876721 3
-0.98514038 -0.052480962 -0.25694248 3.125
-1.6975721 0.11547101 -0.13850224 6.5128121
-1.5165598 0.22498941 -0.14265856 8.5491219
-1.0435855 0.022572914 -0.17278728 4
1.038174 0.29132849 -0.14495696 9.5844555
1.2765352 0.12352692 -0.2078993 3
1.7480627 0.22531357 -0.22637674 3.5238094
2.4817567 0.21130697 -0.24001947 2
3.3551135 0.28135055 -0.13452923 2
-1.6546961 0.49703988 -0.29296529 13.27052
-1.5088782 0.58233953 -0.19805683 15.958371
1.038015 0.55487931 -0.14553557 15.636326
1.5846683 0.62591308 -0.27115959 12.130698
1.7080138 0.54559457 -0.3034876 10.013739
-1.6986529 0.94540167 -0.24969427 20.520683
-1.5498526 0.90167671 -0.19286688 20.773054
1.0481062 0.94567466 -0.17934729 20.821663
1.5581801 1.0998913 -0.180058 19.778662
1.7202278 1.0622784 -0.16367401 18.055939
1.5419232 1.3517005 -0.10634854 23.099125
1.6967645 1.4253565 -0.103248 21.847876
3.5577321 3.0974092 -0.19334958 23.103001
4.8903465 3.2192376 -0.38750666 18.60375
5.8764553 3.2284555 -0.12309432 16.103001
6.0884829 3.2554264 -0.033238471 15.602751
6.5229955 3.2422113 -0.19319862 15.1045
8.0539637 3.3737571 -0.31416404 13.105
8.9438467 3.42764 -0.036822438 11.6035
9.3006134 3.4333565 -0.010747075 11.1035
-1.3910949 -0.13316378 0.17064589 2
-0.92322487 -0.063986257 0.18381754 2.625
-0.7383517 -0.054382384 0.30166584 3
-0.21602032 -0.010522888 0.27156365 2
-1.7263706 0.16328725 0.20538798 7.3382998
-1.5184016 0.21838403 0.21167718 8.2405291
-1.0738875 0.02999023 0.15460265 3.5
-0.20978473 0.01361879 0.23449156 2.9583335
0.29580033 0.046154801 0.33761609 2
1.0097383 0.28327522 0.28460687 8.8423014
1.4861569 0.22873589 0.14272389 4.3200002
1.8191088 0.16072893 0.01787287 2
-1.7480097 0.57990462 0.1917565 14.189898
-1.5456046 0.54255319 0.18746425 13.912417
1.0111891 0.57957751 0.20161082 15.691603
1.5331385 0.59334868 0.10642753 11.54176
1.7542442 0.74271107 0.14788257 12.707534
-1.6756339 1.0261757 0.20659782 20.95499
-1.589792 0.9343344 0.23082145 19.614096
1.0346531 0.98707145 0.16224581 21.264872
1.470035 1.1210588 0.17983443 20.343628
-1.6121097 1.2092619 0.37692344 22.84535
0.9575057 1.3695648 0.32961845 23.088749
1.4828992 1.3920865 0.16945761 22.693649
1.7004369 1.334967 0.26147008 20.428251
3.6956367 3.1018548 0.20299308 22.600876
5.8980918 3.2058663 0.28969508 16.1015
6.1968536 3.2541437 0.27049008 15.352249
8.5213385 3.4504986 0.33031929 12.1025
-1.738492 -0.019046696 0.50082159 4
-1.464009 -0.093817092 0.59569997 2.6785715
-0.9637351 -0.11325566 0.67639399 2
-0.66785139 -0.049061138 0.51937014 2.3333333
-0.30166695 -0.031393796 0.67099905 1.8333334
0.14189012 -0.0055349539 0.791888 2
-1.6798595 0.23850222 0.59034872 7.5648017
-1.5557795 0.22905309 0.61407286 7.6840858
-0.89776218 0.020903127 0.69181639 3
-0.66368318 0.012393977 0.63826108 3.25
-0.13261585 0.02095844 0.74802339 3.3333333
0.26303294 0.021453969 0.72114778 1.6666666
0.4991138 0.019435057 0.65214449 1.2666667
1.0146003 0.30897027 0.65635562 9.003685
1.4834864 0.22785859 0.59736383 3.9952381
1.6889412 0.25284615 0.79462671 4
-1.7221726 0.53451389 0.60280496 12.690181
-1.5748273 0.5592472 0.6241284 12.767029
1.0332592 0.59199238 0.63110983 13.228867
1.4040891 0.5868637 0.54846317 11.088744
-1.6972011 0.9921484 0.57995713 19.200388
-1.5926962 0.9270978 0.59240466 18.168764
1.0301501 0.97305429 0.63170826 19.659729
1.3936317 1.0397663 0.59093821 18.356806
-2.0002868 1.2975541 0.62110776 21.5
-1.7127783 1.2609705 0.63015479 22.287733
1.0354438 1.4202083 0.69616371 22.087072
1.3517959 1.3842512 0.63164127 22.003502
5.2065239 3.0593736 0.65860915 16.099501
5.8488655 3.234652 0.61861479 16.10025
6.0360579 3.2181249 0.61172098 16.1015
7.6557722 3.3780394 0.74044001 13.101
-1.622803 -0.0019908061 1.1279567 2
-1.4566091 -0.10102026 1.0120887 2
-1.0109073 -0.091014147 0.97350562 1.7857143
-0.61054498 -0.049404826 1.1000602 2.05
-0.28436363 -0.0097840726 1.0049125 2.1666665
0.15257666 -0.014604915 0.97247171 1
-2.0361559 0.27945805 1.12063 8.166666
-1.7188057 0.19312146 0.94641352 6.7283359
-1.5768143 0.23367594 1.0538255 6.8795457
-0.57679975 0.013536044 0.99300164 3
-0.16762839 0.0083028795 0.93666047 2.2222223
0.15488279 0.016087009 0.98376685 1
0.57553965 0.017639147 0.95969218 1.3333334
0.99598289 0.20868903 1.0520191 6.0080438
1.3303821 0.20031361 0.90024471 3.75
-2.053941 0.56814075 1.0193695 12.177777
-1.7861949 0.55020243 0.96068031 11.873458
-1.5603489 0.57025087 0.96289593 11.996582
1.0331355 0.60519624 1.0373658 11.645096
1.4064711 0.64126372 0.88741374 10.765913
1.6595262 0.51790881 0.81004018 8.0904999
-2.0026019 1.1533372 0.85221773 19.569691
-1.690876 1.0023571 1.0302653 17.157898
1.0265241 0.96902561 1.0284315 18.122656
1.3367152 1.1141323 0.96343201 17.677198
-2.1354954 1.4695103 1.0551753 21.047001
-1.6944238 1.3628193 1.004355 21.569202
1.0724664 1.3766047 1.0301437 21.411715
1.3296536 1.4444634 0.94010592 21.025835
-1.8099474 1.6640689 1.1347834 22.886623
1.0010083 1.7894778 1.0069785 23.084875
1.3822739 1.7648906 1.1290207 22.835251
5.3200321 2.6984615 0.81421781 14.099
5.1300006 3.0438437 0.83917189 16.098751
5.9261999 3.2107582 0.98609149 15.099
7.41395 3.3628683 0.872509 13.1005
-1.6377186 -0.0047528297 1.3140795 2
-1.3603072 -0.068320438 1.425211 1.5
-1.0174164 -0.12352501 1.3999139 1.5
-0.53410536 -0.049207173 1.4904628 2
-0.16820079 -0.018397639 1.3890038 2.1333334
0.20187306 -0.020296037 1.3469307 1.5
0.55660975 -0.032956347 1.3542752 0
-1.6202232 0.25803187 1.422913 6.6202679
-1.596934 0.30200607 1.3441482 8.0544996
1.0028028 0.13888687 1.4208117 3.0104165
1.298748 0.098578557 1.3835355 2
-2.1025574 0.76338738 1.3821975 13.20314
-1.6937112 0.5404501 1.3787059 10.682994
-1.5925144 0.53981346 1.447559 10.017622
1.0160561 0.66015828 1.4860905 11.72789
1.3346024 0.62888676 1.3192431 9.4304914
-2.2389038 1.0482761 1.2829454 16.049999
-1.6664714 0.9839021 1.4039825 16.053057
1.0511016 1.0358084 1.3907561 16.332823
1.3317436 1.0224489 1.3042897 13.758813
-2.1943958 1.256609 1.3607681 18.361156
-1.6898187 1.3278427 1.4324144 19.762133
1.0689925 1.3952222 1.4288107 19.735929
1.3783146 1.5351222 1.2471408 19.584
-2.1141992 1.7658736 1.3920009 22.407768
-1.7246543 1.6534415 1.4059559 22.386625
0.99187422 1.8560847 1.5577505 22.0825
1.3109303 1.8167309 1.3894829 22.893333
-1.622231 -0.0053405818 1.8906415 2
-1.4824431 -0.031860173 1.8212764 2
-0.52387869 -0.053872555 1.7717053 2
-0.31850415 -0.02756964 1.7756431 2
0.15462221 -0.024742916 1.8108793 1
0.57834202 -0.02838929 1.7979344 0.5
-1.6227976 0.23232666 1.8869268 5.875
-1.5365154 0.015438423 1.6954708 3
1.0586168 0.17638198 1.7837584 3.7333331
1.3270541 0.31182423 1.8091494 4.522222
-2.1899605 0.63855404 1.7908556 10.711
-1.701221 0.56799299 1.8130692 10.203396
-1.5730295 0.55005658 1.8705705 9.1289778
1.0130986 0.63484991 1.8198438 10.291658
1.2736399 0.75929928 1.7495098 10.198973
-2.140301 0.93136972 1.7907672 13.923779
-1.6531222 0.97992265 1.8123766 14.580858
-1.5288416 0.94096512 1.8090205 13.311501
1.046436 0.99936104 1.7850012 13.721994
1.3254834 0.96592069 1.7961975 11.98569
-2.2570703 1.4180356 1.6685815 18.284262
-1.6568334 1.3440902 1.7968769 17.872606
0.99599254 1.4218876 1.813949 19.158886
1.2051833 1.4756132 1.7084229 18.366676
-2.3702381 1.8844677 1.8344665 21.717501
-1.6896002 1.7402958 1.8065785 21.596012
0.96291202 1.6612641 1.920097 22.082001
1.259532 1.939782 1.8074704 22.265917
-1.6810225 2.0963399 1.9678342 22.726334
1.0029969 2.2123973 1.8035221 23.080437
1.3719188 2.1080112 1.7188454 22.082001
12.294294 3.5624692 1.8983123 8.1005001
-1.5140889 -0.10875675 2.1975741 1.9166666
-0.97178441 -0.15788946 2.278986 1
-0.54995358 -0.10071042 2.2037239 1
-0.19567892 -0.061032809 2.2594254 1.5
0.3215571 -0.038681887 2.0928137 1
0.57689708 -0.066548087 2.0492098 0
-1.6645316 0.21956861 2.1716576 5.1428571
0.69199562 0.091033399 2.0247836 1
0.92909145 0.15411812 2.3797355 3
1.4181483 0.3820211 2.0481312 5
-2.2581923 0.63940173 2.1711595 10.219583
-1.6459234 0.54963142 2.2145531 9.0028181
1.0023743 0.58150584 2.15414 8.5963097
1.3925862 0.67055702 2.1245394 8.0797501
-2.1919465 0.96932769 2.089071 13.71925
-1.6573 1.0687408 2.2458105 14.142292
0.98483616 0.949431 2.2097564 12.37895
1.2980359 1.0577515 2.2445693 11.412333
-2.354528 1.445884 2.0974126 17.05275
-1.658187 1.4041059 2.2489624 17.155922
1.0062245 1.431211 2.1730404 17.316584
1.283425 1.5362844 2.0409887 16.413168
-2.435816 1.6203902 2.1604066 18.052
-2.0902221 1.6127213 2.2202597 18.0555
-1.6623242 1.8027554 2.1375778 20.913715
0.97046381 1.7930306 2.2019925 19.936142
12.739417 1.7642741 2.2619214 4
-2.4447169 2.0978861 2.0513701 22.051624
-1.6726328 2.2175901 2.3221221 22.677059
-1.4785216 2.2764328 2.3439751 22.063999
1.0504754 2.1448112 2.1623976 21.93601
12.627417 2.2313457 2.2450168 5
-2.3337555 2.4966574 2.3138676 23.055
12.642943 2.5125198 2.0317974 6
12.613913 2.9332304 2.1677444 7
-2.4314828 -0.0066734422 2.7107582 4
-0.90404093 -0.12131607 2.5789497 2
-0.75548857 -0.11306905 2.7154949 1
0.13309386 -0.060875151 2.595521 0
0.445759 -0.11439257 2.5226011 0
-1.6680007 0.11123382 2.6275642 3.6666667
1.0361207 0.18261498 2.641212 3.125
1.30404 0.27068231 2.4597659 4
-1.6435703 0.61335832 2.5118301 8.998292
0.78611875 0.65758622 2.7524362 8.0745001
0.94592053 0.67901999 2.5363979 9.2237606
-2.4794955 0.96485233 2.594548 11.609222
-1.6479619 1.0451303 2.6732659 12.6855
0.97851294 1.0202256 2.5335557 11.822627
-2.4313776 1.2977304 2.4308774 15.053
-1.6663352 1.4233767 2.5593073 16.23517
0.97165823 1.4811198 2.5659354 15.220952
-2.3822865 1.6162903 2.4052961 17.553249
-1.6616614 1.691457 2.6139495 17.921
0.92253047 1.8775333 2.6835625 18.160376
-2.4975286 2.3405032 2.5202427 22.220167
-1.6805586 2.1905527 2.6175845 21.56089
0.91331452 2.3220792 2.6263807 20.577581
-2.0449245 2.5922573 2.5230289 23.057251
-1.6871519 2.535934 2.7460005 23.061626
-1.2754569 2.6348791 2.6632278 22.765999
-0.53139096 2.6737595 2.61307 23.070499
0.68807316 2.6637046 2.5766959 22.578251
0.98701286 2.5489998 2.4245777 22.08025
-1.5558817 -0.045025572 2.8715889 2
-1.0653594 -0.19802503 2.9778466 1
0.75325471 -0.01927631 2.9221787 0
-1.6572948 0.08300247 2.8835959 3
1.0349858 0.15687197 2.9788663 2.875
-2.3705645 0.47534522 3.0027127 8.0555
-1.6656909 0.69600302 2.9942946 9.3103752
0.73951566 0.68069613 2.9340658 8.2868748
0.96913075 0.60338295 2.9736109 8.0772495
-1.6711966 1.1830739 2.9721041 13.56025
0.78745103 0.988913 3.1669855 10.074
0.95508116 0.95879811 2.8743515 9.9643335
-2.5882518 1.2022703 3.0098169 12.0555
-1.6705939 1.4015206 3.0350232 14.51185
0.70401579 1.4250102 3.0277648 14.574
0.89055109 1.3443141 2.9085333 13.07525
-1.6574792 1.7403646 2.9188111 18.393499
0.65844733 1.7258221 2.922399 17.073999
0.88992625 1.7965249 2.9677255 17.0755
-1.6485087 2.390063 3.015981 22.060499
0.67930883 2.2229617 2.9823453 20.074333
0.90332872 2.2002637 2.9947002 19.91
-2.6043518 2.5045533 2.9668581 21.388
-2.2070096 2.6120582 3.0039239 21.891571
-1.8305098 2.5378823 2.9418719 21.999228
-1.4560257 2.6311791 3.0466826 22.612349
-0.96554244 2.6689582 2.9108748 22.991114
-0.59718949 2.7004094 2.9938517 22.444126
-0.33659986 2.7356174 3.1273322 22.623945
0.081477635 2.7331333 2.9688952 22.350916
0.65388632 2.6898539 3.0284874 21.903225
0.87267751 2.7433174 3.0169411 21.660791
-2.3886681 2.9089441 2.8905182 22.560749
0.59970558 2.8158617 3.0789185 23.073999
-1.5547217 -0.13591738 3.4212506 1.6666666
-1.0068758 -0.1724142 3.4260843 1
-0.75882149 -0.10586105 3.3633981 2
-0.1965355 -0.10711297 3.389008 0
0.022132751 -0.082237855 3.4739475 1
0.57938337 -0.064881779 3.4181168 1
0.98688722 -0.02047443 3.5444622 0
-1.6782762 0.33586422 3.2545223 5
0.8191371 0.1134799 3.3728194 2
-1.6533228 0.59970731 3.3029165 7.5415001
-2.5358317 1.1901712 3.3148963 12.0555
0.6351521 0.93884778 3.4293046 9.322875
1.0234797 1.0600996 3.3731441 9.99615
-1.6789511 1.5284992 3.5889108 15.062
0.43087608 1.5550976 3.5212784 13.072
1.0424139 1.4247918 3.3886814 12.07675
-1.7005329 1.8065389 3.3434763 17.061832
0.57694393 1.8822608 3.4795995 15.573
0.94958985 1.8335872 3.368721 15.076416
-1.742992 2.1310377 3.3835893 18.562874
0.52550513 2.2506137 3.552201 18.0755
0.95662975 2.2682481 3.3972697 18.075251
-2.7735355 2.4859972 3.4035487 20.05525
-2.2725852 2.5407779 3.3717661 20.308376
-1.6836292 2.6149108 3.410785 20.895916
-1.415007 2.6427944 3.3601754 22.085455
-1.0808332 2.6554375 3.3564141 21.925978
-0.65734398 2.6889205 3.4752305 21.791388
-0.20090562 2.7006485 3.4508579 21.995733
0.203076 2.7210627 3.416122 22.026552
0.61756092 2.7404633 3.5192294 21.334656
0.95918334 2.5251832 3.4235342 20.077999
0.80867958 2.8287911 3.2016876 22.075001
-1.2450858 -0.17708836 3.9639938 1
0.41258779 -0.061646748 3.8657613 1
0.60512066 0.18561682 3.8507175 3
0.86859781 0.089464486 3.6706109 2
-1.6842546 0.72467643 3.702462 8.0622501
0.57790107 0.78159201 3.6618419 8.0722504
1.2654616 0.740547 3.9609978 5.1999998
-2.7737162 1.0776901 3.675261 11.0555
0.52423924 1.0336046 3.7804575 10.072
-1.6807787 1.4171026 3.8077619 13.0625
0.48226076 1.5072759 3.8466592 13.035999
0.9959749 1.3941995 3.9004221 11.57725
-1.7186741 1.7930408 3.8061328 14.897416
0.4263162 1.9783241 3.7955275 16
-1.5396371 2.0605371 3.7276294 16.564751
0.51894552 2.1389601 3.7589486 16.71525
0.8888787 2.3759947 3.7433662 17.074499
-2.8810639 2.4392211 3.8416872 18.056
-2.6407449 2.4656484 3.7698274 19.056751
-2.143796 2.5393364 3.7687869 19.392666
-1.7329012 2.5618474 3.6947632 20.062582
-1.4117196 2.6078606 3.8076832 19.760105
-1.0101005 2.645103 3.7951596 20.637619
-0.60377806 2.6531346 3.7323627 20.675703
-0.20634308 2.7028213 3.7998962 20.225559
0.16469893 2.7047093 3.8694658 20.020798
0.58845866 2.662926 3.8825738 20.129055
0.86188316 2.6806486 3.864023 20.743708
-1.5646122 -0.11898365 4.3167858 1.5
-1.185606 -0.22990194 4.2356863 1
-0.41891646 -0.21550225 4.1742611 1
0.89581668 -0.06245311 4.1937962 0
0.54616433 1.0517957 4.0715303 9.0719995
0.99490309 0.98729467 4.1463923 8
-1.6411805 1.45749 4.0352612 13.064
0.49079421 1.5840837 4.0266299 12.072
-2.9061263 2.2656739 4.3476577 16.056999
-1.6997609 2.1338797 4.0808339 17.063
-1.4889541 2.0452032 4.2906303 16.06525
-0.023604963 2.1326396 4.2993383 15.06975
0.19554925 2.2105384 4.3602204 15.570749
0.59919947 2.0703974 4.1078815 15.406001
0.92618656 2.2770953 4.1290503 16.076925
-2.862684 2.5209594 4.0706415 18.057501
-2.5690079 2.4871173 4.1649027 17.808334
-2.1909888 2.4868572 4.1881342 18.060249
-1.7963634 2.5652831 4.0803432 18.347073
-1.3333795 2.6349945 4.0278473 20.064251
-0.98844498 2.62236 4.1565595 19.178125
-0.59008783 2.6388545 4.2466197 19.049639
-0.23766208 2.6647458 4.2513371 19.686134
0.20382909 2.6616004 4.19484 19.712431
0.62041557 2.6791904 4.2215118 18.57505
0.87141079 2.6584585 4.1805267 20.326874
1.1769336 2.9323125 4.3184037 19.077999
1.3606017 0.29155886 4.4202476 3
-1.6996222 1.5339803 4.4614058 13.0645
0.93640578 1.3467244 4.7217884 10.5765
0.9295246 1.6656525 4.7674694 13.0765
-1.7295645 2.3218486 4.4369993 16.065001
0.13736802 2.1527686 4.6745996 14.820312
0.50574929 2.0896742 4.4096465 15.072
0.83001685 2.2801554 4.7209954 14.576
-2.9229202 2.4401078 4.5527983 16.391125
-2.5184069 2.4554827 4.5802155 16.928415
-2.1233492 2.4771123 4.5877323 16.756529
-1.7559489 2.5081546 4.560894 17.10586
-1.3992049 2.578603 4.5864625 17.799582
-0.99758869 2.5742569 4.5742836 17.898703
-0.60263842 2.626307 4.6183724 17.696339
-0.24668169 2.6720731 4.623858 17.643167
0.17636165 2.6488609 4.6002536 17.722725
0.54916191 2.6808701 4.6642823 17.622198
0.93634027 2.6267703 4.6370373 17.810099
-1.7212812 -0.26961395 4.9938083 1
-0.27404249 -0.19767652 5.049963 1
0.14111155 -0.15776102 4.8665767 0
0.6085251 -0.090162829 4.8019581 1
0.96903813 0.71459651 4.9575906 7
-1.6917198 0.98335296 4.8599706 9.0649996
-1.5824244 0.99143904 5.0490494 8.066
0.95791382 0.99275017 4.9003272 8.5255003
0.89237046 1.2180742 4.8517046 10
-1.7011666 1.7241273 4.9945035 13.0645
0.9659797 1.698494 4.9942408 12.0765
-1.7547708 2.2566137 4.9769106 14.5655
0.19539586 2.1119368 4.9897809 14.320375
0.580441 2.1599774 4.847158 15.075
0.83298254 2.1609433 4.8173904 15.326125
-2.9022932 2.5684564 4.809114 17.058001
-2.0465283 2.4690199 4.919136 16.275822
-1.6674893 2.5020864 5.0014105 16.938938
-1.4427027 2.5392201 5.0297012 16.422535
-0.98729306 2.5981648 4.9735675 16.900459
-0.58013248 2.564652 5.0813155 16.148529
-0.17254187 2.6166933 4.9947839 17.20661
0.1714496 2.6254709 5.0105615 17.127819
0.65150017 2.6542957 5.0764422 16.675301
0.97496116 2.6965003 4.99191 16.701687
-1.6733668 -0.25669694 5.2621922 2
-0.96293235 -0.32509992 5.5764971 1
-0.54938704 -0.19822979 5.5965261 1
0.19608201 -0.14171906 5.499733 1
0.064502619 1.0222061 5.4826355 8.0695
0.025910094 1.7783091 5.5342526 12.0695
-3.0631537 2.2998974 5.3629537 14.059
-2.6538203 2.3695414 5.3533654 14.72675
-2.5225656 2.4249671 5.4506545 15.06025
-2.1364133 2.4316533 5.2691679 15.063625
-1.8890837 2.506269 5.3845167 15.189281
-1.412872 2.5073624 5.4097404 16.3165
-0.94297284 2.5539351 5.2981582 16.068125
-0.69759166 2.5858662 5.4787574 16.052576
-0.27145907 2.608695 5.4905667 16.182528
0.24609809 2.5526781 5.3957086 15.406918
0.60131818 2.5918038 5.3526821 15.602597
0.91899407 2.5909126 5.4444776 16.7425
-2.8951004 -0.44194087 5.6421766 1
-1.7254312 0.15756148 5.8413739 4
-1.7591814 1.3910096 5.996285 10.066
-1.5220053 1.9886563 5.6652298 13.066
-3.0064709 2.2763181 5.6742086 14.059
-2.7208617 2.2884781 5.7499475 14.06
-2.291898 2.3675418 5.8429184 14.06175
-1.7844995 2.2018752 5.8995161 14.066
-1.3885459 2.0183268 5.6656089 13.0665
0.096155256 2.1008594 5.7789946 12.07
-2.1867087 2.4253924 5.792748 14.617528
-1.7168109 2.4824514 5.8089199 14.565813
-1.4748534 2.5328808 5.7758045 15.01032
-1.0080835 2.511229 5.8198924 14.859229
-0.57293802 2.5558846 5.861361 14.986209
-0.24814487 2.5607045 5.8193431 15.137708
0.12623209 2.5381238 5.8115005 14.753471
0.62060279 2.5810387 5.7743611 15.116395
0.8703711 2.5595729 5.7343197 15.0755
-2.277091 -0.15758067 6.1116152 2
-1.8653564 -0.21286038 6.1222243 2
-0.096393086 -0.29365757 6.3590856 0
-2.0529404 0.022910375 6.1288872 3
0.26876876 0.14485094 6.0034604 3
-1.8476983 0.62913764 6.0927949 6
0.92839265 0.63780564 6.0821404 5.6666665
0.96720451 0.97645265 6.0739079 8
-2.1535635 1.5516309 6.1716576 9.8158751
0.34282002 1.2301333 6.2587652 8.0705004
0.9433428 1.3910667 6.1291237 9.5377502
-1.6268337 1.6626667 6.1544766 10.0675
0.69115251 1.9881555 6.2939215 12.0745
0.91036731 1.8480464 6.2084436 11.742
-2.9566154 2.3755419 6.2836738 13.0605
-2.4235077 2.1756132 6.1964331 12.06525
-2.1434402 2.2951612 6.1633167 12.816125
-1.7714671 2.3113406 6.1952052 13.06725
0.15242715 2.0657735 6.0876985 12.07
-2.01703 2.4486709 6.0879645 14.396
-1.7902049 2.4935067 6.1713319 14.454112
-1.390249 2.5054171 6.1490445 14.317018
-1.0577705 2.5047596 6.164187 14.267866
-0.70577246 2.5094914 6.1800194 14.277635
-0.24057236 2.5693841 6.2142348 14.502701
0.19833571 2.5062597 6.1276917 15.07275
0.52292591 2.5200696 6.1570511 14.907458
0.87629765 2.5399761 6.1618509 15.07525
-2.2499871 0.59310865 6.6439295 5
-1.9893934 0.63722062 6.6006393 5
-2.3473637 1.1941446 6.5032291 8.0655003
-1.9297532 1.2987815 6.5022106 8.0667496
-2.9421906 2.3308659 6.7098475 13.061
-2.5847068 2.3626881 6.5307765 13.0635
-2.2596226 2.3746474 6.608705 13.062625
-1.8537095 2.2619543 6.6362715 12.067249
-2.0056427 2.4167905 6.7391982 13.06625
-1.7294703 2.449209 6.5443406 13.565666
-1.4267975 2.4750993 6.5529709 14.066583
-1.0526102 2.4865205 6.6426806 13.4015
-0.65439415 2.5149114 6.6827946 13.402791
-0.19569102 2.5094695 6.6219544 13.5712
0.19724858 2.5960419 6.5446491 13.073
0.54416251 2.6037729 6.4645648 13.0745
0.2889587 0.50930727 6.8454652 4
0.18093386 1.5000074 6.8193831 8.0699997
-3.6879711 2.2301748 7.1442761 12.059
-3.3787305 2.2635298 7.0758128 12.05975
-2.973068 2.2963469 7.0073657 13.06075
-2.5548873 2.3491402 6.8422127 13.06175
-2.145443 2.3730466 7.0936027 12.065249
-1.7647454 2.3802829 7.0641241 12.814375
-1.4981138 2.3795497 7.0683966 12.0685
-1.7745209 2.4288654 7.1087999 12.56575
-1.4277145 2.4587777 7.0239615 12.788388
-1.0004925 2.4946911 7.1027207 12.734917
-0.52127433 2.5418704 6.971014 12.944438
-0.3019453 2.4997184 6.9547887 13.32125
0.17555854 2.5133438 6.9640489 14.07275
0.45687199 2.5149844 7.1094465 13.323625
-2.3398705 1.6176832 7.3982134 9.0662498
-1.9816568 1.729973 7.3838882 9.0672503
-3.7750533 2.2287471 7.2954402 11.0595
-3.3353407 2.2546329 7.280674 12.0605
-3.0865946 2.2951756 7.4064331 11.81125
-2.6340868 2.3255389 7.4485145 12.062333
-1.7752414 2.2449338 7.4209347 11.067249
-1.7543461 2.4171941 7.3386846 12.56725
-1.3424313 2.4567509 7.448916 12.634434
-1.0533503 2.4753194 7.4804072 12.5665
-0.59677142 2.521867 7.3576431 12.403
-0.22357805 2.5228958 7.3848014 12.404208
0.081932053 2.4656487 7.4646597 13.07225
0.67345595 2.5176945 7.2400742 13.07425
0.90686631 2.5412474 7.3746595 12.075
-2.1737692 -0.2128628 7.8470564 2
-1.8128295 -0.11487331 7.8670454 2
-2.1499991 0.75488293 7.8884649 5
-2.150218 0.99641228 7.9450674 6.3333335
-2.2454741 1.9231182 7.9532456 9.6552229
-1.9046888 1.936885 7.9488049 9.666667
-4.1341004 2.1254215 7.8562808 11.05875
-3.7474704 2.196784 7.8383312 11.059875
-3.3595428 2.2448175 7.7414312 11.310688
-2.9447067 2.2590783 7.7511554 11.561501
-2.5668142 2.3046875 7.7748218 12.0625
-1.738175 2.3744411 7.8760586 12.06475
-0.83819562 2.386518 7.9471865 11.0705
-2.1343269 2.4168196 7.7648091 11.03325
-1.6923692 2.4214396 7.8989782 11.56775
-1.0007328 2.4382424 7.8416185 11.86745
-0.60137284 2.5047803 7.6163502 12.068
-2.9142432 2.2572279 8.1122475 11.06225
-2.6225495 2.2983828 8.121192 11.063
-2.2830706 2.3390796 8.0651112 11.563625
-1.8049891 2.3332405 8.1599274 11.065001
-1.295526 2.3668926 8.2100906 11.067875
-0.86099929 2.3643043 8.2686071 11.06725
-0.3046234 2.3940361 8.3615217 11.0715
-1.6412572 2.440644 8.30616 12.068
-1.4602146 2.4073029 8.0989504 11.0685
-0.746135 2.4520416 8.1937237 11.90225
-0.0294386 2.4574409 8.3228378 11.072375
0.28397331 2.4441335 8.1121626 11.073
0.494201 2.5108147 8.086834 11.07375
-1.9065827 0.38182107 8.6441422 4
-2.216289 0.4491106 8.6615477 4
-1.8621243 1.4512767 8.4160633 8.0675001
-2.1462407 1.7817714 8.7977495 8.0670004
-1.7247142 1.7162992 8.7300053 8.0679998
-2.5238004 2.2001185 8.6281347 10.0635
-1.8093691 2.3155718 8.60009 10.691562
-1.4500351 2.2992566 8.6001177 10.733584
-1.1225858 2.348444 8.7463455 10.234875
-0.69503951 2.3810143 8.6582546 10.0705
0.1669693 2.3901672 8.6499138 10.572875
-2.139478 2.4202833 8.5651026 11.067
-1.3015928 2.4153299 8.4047394 11.069
-0.56004483 2.4368489 8.6041451 10.737834
-0.14132202 2.4899299 8.4891558 10.738999
0.36865324 2.430058 8.577467 10.0735
0.55146551 2.4357634 8.6034575 11.07375
-2.1402845 -0.37416357 9.1852303 2
-0.43059191 -0.29909706 8.8836918 1
0.57951671 1.851161 9.0523872 8.0734997
0.80314577 1.9238685 9.1351109 8.0740004
-4.405005 2.0065334 9.1597967 10.0595
-3.51858 2.0822799 8.9587574 10.0615
-3.1651869 2.1365213 8.8997536 10.06225
-2.4659576 2.157136 8.9385481 10.0635
-1.8675432 2.1932659 9.0858879 9.5667496
-1.4327841 2.3267126 9.0861301 10.069125
-1.124378 2.2806718 9.0767584 10.06675
-0.43479991 2.3649535 8.9257164 11.07125
-0.094443634 2.3794007 9.0565624 10.57225
-1.3345228 2.4229498 8.9650478 11.069
0.68234491 2.4684701 9.0111828 10.074
-0.3478573 -0.34639755 9.2069292 1
-2.1573319 0.1140144 9.2353868 3
-2.0632656 0.49545437 9.4382715 4
-1.8789451 0.53325498 9.4343233 5
-1.9301289 1.046329 9.2853165 6.5
-2.1741722 1.6717876 9.3540754 8.0223341
-1.8180978 1.7430397 9.3650551 9.0679998
-4.1849384 2.0174277 9.3455753 9.0603333
-3.4609301 2.0404031 9.2689819 10.0615
-3.1052146 2.0875816 9.3768072 9.5625
-2.7193394 2.1449926 9.4663715 9.0635004
-2.2466712 2.08391 9.3729801 9.7591
-1.8748703 2.2373283 9.4156485 10.066833
-1.5190074 2.2575631 9.5311794 10.06875
-1.1118296 2.3368464 9.3705673 10.403167
-0.7080664 2.3079584 9.5211077 9.0710001
0.13860865 2.3610902 9.5175228 9.5727501
0.40531784 2.3766649 9.2971649 9.0734997
0.50905877 2.4312315 9.5032082 10.0735
-4.1340275 1.9825428 9.994607 9.0609999
-0.43806013 1.7410953 9.7432919 8.0684996
-3.8568232 2.0158796 9.9119062 9.0614996
-3.526124 2.0302501 9.7051535 9.0620003
-3.0451181 2.034946 9.8535213 9.0627499
-2.6612833 2.098006 9.7765598 9.0635004
-1.6998454 2.3538771 9.6582727 10.068
-0.51726967 2.3165884 9.8198814 9.57125
-0.29319662 2.3501787 9.8197918 9.0717497
0.31924421 2.3507817 9.7944365 10.073
0.65211236 2.2784255 9.8403368 10.0735
-4.0762053 1.9368122 10.304554 9.0609999
-1.4162116 2.2709446 10.237616 9.5692501
-0.96724665 2.2304561 10.318452 9.0705004
-0.70909256 2.3349149 10.337402 10.07075
-0.12939809 2.3403873 10.022895 10.072
0.43076217 2.2842207 10.141541 10.073
-0.093117051 2.4029729 10.396874 9.0719995
0.63681561 2.4053855 10.257366 9.0734997
-2.1736176 -0.35167244 10.599588 1
-1.873696 -0.3854951 10.588194 1
-2.0522928 0.12015182 10.622783 2.3333333
-1.8985357 0.13249181 10.626463 2.3333333
-2.1737232 0.47162384 10.621807 4
-2.167093 1.015049 10.671691 5.5
-1.9257387 1.0534265 10.697504 5.5
-4.7882209 1.9757165 10.708803 9.0600004
-3.8569028 1.9790344 10.787031 9.0617504
-2.1732066 1.7871028 10.718489 7.5
-1.891844 1.7552217 10.709851 7.5
0.60980362 1.8144375 10.412847 8.0734997
-2.1665773 2.1575184 10.730972 8.5
-1.8386166 2.244998 10.605518 9.0345001
-1.2371192 2.2050493 10.55438 9.0699997
-0.35903224 2.3557751 10.622907 10.0715
0.21174686 2.2948971 10.667107 9.0726671
0.59098005 2.3002512 10.498553 9.0734997
-4.389153 1.9744154 11.178284 8.0609999
-1.6819323 2.2577448 11.037619 9.0684996
-1.3992474 2.2315822 10.951896 8.819437
-1.0142159 2.258842 10.938836 8.5699997
-0.4921256 2.2069912 11.056955 9.0710001
-0.24448854 2.2541533 10.92977 9.0714998
0.26316372 2.1840205 11.19603 9.0725002
0.44481754 2.3044739 11.138491 9.073
-1.0789243 2.4138277 10.825728 9.0699997
-1.5083185 2.2678583 11.347239 9.0690002
-1.1210996 2.2113533 11.235399 9.0699997
-0.75063419 2.2463746 11.380798 8.5707502
-0.20174231 2.2523103 11.40215 8.4051666
0.026504852 2.3048406 11.598283 8.0725002
-1.4594268 1.6800158 11.636331 7
-3.0090594 2.1355126 11.673081 8.0640001
-1.0034622 2.2048349 11.701344 8.0699997
-0.77876467 2.2387774 11.911394 8.5705004
-0.20292147 2.2480993 11.743679 8.7384996
0.19831122 2.2877805 11.798596 8.0725002
-4.1366477 2.0125759 12.042336 8.0620003
-3.9203851 2.0036333 12.265651 8.0625
-2.5478511 2.1663196 12.279215 8.0649996
-1.3627021 2.1912084 12.352528 8.0695
-0.9372111 2.2413864 12.342124 8.0705004
-0.55152434 2.2415891 12.360425 8.0710001
0.20684743 2.2016153 12.204382 8.0725002
0.43080366 2.2338896 12.389585 8.073
-2.8101199 1.988811 12.665238 8.0644999
-1.6720278 2.1791527 12.582076 8.0690002
-1.5326653 2.2084713 12.614631 8.0695
0.55355084 2.1966119 12.522541 8.073
-5.5207253 1.7544427 13.001856 7
-3.5093238 1.9957641 13.044293 8.0635004
-3.7348809 2.0218937 12.855533 8.0629997
-0.42661458 2.1941786 12.886774 8.0714998
-0.22185779 2.188252 12.876286 7.5357499
-0.069710925 2.1898282 13.428848 8.0719995
