# .PCD v0.7 - Point Cloud Data file format
VERSION 0.7
FIELDS x y z intensity
SIZE 4 4 4 4
TYPE F F F F
COUNT 1 1 1 1
WIDTH 1347
HEIGHT 1
VIEWPOINT 0 0 0 1 0 0 0
POINTS 1347
DATA ascii
-0.46533957 2.7270033 -1.8973613 15
-0.43658176 3.0036235 -1.8541989 16
3.8252509 0.1478658 -1.6657635 4
3.8145807 0.23584677 -1.6696684 5
-0.55776668 0.69590104 -1.6320152 5
3.8104966 0.77633685 -1.7335275 8
-0.49691653 0.81401736 -1.7378998 6
3.6833322 0.93107086 -1.7434646 10
3.8625114 0.93588322 -1.7746934 10
-0.68807971 1.1480588 -1.6045599 7.5
-0.49572468 1.0079156 -1.6885667 7
-0.68963993 1.3348123 -1.608428 9
-0.52676988 1.2199926 -1.6150923 8
-0.48351741 1.4272561 -1.6620097 9
3.7499363 1.5965292 -1.6300689 14
3.8432636 1.4406254 -1.7086456 13
-0.46392012 1.6211189 -1.6613765 10.5
3.8463571 1.7285948 -1.7011294 15
3.7493343 1.8266245 -1.7297124 16
3.6856441 2.0368004 -1.6784463 17
3.882113 2.1554544 -1.7293122 16
3.762656 2.3796365 -1.7728078 19
3.8645024 2.3019645 -1.6863724 15.5
3.8605008 2.4922776 -1.6511419 17
3.8162141 2.6560185 -1.6176913 19
0.50212955 3.0347872 -1.7908926 17
-0.67378879 0.32355314 -1.4680557 3
3.5627944 0.36955389 -1.4033176 6
3.7007113 0.32413003 -1.4648349 5.5
-0.79877961 0.47263134 -1.5915401 4
3.5656247 0.53656864 -1.5170991 6.5
-0.79413235 0.68138564 -1.5722125 5
3.5168834 0.74258208 -1.4054339 8
3.7424979 0.67258924 -1.5172694 7.75
-0.76875973 0.85702276 -1.5582534 6
3.535531 0.82523203 -1.4148736 9
3.7733843 0.89054811 -1.5662649 9.25
-0.77246916 1.0263281 -1.5829298 7
3.5575249 1.1161821 -1.4625713 10.5
3.770236 1.0714681 -1.5264032 10.75
-0.81651437 1.3041482 -1.4313865 9
-0.78515279 1.3365545 -1.5065863 9
3.7599261 1.2871047 -1.5210696 12.25
-0.70016634 1.5667659 -1.5319034 10
3.6716506 1.4657146 -1.4860554 13.666667
-0.66940081 1.7549429 -1.5883465 11
3.5816531 1.7822278 -1.4080776 16
3.6834257 1.6768746 -1.4508746 15.25
-0.69936168 1.9435942 -1.4673176 12
3.6470063 2.009563 -1.452095 18
-0.63852513 2.3817379 -1.4899409 15
-0.63479292 2.5742278 -1.4039543 16
3.4568214 0.35198408 -1.3907142 5
3.5770869 0.56816983 -1.2292687 7
-0.78294754 0.61340666 -1.3599691 5
-0.82426381 0.84779358 -1.2932587 6.5
3.4373517 0.85774899 -1.2133837 9.25
3.6193352 0.88159937 -1.3114396 9.5
-0.79432988 1.1394888 -1.3141708 8
3.5892005 1.0496073 -1.2213796 11
-0.76161718 1.322572 -1.312274 9
3.4943242 1.399443 -1.2789533 12.5
3.6202922 1.2610115 -1.2782052 12
-0.68883252 1.5042614 -1.3831325 10
3.651155 1.5794476 -1.2585851 15
3.6664948 1.7114516 -1.2691267 16
3.6573372 1.8867996 -1.2902114 17.25
3.5964577 2.1914418 -1.3058256 19
3.6442084 2.0780854 -1.2789885 18.5
-0.82677853 2.3063929 -1.2168651 14.5
-0.75471604 2.2241969 -1.3833873 14
-0.59217978 2.3019171 -1.3160191 15
3.6451218 2.2474692 -1.2048652 20
3.6529801 2.4492469 -1.258769 19.5
-0.73904073 2.7681577 -1.27157 17
-0.58325887 2.612395 -1.2745619 16
3.6248257 2.6670105 -1.2725229 22
3.4217587 0.26680726 -1.0438499 5
3.3362024 0.53996229 -1.0626843 6.75
3.4930058 0.45303443 -1.1503214 6.5
-1.2741009 0.76394618 -1.1006093 6
3.3909445 0.64572489 -1.1895716 7
3.53543 0.66869462 -1.1960169 8
3.4090247 0.89599812 -1.1714003 9
3.3631048 1.0810274 -1.062541 10.5
3.4242587 1.0987767 -1.1132945 12.5
3.5722222 1.2381735 -1.0921193 13
-1.023635 1.5943789 -1.1972775 10
3.5510478 1.4320736 -1.0716588 14
-1.0221885 1.7506974 -1.1811295 11.5
3.5814106 1.6722244 -1.1503912 15
3.3990698 1.8640425 -1.0508976 16
3.4344034 2.0138187 -1.0628481 17.5
3.5773103 2.2635925 -1.1122433 20
-0.83048236 2.6268697 -1.1595321 16
-0.73873115 2.6773605 -1.0933952 17
-0.88099873 2.8317082 -1.0942416 17
-0.75197053 2.8655822 -1.0352001 18
3.3358855 0.080694154 -0.9149797 4
3.3019707 0.38877034 -0.99412668 6
3.4127831 0.35456038 -0.97152996 6
3.2558861 0.55393279 -0.95576942 6.5
3.4244137 0.47810474 -0.96161175 7
3.2813625 0.71539074 -0.93943095 8.5
3.4428458 0.72697568 -0.95102811 8
3.3122239 0.91623926 -0.86288267 10.125
3.4425495 0.8611775 -0.94013369 9.5
-1.2760957 1.0904723 -0.9198575 7.5
3.3771718 1.1188653 -0.97633922 12
3.4103756 1.0660449 -0.83183861 11
-1.2234249 1.350842 -0.98383856 9
3.2871716 1.3213247 -0.81962806 14
3.3099244 1.4780563 -0.86764526 15.75
3.4486141 1.5795622 -0.99657106 15
3.3609607 1.7155635 -0.94255972 14.5
3.5090239 1.6736504 -0.97570288 16
3.3253708 1.847425 -0.92680907 16
3.4927444 2.0922737 -0.95279711 18.666666
3.3443346 2.3181396 -0.914186 19.5
3.4453077 2.2741425 -0.88321829 21
-0.73215079 2.9764454 -0.82314587 19
-0.91925383 3.0012085 -0.89451551 18
3.1187291 0.15251616 -0.69836688 4.5
-1.2019657 0.35380679 -0.70233274 4
3.1484017 0.29290643 -0.71967041 6
3.3280797 0.30903289 -0.79286933 5
-1.1977454 0.57634795 -0.67105174 5
3.1485486 0.45878029 -0.66560781 6.5
3.2745597 0.46479264 -0.75191927 6
3.1153982 0.70652664 -0.61876309 9.5
3.3127439 0.70309937 -0.75520134 7.5
-1.2123955 0.89873779 -0.63907838 8
3.1250491 0.87596941 -0.61160922 11
3.2340102 0.83599281 -0.77198327 10
3.0934694 1.1031424 -0.60572439 13
3.2736981 1.1124334 -0.75942057 11.5
3.3474646 1.3139541 -0.70363426 12.5
3.2400918 1.4996612 -0.71456969 15
-13.192158 1.6805731 -0.78697109 5
3.2726521 1.7661439 -0.7002638 17.25
3.2855046 1.952461 -0.74276257 20
3.4353979 1.8216676 -0.78102612 17
-13.052457 2.1231148 -0.74564171 6
-1.256628 2.0930004 -0.79730082 14
3.2949195 2.1067848 -0.73574483 19
3.4026074 2.0566483 -0.75028193 19
-1.3472682 2.2726648 -0.66008568 15
3.2144318 2.2451351 -0.66798723 22
2.987437 0.15949319 -0.43684959 4.5
3.0921078 0.12382403 -0.48033661 3.75
-1.3070807 0.28951371 -0.55680156 3
-1.1501961 0.35647148 -0.47132874 4
2.9990249 0.30347261 -0.51623237 6
3.0968666 0.32052112 -0.51553237 5.5
-1.2613977 0.59127986 -0.57589936 6
-1.0720966 0.47498441 -0.57539463 5
2.9892302 0.50978637 -0.41826475 8
3.1102798 0.46789968 -0.4705286 6.6666665
-1.460776 0.65638089 -0.42684555 6
-1.2616024 0.75346524 -0.56763434 7
-1.0644882 0.73551178 -0.59709692 6
2.9952617 0.6968019 -0.5056507 9.5
3.2027249 0.77664995 -0.53584301 8
-1.4447215 0.92205989 -0.44280338 7
-1.0884049 0.89976788 -0.51553869 7.5
2.9789572 0.94854176 -0.46339858 12
3.1201534 0.89689666 -0.42970896 11
3.2032528 0.91320121 -0.4665004 9.5
-1.4194597 1.1160043 -0.41156864 8.5
3.1142516 1.054929 -0.58944875 13
3.2122636 1.167892 -0.43565953 11
-1.4158363 1.3553175 -0.42931175 10
3.0892797 1.3395481 -0.54684508 15.5
3.213449 1.3218045 -0.4213711 12
-1.4169185 1.5578811 -0.44606733 11
3.0724549 1.5616262 -0.48748979 17.75
3.2723672 1.5355034 -0.51400924 14
3.1096768 1.6613004 -0.47925243 16.75
3.2351203 1.6959386 -0.53827006 15.25
3.1248131 1.8741504 -0.48825672 17.666666
3.294368 1.9598005 -0.50458807 17.5
3.1280763 2.0551233 -0.41984606 17.5
3.2892394 2.0537295 -0.52119994 19
3.2596393 2.2686296 -0.50324535 20
-1.3964711 2.4509394 -0.58418036 16
3.2356801 2.4995809 -0.44076771 21.5
-1.3787756 2.6328967 -0.53737211 17
3.2246947 2.6254284 -0.43509471 23
-1.4147917 2.8293293 -0.42882776 19
-1.1654624 3.0228314 -0.59933376 19
2.8262329 0.15348326 -0.20255923 5
2.8808627 0.2741164 -0.25473964 6
3.1101656 0.38410929 -0.38558328 6
-0.63885677 0.5353868 -0.2355389 20
3.0814848 0.59136766 -0.35542595 7
3.1171427 0.66321564 -0.37683141 8
3.1213031 0.85819852 -0.36196959 9
2.9739854 1.0995332 -0.38173753 13
2.9286776 1.3978113 -0.21630287 16.5
3.0248027 1.3507667 -0.24024868 11.5
-1.4717735 1.5364183 -0.24984074 12
3.1976304 1.4426496 -0.38069785 13
-1.4894978 1.7017428 -0.2141223 13
2.9439318 1.7313145 -0.32690644 19.5
3.1810293 1.7207004 -0.28717887 15.5
2.8988454 1.8400958 -0.23077476 21
3.0703838 1.8950016 -0.32573995 19.25
3.194536 2.1961112 -0.26858175 19
3.2177367 2.0240176 -0.30971551 18
3.1606455 2.561363 -0.32999837 22
2.8729591 0.090326361 -0.10358328 4
-1.7386644 0.31060165 -0.067018986 3
2.9371903 0.3754465 -0.088320971 4.5
-1.7510934 0.4091365 -0.086357117 4
2.8807266 0.53134382 -0.095982686 7.75
3.0429566 0.56468344 -0.051309943 8
2.9854844 0.6603561 -0.002104542 10
3.0617867 0.77876508 -0.19341433 11
2.9227133 0.8591004 -0.1097339 9.333333
2.8631725 1.0524248 -0.084156245 13.5
3.0128248 1.0221953 -0.13200426 10
-1.6650004 1.3330353 -0.043357849 11
2.862077 1.2711558 -0.095460802 15
3.0917706 1.3137124 -0.18081439 13
2.8918672 1.5897053 -0.16269356 18.5
3.0675395 1.5263901 -0.11669004 14.5
2.819803 1.7611127 -0.1013214 20
2.9849529 1.8194135 -0.13763165 20
-1.5967005 2.0942953 -0.03101635 15.5
3.0957594 2.1224048 -0.13858867 18.75
3.0740557 2.4196198 -0.10393023 21
3.0718122 2.7196345 -0.14812148 22
2.7335281 0.077722147 0.12275392 3.5
2.8739002 0.010080502 0.077150881 3
-2.0227933 0.2924296 0.19987035 3.5
2.7454932 0.29484859 0.10397977 5.75
2.8136499 0.30332088 0.10144575 6
-2.0295756 0.47106436 0.16900826 5
-0.85530019 0.51251262 0.1806412 20
2.7554996 0.50416654 0.10809225 7.6666665
2.8885484 0.48090452 0.0649039 7.5
2.7282412 0.71309006 0.03115046 9.5
2.926811 0.69005108 0.10886604 10
3.0134401 0.66055113 0.074969888 10
2.7843354 0.90241218 0.089762688 11
2.94189 0.90747774 0.12900415 12
2.7206249 1.1463498 0.15035647 13.5
2.9617789 1.1678195 0.015618324 11
2.9398806 1.3378621 0.052881479 12.5
2.7677164 1.4761913 0.071494579 17.5
2.9372981 1.5575335 0.12680173 14
2.7447639 1.6796227 0.15892231 19.5
2.9469368 1.744585 0.18664265 15.5
3.0099685 1.7839516 0.09498775 16.5
2.9493897 1.9895104 0.11940026 17
2.934689 2.1739616 0.15715718 20
-1.608879 2.3920145 0.1296277 18
-1.572631 2.2587373 0.065396309 17
3.0659466 2.2218041 0.066775918 20
3.0243931 2.4388807 0.12182605 21
-2.0118952 0.18273017 0.30811381 2
2.5576324 0.092981398 0.32197797 4
2.7288141 0.097449884 0.33708805 3.75
2.8910348 0.016528701 0.26667762 3
2.6938658 0.25548202 0.30899739 5.625
2.8344536 0.26357695 0.24918291 6
-0.91753376 0.52572417 0.30575353 18.833332
2.7124627 0.47939578 0.25211832 7.5
2.815156 0.53281468 0.28808421 8.25
2.6776488 0.65292233 0.28767183 9.6000004
2.6947641 0.85133743 0.3519685 11.5
2.6681678 1.0658662 0.34821621 13.25
2.8587456 1.087942 0.24400458 14
2.7545626 1.2918354 0.33710536 16
2.8318756 1.2955027 0.31809497 16
2.6943178 1.478811 0.2730689 17
-1.9223924 1.7394871 0.27771854 14
2.8312707 1.646318 0.34913808 20
-1.791828 1.9104114 0.37550306 15
2.72543 1.834496 0.24731031 20.75
2.9480555 2.0024211 0.20222259 18.5
-1.7328148 2.2214103 0.2510066 17
2.9215493 2.3389883 0.20273685 21
-1.764953 2.6376295 0.39466739 19.5
2.4345431 0.12973364 0.49286711 4
2.6419244 0.064861819 0.58275467 3.5
2.4625287 0.26904786 0.49598402 5.75
2.7136927 0.30895144 0.44781756 6.5
-1.0348365 0.58896649 0.59729004 17.5
2.5026155 0.50313449 0.50182098 7.8333335
-1.1705186 0.76103693 0.52620459 11.5
2.5238621 0.60571599 0.44797003 8.5
2.7134843 0.7002964 0.50533128 10.5
-1.184387 0.85926348 0.56301224 13
2.5766749 0.80629027 0.56461453 11
2.7322826 0.88507313 0.50705922 12
2.5625308 1.0748634 0.5342291 13.666667
2.7347975 1.0533612 0.4736324 14
2.5886288 1.2774358 0.53689307 16.25
2.7488894 1.2369257 0.50049949 15.5
2.5674243 1.5651439 0.53532612 17
2.7177198 1.4446169 0.51851696 18
2.5676622 1.6456058 0.54156506 18.5
2.6196425 1.7040843 0.41743374 19
2.5570793 1.9458838 0.56752563 21.5
2.7167361 1.8997231 0.49359611 22
2.6060967 2.0134726 0.44503367 22.5
2.8455923 2.3086214 0.44142532 19.5
2.8519242 2.515173 0.45491982 21
2.3393915 0.13190243 0.7377879 4
2.5759008 0.12774016 0.68618739 4.25
-1.1571305 0.39935139 0.74446028 12.5
2.3545487 0.34089452 0.74183607 5.5
2.5368304 0.26420021 0.72229916 5.625
2.6052594 0.38669789 0.72118258 7
-1.1084119 0.48832309 0.65328503 15.933333
2.5995836 0.56785047 0.67573559 9.5
2.645359 0.43304962 0.61025047 8
2.3519223 0.69083732 0.7142759 11.333333
2.4607205 0.69067448 0.71527123 10
2.6483951 0.70279551 0.64813542 10
2.3854342 0.8670224 0.7414012 12
2.5688517 0.8807056 0.67904782 12.666667
2.6192589 0.93116313 0.75988734 12
2.5298057 1.0754796 0.68487811 14.125
2.6110375 1.1392682 0.74408317 15.5
2.4729652 1.2733107 0.74955767 15.666667
2.6177921 1.3208964 0.73449713 16.5
2.492054 1.5531619 0.6901924 18.25
2.6337972 1.4366708 0.6989876 18.25
2.6515398 1.7008314 0.70331639 20.666666
2.519577 1.8752557 0.73889238 21.166666
2.6101739 1.9802144 0.69826651 23
2.5213799 2.0824747 0.73452508 23
-1.9271209 2.863946 0.66549587 21.5
2.3571348 0.14147745 0.84783936 3.75
2.4356861 0.040854096 0.88660997 3
2.3393586 0.32305253 0.91837525 6.625
2.4191082 0.31086424 0.8370322 7.0999999
-1.2265333 0.50197572 0.90268666 16
2.3012564 0.47560677 0.91239411 8.166667
2.4599931 0.52729553 0.90075767 8.75
-1.1553701 0.63997525 0.85283208 17.75
2.2412481 0.65152174 0.99504632 11
2.4420798 0.72072297 0.97103661 11.166667
2.2774911 0.89991283 0.89188349 13.666667
2.5468049 0.95133793 0.85962296 13
2.4792402 1.0741616 0.88582987 15
2.600805 1.0643318 0.80384445 13.5
2.3492661 1.2896833 0.98028433 18.5
2.4859827 1.2464523 0.92110592 16.833334
2.3676662 1.4163926 0.99030304 16
2.5323756 1.5354973 0.85556912 19
2.4849248 1.6400139 0.86609554 19.75
2.5215342 1.8837278 0.91052103 22
2.444613 2.0410767 0.9514969 23
2.3380156 -0.029805291 1.1188185 3
2.1465931 0.10308562 1.1377219 4.625
2.3074274 0.13599545 1.0233167 4.5
-1.3305393 0.36958706 1.1136622 13.071428
2.1260324 0.32568759 1.0904315 7.5
2.3401487 0.28446123 1.0671365 6
-1.2881608 0.52329117 1.0398681 16.277779
2.1404803 0.4903672 1.0724657 10
2.3536134 0.46191868 1.1368243 8.5
-1.2918842 0.60843015 1.130311 17.566666
2.1236804 0.68944049 1.0873579 11.833333
2.2773633 0.68851864 1.0473695 11.5
2.4625897 0.643197 1.0186181 9.5
1.9780769 0.96136224 1.1277168 13
2.1257348 0.90940458 1.1842529 14.75
2.3408899 0.86909944 1.1688683 13
2.4332633 0.8296482 1.0157795 12
-1.4675727 1.1450396 1.1215541 20.5
2.1671636 1.0031538 1.1638021 15
2.4630165 1.118557 1.0419313 14.75
-1.4504662 1.2355986 1.1196913 22
2.0855808 1.301885 1.1683202 16.5
2.2782183 1.2401242 1.1401749 17.75
2.4893262 1.3452616 1.0352573 17.333334
2.0828748 1.4996401 1.0695708 17.75
2.3098819 1.4990008 1.0630944 18
2.3147438 1.6700871 1.0766846 18.5
2.4925458 1.7057825 1.0717419 21.333334
2.3119729 1.905581 1.1187102 20.833334
2.4604726 1.840166 1.1150811 22.5
2.3922191 2.0615499 1.0030243 23
-1.5362182 0.11254512 1.2729399 4
1.9818859 0.13002822 1.3829038 5
2.0497093 0.062142186 1.2839109 4
-1.4536426 0.34336418 1.3265314 9.75
1.9616168 0.23979928 1.3883677 6
2.075599 0.31641448 1.3193213 7
2.2414498 0.30974555 1.2583288 6.6111112
-1.4554956 0.52420866 1.3533015 14
-1.3750012 0.4888688 1.2501647 13.116666
2.0393953 0.47437018 1.3180525 9.25
2.3197038 0.49263215 1.2234724 7
-1.4577247 0.72105354 1.3533741 17.5
1.9878194 0.76408291 1.2089357 11
2.1211071 0.69919866 1.2084823 12.25
2.3646986 0.79915875 1.2197372 11.5
-1.5344357 0.91471899 1.2956367 16.5
1.9402084 0.83600342 1.2566962 12
2.0838823 0.86948884 1.2832985 14.416667
2.2946517 0.95169973 1.3137149 13.125
-1.5123112 1.1132283 1.346837 19
1.963395 1.1565349 1.3620784 18
2.0034616 1.0086017 1.3234723 17
2.2699027 1.1336454 1.3659602 15.5
-1.4616899 1.3169187 1.2684927 22
2.1287401 1.2970426 1.2999179 17.25
2.3021598 1.3251133 1.2951592 17.285715
2.4013548 1.2248504 1.2261443 16
2.0388908 1.476248 1.380666 18.5
2.3082719 1.5099933 1.3246037 19.458334
2.0467582 1.6196792 1.2979158 20
2.3447738 1.6831849 1.2878839 20.625
2.3431702 1.8535726 1.3062937 22.25
1.9163643 -0.016390147 1.514568 3
-1.5157703 0.043056689 1.4255923 3
1.9402144 0.096969061 1.4689667 4.25
2.0602198 0.15615644 1.4316154 5.25
-1.5601217 0.20511527 1.439043 5.5
1.8889229 0.25435776 1.5144529 6.9375
-1.5001755 0.51610315 1.4680445 13.140625
1.9271268 0.48573315 1.5203242 9.666667
2.1646934 0.56614435 1.4754601 9.25
-1.7064021 0.74480367 1.5746411 14.5
-1.5144027 0.71585655 1.4844924 17
1.9419935 0.64604306 1.5149728 12
2.117774 0.75412393 1.520538 11
-1.545277 0.86875969 1.4362956 15.5
1.9446207 0.91539252 1.5966736 14
2.0147715 0.90967643 1.4793063 15
2.2075651 0.96970141 1.5118473 12.5
-1.6713028 1.0630041 1.5915285 19
-1.5212486 1.027823 1.4049938 17.5
1.9567758 1.0702107 1.5484016 17.666666
2.113239 1.0835983 1.5257434 14.333333
2.2790039 1.0802726 1.5925742 15
-1.6402251 1.2187653 1.5834097 20.5
1.9614438 1.2309757 1.5319268 19.5
2.1660562 1.3608522 1.4723791 19
2.2884402 1.3285112 1.4383168 16
2.103204 1.5329459 1.472356 20
2.2612219 1.5017973 1.4606413 18.833334
2.2585654 1.6657439 1.4782763 19.5
2.245774 1.8454142 1.4265019 21
1.7848221 0.13031575 1.769923 4
1.8365177 0.099382833 1.6797469 4.4000001
-1.7282104 0.28440362 1.6927623 7
1.7858355 0.27247581 1.7548473 6.5
1.8413287 0.34139323 1.6992999 7.6666665
-1.6668084 0.46977514 1.7134382 11.1
-1.575422 0.46762228 1.6234629 11
1.8341132 0.49515703 1.7203116 9.625
-1.668355 0.65821761 1.7275505 14.277778
1.8500761 0.70656663 1.6870903 12.1
-1.8181252 0.93110025 1.7760848 16.5
-1.7339573 0.93359035 1.6863048 16.75
-1.5238209 0.90642983 1.618499 20
1.8751599 0.8465144 1.6618096 14.2
-1.7395979 1.0572697 1.6710757 18.5
1.8763151 1.0789067 1.7261705 17.375
-1.725498 1.3033068 1.7368815 22
1.9098536 1.3026998 1.7245655 19.833334
2.1109982 1.2647456 1.6992723 16.5
2.2403991 1.2646432 1.6888295 16.5
2.0401456 1.4863992 1.7066182 19
2.2121143 1.4093438 1.7085114 18
2.164875 1.7390195 1.6979097 20.833334
2.2178321 1.6089838 1.6511047 20
2.1531782 1.9039304 1.7262884 22.5
1.5242162 0.1616701 1.9676397 6
1.7187446 0.11017934 1.9554282 4
1.550401 0.34061652 1.9848223 8.5
1.7378893 0.25420624 1.9362856 6.4000001
-1.8544587 0.43223196 1.9726033 9
-1.6988493 0.49473819 1.9007034 12
1.7686063 0.51732582 1.870623 9.833333
-1.8308723 0.74476433 1.9209638 13.5
-1.6726606 0.66883588 1.8596356 15.666666
1.745189 0.65135872 1.9005454 12.1
1.807322 0.63036442 1.8804748 12
-1.810124 0.86239362 1.9878849 15.5
-1.7527105 0.9446944 1.8942703 21
1.757455 0.91921085 1.9140095 15
1.8482764 0.86247575 1.8584225 14.25
-1.8017946 1.0590315 1.9413579 17.5
-1.7737809 1.1630088 1.8609583 19.666666
1.7667458 1.1095631 1.9222475 18
1.8814232 1.1296799 1.847564 16.75
-1.7340477 1.3006618 1.8117009 21.75
1.7167606 1.2606461 1.9705448 20.5
1.9100494 1.2659558 1.8519441 18
1.9301662 1.4941432 1.867002 20.5
2.1348958 1.450844 1.9183743 19
1.9490849 1.7118434 1.8926201 21.666666
2.1274426 1.616807 1.9452333 20.5
1.9236267 1.926142 1.8566054 23
2.1401443 1.9022516 1.841876 22.5
1.3450005 0.039247453 2.1416359 5
1.5621685 0.12538774 2.1331351 5
1.6579942 0.11894135 2.0683537 4.833333
-2.0246563 0.23543489 2.1889524 6
-1.8407679 0.25865451 2.0368505 6.5
1.5740608 0.2387425 2.186841 6
1.6599426 0.2838906 2.0972428 6.9000001
-2.0072355 0.57633173 2.1454868 10.75
-1.9164656 0.55832428 2.0517921 10.5
1.3912456 0.56853414 2.1893184 12.5
1.5096474 0.49947739 2.17662 10.666667
1.6801268 0.51107693 2.1003506 9.8888893
-2.0114684 0.7465483 2.164782 13.5
-1.8584794 0.77704358 2.0878634 15
-1.7555227 0.67352343 2.0242524 15.2
1.6988389 0.73771232 2.0890133 12.9
1.8148379 0.70963985 2.0626466 10.5
-1.9086868 0.89492589 2.0893078 15.666667
1.5407796 0.98402071 2.1884112 17.5
1.690364 0.86141461 2.0514193 15
1.8202239 0.94470298 2.0873003 13.5
-2.0359495 1.1809939 2.0808001 19.5
-1.9494495 1.1560465 2.1482036 19.5
1.6870558 1.0830922 2.1247263 16.75
1.8700497 1.0957353 2.0015941 15
-2.0041692 1.2746495 2.0924671 21
-1.8982439 1.346419 2.1408403 21.666666
1.6902001 1.2725006 2.1151769 20.299999
1.8212566 1.3829271 2.0327277 18
-1.8955969 1.4441366 2.1796491 23
1.7365508 1.4691539 2.1249819 21.25
1.8173097 1.4409876 2.0210991 19
1.3081415 -0.0011904538 2.3589916 4.5
1.5219612 -0.040536065 2.2798786 3
1.5247935 0.085032038 2.2782996 4.0833335
1.6782266 0.14559937 2.2486184 4
-2.0206275 0.35606462 2.2617497 7.5
1.5222718 0.30645436 2.2616236 7.6428571
1.6816545 0.26669306 2.2518392 5
-2.038336 0.52735734 2.3450089 10
1.5572931 0.43937749 2.2599559 10
1.644649 0.4805637 2.2646155 9.875
-2.0545938 0.69208199 2.2942243 12.5
-1.9922448 0.73958856 2.3427017 13
1.537629 0.70031589 2.3325145 13.785714
1.6394325 0.70087713 2.3083324 13.666667
-2.0197299 0.91790688 2.307631 15.5
-1.9925693 0.91616154 2.3076959 16
1.5662378 0.93573952 2.2766163 16.166666
1.654506 0.88078642 2.2522683 14.5
-2.13061 1.1081918 2.3565021 17
-1.9611981 1.1442603 2.3146076 19
1.5496378 1.0609971 2.2832394 17.722221
1.6352835 1.0681859 2.3114569 17.166666
1.8072299 1.1272063 2.2319105 15
-2.0316601 1.2700186 2.325464 21.375
-1.925246 1.2589083 2.3151331 21
1.5880942 1.3416497 2.3346369 21.333334
1.7564182 1.2795974 2.3305137 16.5
1.8004534 1.2704738 2.2759566 16
-2.0487883 1.5486245 2.3530807 18
1.7537153 1.46487 2.2533031 19.5
1.8439736 1.4090377 2.2375503 17
-2.0335004 1.6715615 2.3471532 19
1.7592915 1.781612 2.3988028 21
-2.0098374 1.8354301 2.3440549 20
-1.9903197 1.9091971 2.3254063 21
1.7586718 1.9380908 2.366369 22.5
-1.9558568 2.0298154 2.2367387 22
1.4250698 0.075025328 2.4888268 4.375
0.62896001 0.2119399 2.4209356 6.5
1.3648691 0.35828102 2.5184274 9
1.4761289 0.30414289 2.4638538 8.125
1.6298988 0.25926346 2.4412851 5.5
1.3333378 0.46242362 2.5186071 12.25
1.460446 0.49574772 2.4717655 11.357142
1.6168338 0.41758716 2.4127479 7
-2.1008463 0.75660062 2.4576089 13
1.452516 0.76447958 2.515614 15.583333
1.6917731 0.69796312 2.4375203 10
-2.104053 0.86246723 2.4893091 15
1.4541432 0.93558586 2.5298796 16.9375
1.6433301 0.91708046 2.5331893 12.25
-2.0818498 1.1666806 2.4027131 18
1.5056274 1.0845215 2.493875 18.700001
-2.0781605 1.3781981 2.4428642 16
1.4669932 1.2562866 2.5182242 20.75
-2.0515399 1.5385046 2.4142015 17
1.5144598 1.4241281 2.4744902 22.5
1.6632007 1.5046196 2.4970946 18.666666
1.6369762 1.6815362 2.5332456 20.75
1.5035223 1.9984157 2.5919893 22
1.5319356 2.1215138 2.535428 23
1.3313742 -0.025544813 2.7333748 3.6666667
1.3361683 0.051155411 2.7289562 5.75
1.390589 0.34732777 2.7093701 11
1.4749349 0.35684761 2.6942043 10.166667
1.4832268 0.49531037 2.7346821 11.571428
1.3575771 0.6160357 2.6300983 12.5
1.4538317 0.65221894 2.7969599 10.166666
1.3208306 0.8677265 2.7598655 15.666667
1.467015 0.89562815 2.7207296 15.645833
1.3575202 1.0948234 2.7334874 19.291668
1.5115253 1.0595976 2.7553387 13.5
1.3700901 1.3722148 2.6825218 23
1.4706687 1.3126272 2.6824291 20.5
1.3951678 1.4637917 2.7112484 23
1.4812222 1.4721979 2.7445328 19.166666
1.6226127 1.4776809 2.6543422 19
1.6162665 1.605987 2.627429 20
1.4003679 1.9996974 2.7030134 22
1.4011176 2.010236 2.7256274 21
1.1831934 -0.067166671 2.963793 3
1.179527 0.060056843 2.9401841 4
1.3260561 0.039237984 2.8700478 3.6666667
1.4480239 0.084188901 2.8890352 3
1.1769633 0.2978082 2.965652 8
1.3284931 0.31725323 2.8376803 7.5833335
1.4772384 0.39506042 2.8183739 8.75
1.1505016 0.4719052 2.9649177 10
1.3871884 0.45160151 2.9435329 11
1.4078463 0.51510751 2.8852158 13.75
1.186475 0.70357275 2.9787617 12.5
1.395169 0.75428808 2.8205266 17
1.4831581 0.67401135 2.8885331 10
1.1950825 0.8229903 2.973377 14
1.3245547 0.93775529 2.8389862 18.5
-6.4556561 1.0289433 2.9137304 6
0.81018949 1.061497 2.9761984 21
1.1951735 1.1678216 2.975615 19
1.3500637 1.1160641 2.8482945 19.375
1.446502 1.1569026 2.8914976 14
-6.473259 1.2330734 2.876081 7
1.3041378 1.3156747 2.9033566 22.357143
1.4674051 1.2862163 2.8386226 15.9
-6.544899 1.5211321 2.8778687 8
1.3991475 1.4620646 2.9301019 19
1.2383863 1.7037755 2.9481704 18.5
1.4587334 1.710709 2.9492698 21
1.1912185 1.9901837 2.979466 22
1.3224187 1.9214656 2.8306253 21
1.4507754 1.9278799 2.8763816 22.5
1.1780435 2.1093206 2.9546137 23
-6.2717676 2.6243708 2.81181 15
-6.2177296 2.8511 2.8835633 16
-6.1153798 2.9530613 2.8788934 17
0.93094653 0.19239694 3.016377 10
1.0807993 0.11841907 3.1438119 5.875
1.292021 0.12025327 3.0115139 4.5
0.81078249 0.22029823 3.1942995 11
1.1329659 0.356875 3.0779519 8.75
1.148849 0.54076511 3.0516076 11.75
1.2967858 0.55144417 3.1124501 10.333333
0.018109262 0.60502398 3.1214695 20
1.2680328 0.71570832 3.0491192 13.6
-6.2786226 0.97478366 3.0472982 6
1.1903948 0.87407953 3.0782583 16
1.324421 0.889009 3.0088902 15.75
1.1392648 1.0368302 3.0579448 18
1.3787822 1.0357318 3.114789 14
-6.1972427 1.2017351 3.0739393 7
1.1627011 1.3624353 3.1589122 20.75
1.3206601 1.2342498 3.1692429 16.5
1.4452932 1.3358203 3.0233827 17
-6.224618 1.4258394 3.0797577 8
1.1752207 1.4414984 3.1790247 16
1.2035966 1.492564 3.0403502 16.5
-6.4117279 1.6186768 3.0630126 9
-5.8792109 1.7242929 3.1156471 11
-6.3562217 1.8422717 3.1014652 10.5
1.1897279 1.9204628 3.0428879 20.25
1.2006724 1.8497576 3.1804619 21
-6.2856846 2.749042 3.0604861 15
-6.1629457 2.9128408 3.0547304 16.5
-5.8659248 2.8947089 3.0114243 17.5
-4.6351676 2.9355814 3.0769134 21.5
-4.4615898 2.998265 3.0145359 23
-4.3934445 3.0138087 3.1713758 23
1.129849 -0.051998347 3.3170664 2.875
0.95954251 0.058445014 3.311553 4
1.0315703 0.14809741 3.3506906 6.6666665
0.12452021 0.37209207 3.3326421 17
0.90474612 0.22130604 3.281477 8.333333
1.1526148 0.28265941 3.3027978 5.75
1.2298852 0.25022435 3.2779813 6
0.16546157 0.55408239 3.3539689 21.5
1.0850885 0.52865291 3.3112113 11
0.99191064 0.61907983 3.374886 11.75
1.10329 0.71712345 3.2784765 13.583333
1.2516779 0.69037545 3.3623152 10
-6.1538324 0.84329861 3.2038665 5
1.0899419 0.90542567 3.3131516 15.857142
1.212507 0.82278711 3.3188188 14
-6.1633244 1.0724827 3.2210841 6
-5.5565553 1.1619004 3.2074904 8.5
1.040467 1.1391327 3.3562937 15.5
1.2362661 1.1068891 3.2503505 14
-6.1464748 1.2124438 3.2552428 7
1.0627761 1.2864497 3.328052 20.5
-5.5654159 1.439844 3.2078059 10
1.01923 1.4754239 3.3078041 16
-5.9476919 1.7556437 3.393012 11
1.0484751 1.6809716 3.3440957 17.5
1.3148972 1.7938696 3.2953885 22
1.1119585 1.9383686 3.2853308 20.5
-5.8592215 2.0493324 3.3935337 12
-6.1674757 2.401866 3.2717404 14
-6.0145235 2.7117257 3.2752414 15.5
-6.0888748 2.9519448 3.2199757 17
-4.6646614 2.8678496 3.2893834 21
-4.4722571 2.9731419 3.3033557 22
0.83209342 -0.042597 3.5512209 2.6666667
1.0457865 -0.032598875 3.5675385 2.75
0.087523758 0.18117312 3.4630713 11.5
0.3567881 0.18786116 3.5621085 12.4
0.57310247 0.067280047 3.5517368 8
0.60800529 0.068036906 3.5859141 8
0.92214251 0.13881378 3.4861481 4.8333335
1.0161285 0.055654068 3.5369315 6
-5.2220092 0.30072278 3.4954147 3
0.27741706 0.30116439 3.540122 15.25
0.49903631 0.28150824 3.54813 13.4
0.90589714 0.29240176 3.5067711 6.5999999
1.1093173 0.29982653 3.4187665 10
1.2180729 0.34298155 3.5892911 12
-5.5453825 0.52891588 3.4120088 4
0.41139042 0.47781724 3.4766827 20.25
0.88932532 0.48734173 3.5484188 9.75
1.0828269 0.54826492 3.5638859 13.333333
0.88660777 0.69262713 3.5500124 8.75
1.1371131 0.68168861 3.5852675 15
-5.5375128 0.86952585 3.4083362 6
0.90287375 0.82340467 3.5294795 10
1.029727 0.97761756 3.410058 18
-5.5142536 1.1044981 3.4426565 7.5
-5.243566 1.1370603 3.4868908 8.5
0.96531034 1.0833144 3.483881 14.166667
1.0695004 1.158599 3.5085592 18.5
-5.2744927 1.2865294 3.5059862 10
0.94767314 1.2667881 3.5101001 20.833334
1.0954692 1.2943947 3.4911828 17.375
-5.4947634 1.4660987 3.488513 10
-5.1902475 1.4927059 3.5563982 11
1.1382352 1.4645865 3.5080514 19.5
-5.5273848 1.6615062 3.5535889 11.25
0.88369375 1.6474172 3.5805736 19
1.2205349 1.7399858 3.4792564 21.5
-5.5125489 1.8691053 3.5889149 12.5
0.90721291 1.9536268 3.4523749 22
1.192098 1.9234778 3.4377933 23
-5.9738102 2.5127883 3.4262364 15
-5.6948385 2.5708511 3.4356651 16
-5.6314974 2.983264 3.5901706 18
-5.5926547 2.9043262 3.4767957 18
0.92092878 -0.070251249 3.7270808 3
0.78895873 0.10446271 3.6707439 4.5
0.83825004 0.12649176 3.6877341 6.5199995
0.48018473 0.26952428 3.6206613 14.25
0.7081356 0.27189884 3.6366308 10
0.86858195 0.28017917 3.7002695 9.3499994
-5.0170603 0.57688212 3.7127872 4.5
0.84243041 0.50353885 3.7173812 11.583333
1.0507735 0.45842052 3.7922103 13
-5.087986 0.73933786 3.7602198 6
0.79229939 0.6097818 3.7777939 11.5
0.88160187 0.71273804 3.7074893 13.833333
-5.4228659 0.90532255 3.7467146 6.5
0.77568656 0.94807422 3.7926569 11
0.88048148 0.91079968 3.675874 15.666667
-5.0725107 1.0770068 3.7021158 8
0.87607002 1.1151583 3.7126968 17.9
-5.5095253 1.316866 3.7206273 9
-4.9065228 1.3050199 3.7560759 11
0.86065525 1.2182369 3.788527 20
-5.5736279 1.4880681 3.6139722 9.5
0.79257685 1.5031947 3.753202 17
1.1093158 1.5526888 3.6676798 19.5
-5.1127853 1.6381879 3.6144006 12
0.90601778 1.7195798 3.7098372 19.5
-5.0932646 1.9484924 3.7321339 13
0.88245696 1.9516473 3.7004569 20.5
-5.0371528 2.2568028 3.7331471 15
0.98087573 2.4466784 3.7936003 21
-5.7581434 2.6951523 3.6104293 16
-0.92759609 2.7268631 3.7886765 22
-5.7178392 2.8255553 3.6034493 17
-1.0474527 2.8076496 3.6196799 23
0.84889472 -0.01585814 3.9694195 3.5
1.1004354 -0.021097459 3.8720088 5
1.3022807 -0.10878251 3.8712199 3.5
1.5813501 -0.080837801 3.9457488 4
0.75690103 0.14042549 3.8430929 4
0.99623597 0.15262771 3.8240948 5
1.1066858 0.13495147 3.838166 7.5
1.6180699 0.1309827 3.9716058 7.5
-4.6825652 0.32988131 3.9154727 3.6666667
0.76501757 0.25302431 3.8393555 5.5
0.88891447 0.22974047 3.9379017 5.5
1.099099 0.39208692 3.8464403 11.8
1.3686471 0.34721053 3.8943074 11.4
1.4928523 0.32922098 3.8608408 12
-4.7756987 0.49449137 3.9257538 4.5
0.755476 0.52737427 3.855402 8
0.91919321 0.51545328 3.8978751 9.583333
1.3403163 0.53585494 3.861835 14.75
-4.7674503 0.70690256 3.9146938 6
0.76221758 0.68323392 3.8348684 9
0.87765688 0.67178911 3.8204014 14.666667
1.317944 0.69276363 3.859241 17
1.4969711 0.68998963 3.9007168 17
-4.8434219 0.99063349 3.8684306 9
-4.752799 0.9684127 3.9321091 8
-4.2378483 0.91188329 3.9560068 9
0.78345627 0.85006738 3.8237584 11
0.88169038 0.90927011 3.904017 15.9
1.103161 0.910514 3.913156 19.5
1.3156359 0.92921728 3.9107265 20.666668
1.5693613 0.92034817 3.9588101 21
-5.2424364 1.0595171 3.8312747 8
-4.7139597 1.0836028 3.9276857 9
-4.4521809 1.0587907 3.9899621 9
-4.243403 1.0239065 3.9830489 10
0.77503449 1.0993909 3.8057561 12
1.0527174 1.108004 3.9094634 18.5
1.5414959 1.0477147 3.9905772 23
-5.0166597 1.2918162 3.8400636 9.5
-4.835237 1.2809273 3.8629162 10.5
-4.217495 1.2021399 3.9939392 11.5
0.86792338 1.2964584 3.9246984 15.75
-4.9925327 1.5320574 3.8474083 11
-4.6944175 1.5111187 3.8657782 12.5
0.82130885 1.4604121 3.9066162 17
-5.4915223 1.6260501 3.8950052 11.5
-4.9933186 1.685863 3.8589725 12
0.87839007 1.6308607 3.8932884 19.5
-5.44802 1.8553174 3.9012108 13
-4.8674259 1.9081457 3.9203339 13.5
0.91126788 1.899278 3.9119303 22
1.0031412 1.8083117 3.9150946 22
0.92622876 2.2999623 3.8950524 20
0.83594131 2.4948931 3.9726439 21
-2.9683223 2.791676 3.8515797 23
-2.2605054 2.719295 3.9656405 22
-2.1790934 2.7952583 3.8104186 23
-1.0725434 2.6791689 3.8845024 21.5
0.85917211 2.698674 3.8805282 22.5
-4.4166012 2.8677773 3.8564708 21
-4.3325129 2.8716621 3.8693497 21.75
-4.1434336 2.9714518 3.8831573 23
1.4884219 -0.040767863 4.0600681 5
1.7081796 -0.13487041 4.1266384 3.5
1.7220752 0.09367694 4.1436338 7.333333
-4.3282652 0.32160366 4.0813465 3.5
-4.152741 0.31615043 4.153306 4
1.2518747 0.24752328 4.0429096 9
1.4947715 0.39094901 4.0470972 12
1.690958 0.30754665 4.1079001 10.5
-4.7150207 0.53581452 4.0162268 5
-4.3113494 0.47937328 4.140955 4.75
-4.1382504 0.47490418 4.050694 7
-3.7868383 0.51897788 4.1713138 5
1.2469882 0.4533878 4.0450301 12
1.4758433 0.51618332 4.0502934 14
1.6902354 0.49971396 4.1177402 13.75
-4.6885877 0.72314894 4.0690179 6
-4.5586052 0.72187001 4.1015301 6
-4.3171363 0.7241143 4.1696362 6
-4.0747342 0.73085743 4.1992922 6.5
-3.661622 0.71455133 4.1882339 8.75
1.5176417 0.71006346 4.090385 17
1.6872473 0.64702606 4.0444198 16
-4.627327 0.93389124 4.0830121 7.5
-4.5809164 0.91856205 4.0912857 7.5
-4.1216278 0.89049065 4.1731954 8.25
-3.9217572 0.89213836 4.1413741 9.5
0.8712703 0.97090673 4.0184097 13
1.1766113 0.91780758 4.0595875 19.5
1.2222599 0.80119157 4.0600982 18
1.4666679 0.92300963 4.1090484 20
1.7088575 0.86999476 4.098464 19
-4.5198212 1.0464756 4.1966124 9
-3.9399247 1.1894857 4.1535144 11.5
1.3873885 1.105562 4.011857 22.5
1.4308236 1.0753269 4.117106 22
1.6206828 1.0771428 4.1008539 22.5
-4.8547907 1.2656997 4.1892095 11
-4.6798229 1.3531104 4.1209269 10
-4.4690576 1.2710109 4.0882463 10.25
0.94587266 1.3789313 4.0840435 17.25
-4.2715502 1.4589431 4.1805062 11.5
-4.070447 1.5403019 4.1840992 13
0.96402138 1.5693305 4.0377474 19.666666
-4.8086767 1.6558596 4.0594177 12
-4.6743011 1.6989249 4.1238189 13
-4.1467485 1.709389 4.1847844 13
0.82007992 1.7470738 4.0914478 15
-4.0309548 1.8913019 4.1815825 14.5
0.81279576 1.8897076 4.0939641 16
-4.375186 2.117945 4.0976381 17.5
0.81104022 2.0571573 4.0892863 17.5
-4.1198301 2.2136469 4.1722617 17
0.80077893 2.2457995 4.0374174 19
-4.0681858 2.4133408 4.1917953 18
-3.0842395 2.6989832 4.0309238 21.5
-2.3395345 2.6278625 4.0986161 21
-0.16560718 2.7573318 4.0624485 23
0.00040529689 2.6831214 4.0730352 22
1.8845986 -0.066584334 4.3141828 4.5
-3.7100883 0.16609205 4.3180804 4
-3.5142205 0.077931114 4.2688079 3
1.9353794 0.1078644 4.3700433 7.5
-4.0499077 0.39370459 4.3432846 5
-3.880152 0.28193697 4.2111139 3
-3.6834209 0.30974162 4.3049855 4.8333335
-3.4541197 0.28921455 4.3568621 4
1.5994726 0.37698251 4.2832437 10
1.8949304 0.27179989 4.3183956 9.25
-4.2720332 0.58420366 4.3275523 6
-4.024231 0.54830945 4.2992897 5.5
-3.9698429 0.42346996 4.3907604 6
-3.7138374 0.51063663 4.248733 6.6666665
-3.4951317 0.42366263 4.3671741 5
1.5907115 0.42155397 4.2936425 11
1.9189402 0.5046773 4.3300548 13.285714
-4.5162144 0.78967023 4.236146 7
-4.0836267 0.77449608 4.248364 7
-3.974308 0.77969301 4.3589582 7
-3.6819849 0.68627512 4.3071136 7.875
-3.4366796 0.6545378 4.3596191 7
-3.399219 0.60982943 4.3758659 8
1.939386 0.67719722 4.37466 15.5
-4.542325 0.92128593 4.2000675 8
-3.8323948 0.87014508 4.360548 8
-3.6935284 0.94197351 4.2885513 11.333333
-3.580472 0.93762141 4.3502455 10.5
1.9113909 0.88613188 4.3728328 18.5
-4.2914786 1.1144708 4.3383274 9
-4.1032991 1.0744197 4.2253327 9.5
-3.9347622 1.0912163 4.2947574 9.333333
-3.6756907 1.0948319 4.2786212 12.375
1.8018905 1.1055108 4.2886553 22
-4.4927731 1.289117 4.2125387 10.5
-4.278626 1.2807745 4.2905645 10.5
-4.0831232 1.311548 4.301929 11.25
-3.9260149 1.2931974 4.2869892 11.75
-3.7795987 1.2872674 4.3408623 10.5
-4.4493551 1.5585043 4.2314935 12
-4.0804133 1.4541535 4.288496 12.166667
-3.666723 1.4297171 4.3960676 13.5
-3.4749665 1.5255847 4.3927302 15.5
-4.4326921 1.7469289 4.2642303 13
-4.0436544 1.6073139 4.2883482 12.5
-3.3430336 1.7236382 4.3466744 18.333334
-4.5126781 1.9869251 4.20298 15
-4.3817692 1.8873906 4.2479076 14.5
-4.1015215 1.8724518 4.2812381 14
-4.4846945 2.051249 4.2027607 16
-4.2349401 2.0592821 4.3251314 16
-4.1328802 2.0696797 4.2076349 15.5
-4.303463 2.2736912 4.3147326 17.75
-4.137229 2.2561624 4.2678061 17.5
-3.6814544 2.2472873 4.3738213 18
-4.2305226 2.5891795 4.3716388 19
-3.8265467 2.4538569 4.3361144 16
-0.039888039 2.580595 4.2257237 20
0.020543486 2.598114 4.2281547 21
0.65824455 2.5999501 4.3070874 21
-4.2221818 2.6935761 4.2670407 21
-4.0374746 2.6047425 4.3191667 19
-3.6635613 2.6145737 4.291636 17
-2.4208198 2.7384028 4.347929 23
-0.1815826 2.6770558 4.228147 21.5
0.70831555 2.6664279 4.3872523 23
-3.8935738 2.8069804 4.2252789 20.5
-3.7162614 0.13918909 4.5293365 3.5
-3.5268836 0.090806097 4.4319048 3
-3.3268688 0.1005476 4.5629864 3.1666667
-3.0807977 0.10786606 4.5421615 5
-2.4834192 0.15852012 4.5772271 5.5
-3.9237561 0.37608591 4.5309672 4
-3.7278986 0.29787993 4.5221367 5
-3.5010691 0.37767977 4.4787149 6
-3.3494298 0.35012549 4.5556874 6
-3.0899243 0.31450486 4.5378819 7.25
-3.908649 0.58208257 4.4049587 7.5
-3.7558925 0.46916834 4.4732642 5.75
-3.5369608 0.50924462 4.4910855 6.8333335
-3.2857301 0.49897647 4.5096951 8
-4.0903673 0.6633659 4.4193611 6
-3.6927471 0.64326334 4.5210094 6.25
-3.5509624 0.66220373 4.5325084 8.25
-3.3019669 0.73292077 4.4821472 9.5
-4.1883774 0.88533378 4.4283681 7.5
-3.9018078 0.84342504 4.4561868 7.5
-3.6876523 0.86127734 4.5194554 7.5
-3.4552298 0.9085986 4.4769053 10.666667
-3.2943208 0.92801929 4.4227829 11.5
-4.0318141 1.0194758 4.441721 9
-3.8780653 1.0793509 4.4824305 8.5
-3.7234812 1.1071168 4.5693846 8.5
-3.4662342 1.1081394 4.4904981 10.666667
-3.2688005 1.1435313 4.4301414 13
-4.0875249 1.2671221 4.5126529 11
-3.9203684 1.3852154 4.5051351 10
-3.6931787 1.2695872 4.5314879 11
-3.5181143 1.2779435 4.4062538 14
-3.3671627 1.2587904 4.4264545 13
-4.2164803 1.4771096 4.4323068 12
-4.0519085 1.5299201 4.5409145 12.75
-3.882477 1.5078856 4.4552197 11
-3.7390895 1.574767 4.4804854 11.75
-3.4477186 1.5131676 4.4831657 16.5
-3.3412673 1.5268484 4.4780865 16.5
2.1673865 1.4153714 4.5986795 19
-3.8927827 1.7242426 4.4426231 12.5
-3.7051656 1.6877767 4.5399237 12
-3.50668 1.6291364 4.48629 16
-3.2755613 1.6985352 4.5068941 18.25
2.4094548 1.7641267 4.5954652 23
-3.892832 1.9374863 4.5321431 14.333333
-3.7584441 1.9088184 4.5575628 15.25
-3.419332 1.9924781 4.5669613 15
-3.3366532 1.8773004 4.547822 19
-3.0652263 1.8886307 4.5499711 20.666666
-4.0637813 2.0589447 4.5036597 16.25
-3.8871613 2.1162684 4.4674745 16.5
-3.6761558 2.1459002 4.5415578 15
-3.278415 2.0118668 4.5492716 21
-3.0208077 2.115701 4.5259628 22.5
-3.8978412 2.3244245 4.4902272 17.333334
-3.7402368 2.2663925 4.4841189 16.75
-3.8987725 2.5728388 4.5437326 20
-3.6970134 2.4490216 4.5447245 17.5
-1.9005772 2.5713794 4.4685526 20
0.21675894 2.5811977 4.4560633 20
0.71998817 2.594002 4.5155234 22
-3.8188431 2.7309804 4.4650245 20.5
-3.6412356 2.691041 4.5513406 18
-3.2608624 2.6563969 4.5158625 17.5
0.2931436 2.6211891 4.4084229 21
-3.8633242 2.8548272 4.5056505 21
-3.3740249 2.8346186 4.507513 22
-3.0549035 -0.15047225 4.7392044 1
2.7199645 -0.068193913 4.706646 4
-3.6312163 0.058272179 4.6254873 3
-3.3544147 0.14356641 4.7374101 4
-3.13728 0.11837093 4.7617149 3.25
-2.9011722 0.088633358 4.663866 5
-2.7317219 0.12727706 4.7710581 5.75
-2.3150892 0.12143196 4.727869 5
2.7337763 0.090164781 4.6972418 6.25
-3.4633336 0.34883785 4.7760658 5
-3.2967482 0.24889044 4.7168217 5
-3.169795 0.29418141 4.7648563 6
-2.9229164 0.24963802 4.6816916 7
-2.782738 0.28338045 4.7477584 7
-2.3701677 0.22080159 4.7113938 7
2.760272 0.34613031 4.7151628 8
-3.4310224 0.5161286 4.6138315 7
-3.3536081 0.45060864 4.6658373 6
-3.1182375 0.48082924 4.7050858 5.75
-2.8569782 0.47914371 4.7365432 9.7777777
-2.5235925 0.51938021 4.6620321 9
2.4398766 0.47842944 4.7585115 10
2.7344146 0.41588461 4.7060394 9.5
-3.6904836 0.71041697 4.6351123 9.5
-3.4923689 0.70877028 4.7099848 9.625
-3.3098159 0.67236185 4.6880045 8
-3.1783042 0.70924824 4.6954098 7.75
-2.9156525 0.65111685 4.7729425 7
-2.7434838 0.77215034 4.7821941 13.5
-2.5634558 0.69155633 4.6163464 11.5
-2.276592 0.71600246 4.7292833 12.5
2.7569337 0.65980041 4.747097 11.5
-3.671639 0.94612193 4.6167507 9.75
-3.4945309 0.99658704 4.6823692 9
-3.3146825 0.91529834 4.6994691 8.5
-3.000546 0.84876043 4.640851 14
-2.8572218 0.86674577 4.6758051 8
-2.406754 0.88058203 4.7391062 14.5
2.7007699 0.82033283 4.6877546 13.5
-3.6714764 1.0259668 4.6173854 12
-3.5125711 1.0875874 4.6623993 11.333333
-3.2950554 1.0901295 4.7305708 13.333333
-3.1383269 1.1253949 4.7546458 11.5
-2.869122 1.0325619 4.7275295 17
2.516582 1.1011904 4.6257997 16.5
2.7153044 1.0135775 4.7454367 15
-3.6815782 1.2964346 4.6256218 10
-3.3198907 1.3286264 4.6956749 13.625
-3.1173825 1.2654961 4.701839 13.875
2.2203269 1.2460105 4.6003428 17.5
2.4706388 1.31986 4.655591 18.5
-3.5571561 1.5766524 4.6148434 11.5
-3.2605314 1.4720519 4.6721001 15.75
-2.9415958 1.4469773 4.7148571 15.333333
-3.4788167 1.7024009 4.6437044 14
-3.2236767 1.6845158 4.7351046 16.125
-3.029753 1.7708198 4.704277 20
-2.9116366 1.6317688 4.7740507 16.5
2.1763954 1.6960837 4.623889 21.5
2.4944425 1.6355587 4.636363 21
-3.5022221 1.8844531 4.619288 16.666666
-3.3465686 1.8629427 4.7385454 14
-3.1199927 1.8586814 4.7223191 17
-2.987 1.8594604 4.7057991 20.5
-3.6032853 2.1081963 4.7494063 16
-3.4803383 2.1080587 4.6599884 18
-3.0530939 2.1189816 4.7750473 18.25
-3.8368218 2.3805552 4.6086016 19
-3.5003614 2.3090589 4.7090392 18
-3.7368889 2.4967313 4.6550741 16.5
-3.4655066 2.4505355 4.6889782 19
-3.216588 2.587944 4.6384072 17
-3.0865149 2.5933168 4.7636685 16
0.72378528 2.5682843 4.6355929 21
-3.8977561 2.7085938 4.62079 21
-3.5299394 2.6986196 4.6687093 20.875
-3.0330191 2.657419 4.675148 17
-2.7091169 2.7149041 4.7630644 22
-3.2246211 2.8697689 4.6837854 23
-2.881238 -0.017274681 4.9741478 2
-2.5410929 -0.013546035 4.981051 3.5
-2.1751194 -0.087049335 4.8251772 2
-3.0589006 0.12879185 4.94695 4
-2.2192311 0.043509685 4.8574204 4
-2.1266057 0.083144985 4.9431868 4.5
-1.9198132 0.12643686 4.9148288 5.75
3.0737891 0.12766464 4.9388771 6.5
-3.2772231 0.24969643 4.8291278 5
-3.0920208 0.34063202 4.9257035 4.9000001
-2.8956711 0.29700434 4.9137864 5
-2.6784389 0.31985128 4.9263568 5.3333335
-2.5474901 0.27895153 4.9475145 6
-2.3381817 0.28086194 4.8663979 7
-2.1975849 0.29182881 4.9919243 8
2.976562 0.37912378 4.9220486 9
-3.5664425 0.58347154 4.8199525 8
-3.2460182 0.59941304 4.925046 9
-3.022773 0.49076217 4.952806 7
-2.8530626 0.55581135 4.8524442 6.6666665
-2.730072 0.50969321 4.9179254 8.8888893
-2.4874954 0.47522736 4.9060082 5.5
-2.3023295 0.47499877 4.8983393 8.166666
-2.1255047 0.58900499 4.8486643 11.5
-1.8859348 0.48395956 4.9879417 10.25
2.9783108 0.59468412 4.929801 11
-3.4245362 0.7467398 4.8440723 10
-3.2374289 0.7070719 4.8543921 9.5
-3.0928202 0.72543061 4.9198003 8.6999998
-2.8790667 0.67918426 4.9105396 8.166667
-2.7325468 0.69487584 4.8960767 9.5
-2.441288 0.65231013 4.8667235 7.75
-2.3285413 0.66292858 4.8560004 12
-2.1610737 0.70694458 4.9206219 14.25
-3.329421 0.84589231 4.8378143 11
-3.1060581 0.93548846 4.8908596 9.75
-2.6516087 0.87936288 4.8878851 13.666667
-2.4685922 0.87048787 4.9622173 13.625
-2.2913356 0.82094264 4.9165249 11
-2.1285477 0.88657463 4.9467897 16.25
2.944839 0.8780551 4.9074326 14
-3.2430527 1.1643516 4.8094859 9
-3.0822086 1.1245573 4.9330344 9
-2.9732237 1.1018624 4.9188156 14.5
-2.6536772 1.160548 4.8883724 19.666666
-2.5212061 1.1825597 4.9802742 19.5
-2.2671292 1.0510132 4.8551493 17
-2.1655428 1.0636418 4.8888736 18.666668
2.9282131 1.0473115 4.9217901 16
-3.4210458 1.2978559 4.821506 10
-3.0466819 1.3858966 4.849925 11.5
-2.9514842 1.3399556 4.8248024 16
-2.1472752 1.2515743 4.8607821 19.75
2.8920126 1.3030087 4.9273453 17.75
-3.0502038 1.4005209 4.9354787 15
-2.4150019 1.5328709 4.9924827 15.5
-3.0502093 1.655002 4.8663154 19
-2.8839576 1.69445 4.957901 18
-2.6598392 1.7388786 4.9770756 18
-3.0767307 1.9290555 4.8202796 20
-2.9467525 1.8805646 4.8261032 15.5
-2.6652627 1.9033915 4.9941869 20
-3.0546272 2.1174381 4.8089962 17.5
-2.9227448 2.0668335 4.8773336 17
-2.5756874 2.1236184 4.9898024 22.5
-3.0837467 2.2805099 4.9001775 15
-2.7502594 2.3566051 4.9824624 18
-3.2937539 2.5221186 4.8787551 18
-3.1088591 2.5229259 4.9066405 19.5
-2.8025692 2.5851049 4.9733915 20
-3.2574551 2.7051003 4.8486691 21.25
-3.1327863 2.6342535 4.9813538 18
-2.9927421 2.6215849 4.8070288 21
-1.8600137 2.7660401 4.9376888 23
-0.79215306 2.6549981 4.9909668 22.5
-2.854888 -0.12038117 5.048532 1.5
-2.3385305 -0.0093828961 5.0992336 3
-1.8721687 -0.13808727 5.1041059 2
3.0800209 -0.10217181 5.0570989 4.25
-2.8425903 0.044778746 5.0099044 3
-2.7558718 0.12810136 5.128706 4
-2.465313 0.069061935 5.1967125 3.5
-2.3150697 0.12794767 5.0952373 4.1666665
-2.0967181 0.079943269 5.0686064 3.5
-2.8165143 0.33827931 5.1383996 6
-2.6683784 0.2729615 5.1542811 4
-2.4262342 0.27506402 5.1076326 6.5
-2.3573823 0.33146259 5.0919647 5
-2.1990399 0.37385339 5.0043077 9
-1.6863706 0.24641368 5.0574856 7.5
-3.2140036 0.53970808 5.0682249 8
-2.6866419 0.52466065 5.0923233 6.625
-2.5150707 0.48799214 5.0584006 8.5
-2.2526281 0.58205616 5.1011453 10
-2.073391 0.45121589 5.0890384 8.5
-1.6408296 0.53812295 5.0981569 12
3.089103 0.43533012 5.0637312 9.5
-3.0179172 0.70755243 5.0973043 10
-2.6950331 0.69302988 5.0281124 7.625
-2.4876342 0.71288097 5.0783205 9.6999998
-2.2610018 0.67942476 5.089437 7.6666665
-2.0472128 0.61045229 5.1146212 12
-1.9373875 0.70372796 5.1780109 13.5
-1.7671611 0.7675041 5.062809 14
-2.9783254 0.99930811 5.0336332 12
-2.711484 0.90397012 5.0218825 10
-2.5029285 0.86660093 5.0628142 8.833333
-2.2874119 0.8854003 5.1092849 13.3
-2.0204003 0.82248849 5.0840344 14.5
-1.8881402 0.83569181 5.1856813 15.5
-1.6596928 0.81978315 5.0917053 15
-1.5271144 0.96895254 5.159636 17
-3.0716071 1.1435459 5.0312762 10.5
-2.91152 1.1054218 5.059411 13
-2.4851968 1.0541048 5.0607142 15.888888
-2.3080111 1.1325148 5.1363182 18.166666
-1.8899086 1.0869396 5.1276207 19.25
-1.5642462 1.1615721 5.1138554 19.5
-2.9007213 1.309252 5.1036119 15.5
-2.7918842 1.3896444 5.0930562 17
-2.4486856 1.2832154 5.0801101 14.833333
-2.3767385 1.3022964 5.067039 22
-2.0625067 1.2463007 5.0111094 20.5
-1.8524345 1.2212279 5.1235313 22
-1.7145247 1.2130674 5.0349865 20
-1.5579047 1.2878171 5.1097803 21
-2.7107291 1.4947164 5.0614805 17.5
-2.2740831 1.519665 5.1859989 21
-2.8945417 1.6574452 5.0651145 16.333334
-2.465652 1.7494028 5.1167469 16.25
-3.0252252 1.9587992 5.0051684 13
-2.9287586 1.9244014 5.0515189 16.5
-2.6699357 1.9077407 5.0899668 20
-2.9280219 2.1538911 5.1411638 18
-2.743433 2.0693641 5.0079117 16
-2.3882048 2.0823226 5.1204767 21
-2.8773346 2.2935686 5.0841331 17.5
-2.6772065 2.2169237 5.1090093 14
-3.0982518 2.4251866 5.0738807 16
-2.8360713 2.5166969 5.0912838 19.875
-2.5662241 2.4988942 5.1748791 19
-2.7112124 2.7457397 5.0495625 21
-2.5424378 2.6274202 5.0429969 18
-2.1365864 2.6569834 5.1286821 19.5
-1.9593278 2.6465864 5.1567311 21.5
-2.2549787 -0.07063815 5.2156339 3.5
-1.7334638 -0.018233422 5.286221 3.6666665
-1.4577621 -0.11137331 5.3694134 3
-2.1136601 0.088967592 5.2981968 4
-1.9022216 0.020322856 5.2794447 3
-2.5058651 0.29675761 5.2318015 6
-2.3132212 0.30929857 5.2750912 7.6666665
-1.7938471 0.24568866 5.2406716 8
-2.7251122 0.54512447 5.2257175 8
-2.3130193 0.44974482 5.325572 7
-2.1295638 0.55489391 5.3456392 13.5
-1.6125737 0.43538982 5.3943858 10
-1.3177648 0.56059819 5.3557997 12
-1.042546 0.5457412 5.3897052 12
-2.7650578 0.64980781 5.2125459 9
-2.1253543 0.79832548 5.2837443 17
-1.9465849 0.71774173 5.2677164 8
-1.7130467 0.69865155 5.3190088 8.5
-2.4927065 0.94309872 5.2758832 8.333333
-2.389375 0.83362877 5.2334852 11
-2.0683362 0.85672009 5.3763056 12
-1.7197121 0.93623781 5.3329968 10
-1.3880605 0.83934897 5.2251668 16
-2.2974062 1.0292602 5.2663016 10.25
-2.1155748 1.1623812 5.2671375 15.5
-1.84329 1.0314864 5.2301617 17.5
-1.0592593 1.1678454 5.356472 20
-2.8129673 1.2813997 5.3127031 15
-2.5031481 1.2666492 5.2153387 12
-2.3206222 1.3248214 5.2328258 12.666667
-2.0623093 1.3983239 5.3755641 14
-1.7693653 1.2719747 5.2524495 20.75
-2.7674553 1.4193563 5.3375072 16.5
-2.3314342 1.4965942 5.2715602 16.25
-2.0544858 1.4711052 5.220922 15.5
-2.6041489 1.7640771 5.2662277 15
-2.1963468 1.6630836 5.2356291 18
-2.623229 1.8604163 5.3002133 16
-2.5630465 1.943089 5.2089171 17
-2.3662024 1.8700978 5.3364649 20.5
-2.0295727 1.8977351 5.375638 19
-2.4022851 2.0994673 5.2072206 17
-2.293375 2.0802441 5.3261318 20.5
-2.0423799 2.0458605 5.3793807 16.5
-1.9193456 2.120707 5.3744488 21
3.3899961 2.3378053 5.3252792 22
3.4937541 2.323777 5.3827744 21
-2.3011973 2.5399592 5.2916117 20
-2.0843582 2.4697304 5.391542 19
-1.0177766 2.51665 5.2408724 20
-0.7934829 2.5228996 5.2296252 21
3.2717972 2.4176013 5.2954116 23
-2.2055688 2.6145625 5.2437496 20
-2.0239964 2.6812544 5.2836437 17
-1.7131419 -0.28802094 5.5049834 1
-1.8817382 -0.065808058 5.4673853 2
-1.7040139 -0.11089996 5.5759535 3.5
-1.5418233 -0.057182904 5.4793167 2.3333333
-1.8793048 0.019088089 5.5212288 3
-1.7662665 0.032109141 5.5610671 4.5
-1.3333281 0.071577311 5.5760679 3.5
-1.8793994 0.25404045 5.5221639 4.6666665
-1.671639 0.31490082 5.5051498 5
-1.5481339 0.32089499 5.5393782 6
-1.2816836 0.38336027 5.4644451 10
-1.0252457 0.29799074 5.4265532 9
-2.0849161 0.40179539 5.421443 5.5
-1.8203273 0.50788456 5.5161729 10.5
-1.7352079 0.47190541 5.4734554 10.125
-1.4512734 0.55724317 5.5510516 7
-1.3714496 0.44315335 5.5564079 7
-0.82459974 0.49304584 5.4836836 11.5
-2.0565825 0.69395423 5.4842386 11
-1.9117936 0.68249756 5.5176187 10.333333
-1.634724 0.76218212 5.4579377 7
-1.4986985 0.7775144 5.594183 10
-1.3099055 0.62419337 5.5323997 8.5
-1.007844 0.64202291 5.5192699 13
-0.8695938 0.72885412 5.5047503 14
