# .PCD v0.7 - Point Cloud Data file format
VERSION 0.7
FIELDS x y z intensity
SIZE 4 4 4 4
TYPE F F F F
COUNT 1 1 1 1
WIDTH 1199
HEIGHT 1
VIEWPOINT 0 0 0 1 0 0 0
POINTS 1199
DATA ascii
3.2168326 2.2605081 -0.3265543 19.5
-1.4552432 2.6448517 -0.2051831 18.794666
0.6966033 2.7998683 -0.09470892 22.1315
1.423026 2.7819984 -0.2433451 22.793501
1.8599325 2.7729254 -0.22921009 20.754499
2.2321498 2.762717 -0.22347863 20.539042
2.5949597 2.7716553 -0.16478561 20.623043
3.0393929 2.6417947 -0.17533089 21.152882
3.2742109 2.6023188 -0.35065722 21.7885
-10.785026 3.1917322 -0.21769094 10.021
-8.5637627 3.1445637 -0.17849553 12.02
-1.3457286 3.0000131 -0.12431314 20.614349
-1.0119332 2.9841955 -0.26575786 20.698
-0.4743309 2.9879968 -0.38147497 21.127501
-0.1738656 2.877739 -0.13810682 21.125999
0.27750823 2.8787055 -0.19319236 21.770002
0.57270771 2.8525195 -0.20492233 21.598677
1.0126851 2.8459146 -0.2374687 20.980606
1.3968544 2.8283894 -0.22435968 20.873564
1.8013769 2.8261678 -0.27222046 21.55493
2.0626421 2.8165326 -0.15501374 21.623875
2.6288052 2.8750362 -0.31192473 21.626875
2.9999969 2.8745756 -0.31397694 22.126251
3.2772312 2.8326244 -0.25926509 20.457832
1.7652836 -0.062933557 0.18905456 1.5555555
2.0322037 -0.031476729 0.15598859 2
2.6188326 -0.067058794 0.25531054 2
2.9404316 -0.05006199 0.077859201 2
-2.1031392 0.35993686 0.27169752 3.875
-0.88507038 0.32323417 0.29844046 11.044107
-0.76325303 0.34401861 0.04796515 11.290638
-0.16101336 0.086721167 0.13775802 3
1.0640621 0.045398399 0.10847992 4
1.2625897 0.035065282 0.0025529861 3
2.6895597 0.1942576 0.23032236 4.7098217
2.8656895 0.15206671 0.11083032 4.4066668
-2.1958776 0.64677984 0.37489319 5.75
-0.90107858 0.59640527 0.26832855 17.249241
-0.75394428 0.62723547 0.09614075 17.103413
1.3682172 0.79995334 0.24569535 11.1285
2.7203655 0.63523471 0.24715708 9.3457651
2.8914373 0.65703261 0.15786816 9.0126057
-2.0892613 0.99495578 0.29853797 8.166667
-0.93086302 0.93789989 0.31796318 19.896879
-0.75923872 0.85855269 0.10962182 21.511623
1.1881847 0.88325506 0.048603296 11.1305
1.2579312 0.91651702 0.15267134 11.629625
2.7497282 1.043364 0.282085 13.475142
2.8815026 0.95389163 0.18312187 12.162509
2.7279127 1.3641684 0.23368661 14.474833
2.9022076 1.428195 0.19936879 15.580014
-1.7607431 1.7141721 0.16934896 13.421018
2.695117 1.8141361 0.22844377 19.494537
2.8899355 1.8056738 0.21257117 18.61602
-1.7127299 2.2005816 0.18629122 16.6625
2.7194433 2.0558434 0.28056383 21.836189
2.9119532 2.1626525 0.18071294 20.708048
-1.6636473 2.7080631 0.24324767 20.797417
-1.4653801 2.6670234 0.14466687 20.297417
1.438238 2.7788677 0.22529292 21.848818
1.8203814 2.7585816 0.21061608 21.844334
2.1876063 2.7439647 0.15280658 22.087317
2.6273184 2.7380486 0.23649056 21.871693
2.9291749 2.6158137 0.17875458 22.075142
-7.6636114 3.1046543 0.20980394 13.02
-1.7111952 2.9330935 0.22766042 20.628
-1.4448466 2.9375801 0.18612257 22.004562
-0.99715537 2.9016228 0.27510932 22.546104
-0.59900457 2.8837552 0.25978744 22.727427
-0.18891549 2.8725226 0.20808458 22.457067
0.15708102 2.8571436 0.19070168 22.456835
0.53245568 2.8413672 0.17351258 22.625374
1.0384587 2.8248227 0.23997355 22.7271
1.3019245 2.8283772 0.084429979 23.128
1.7378563 2.8057814 0.26272547 21.620499
2.1386087 2.8105409 0.10353836 21.454834
2.7131076 2.9063406 0.34173334 23.125126
1.3889784 -0.065325253 0.71809626 1.5
1.7684628 -0.064683966 0.60229975 1.3333334
2.5229557 -0.0043007433 0.72963607 3
-1.0807325 0.29835141 0.62797737 10.2118
-0.6061241 0.088868275 0.5303669 2.5
0.15420911 0.023180448 0.67086792 2
0.90131325 0.0059826714 0.57219362 3
1.7386246 0.0051809996 0.60619438 2
2.3569009 0.31887871 0.73421037 5.75
2.5537987 0.19163105 0.59016657 5.0873947
-2.2141774 0.66893214 0.43901673 6
-1.2593443 0.5733034 0.69755089 12.744301
-1.0757574 0.60536426 0.62272477 17.478277
0.97864813 0.79960418 0.62840092 12.129
2.2252259 0.56663436 0.72956008 9.1956596
2.5622194 0.60926813 0.59719908 9.7544003
-1.2288424 0.98079062 0.72941971 17.737143
-1.0879552 0.95936412 0.61918378 20.531277
1.1680882 1.0062406 0.50453424 14.1285
1.3191276 1.0530275 0.70110309 15.1265
2.2766857 0.98242658 0.73117846 12.915334
2.5982418 0.99685389 0.60052639 13.832838
2.8882399 1.1928835 0.52252126 12.121
-1.2389065 1.3834238 0.74370724 21.429251
-1.1301479 1.3339429 0.59542572 21.900749
2.0889223 1.3630164 0.68320078 15.623
2.6327829 1.3873383 0.62450308 17.529755
2.8760145 1.4480401 0.52248281 15.015834
2.1512835 1.6712992 0.656865 18.122999
2.651041 1.8199248 0.60584909 20.11532
2.8473718 1.7746494 0.55253762 17.808125
2.6239285 2.1130812 0.6455704 22.206274
2.8344686 2.2111459 0.54356962 19.924429
-10.52805 2.5910923 0.78737402 9.0244999
-5.5137854 2.5015945 0.60364127 15.0195
-2.0174041 2.5695927 0.67746449 20.130501
-1.8573613 2.5848556 0.50726271 19.689751
-1.5379887 2.7468007 0.44357285 21.800501
0.71964389 2.7757645 0.46269789 22.56439
0.99335337 2.767061 0.56402409 22.618343
1.4182987 2.7456715 0.62717956 22.367708
1.7989913 2.7350256 0.61947972 22.160894
2.2364249 2.7096415 0.51930177 22.559124
2.6383126 2.6590724 0.5299232 22.537292
2.8589809 2.6133351 0.53578371 22.550142
-9.5971136 3.1281106 0.78362584 11.024
-5.3683429 3.090024 0.6427815 17.0175
-1.8649542 2.8826671 0.61927974 21.646715
-1.2500846 2.9230771 0.47805023 23.13225
-0.94306469 2.926599 0.50813979 22.92565
-0.59578001 2.8953648 0.48734045 22.980429
-0.18760708 2.9186897 0.50147915 23.120001
0.23998074 2.8705597 0.47406372 23.121626
0.51184297 2.8170369 0.47603473 23.048357
0.92908716 2.8126118 0.6687429 23.118332
1.3060313 2.8021135 0.48478031 23.127001
2.7915368 2.8176441 0.50562024 23.124001
-0.75287461 -0.016128818 1.0754024 2
0.56268847 -0.022806337 1.1463057 2.375
1.0497694 -0.064936735 1.0525334 1.4
1.4622627 -0.053142786 1.1332524 1.5833334
1.6720068 -0.076481044 0.88343865 1
2.4598024 -0.073102042 0.83768833 2
-1.2938237 0.30927777 1.0529529 10.25547
-1.1864685 0.25697818 0.86049247 10.714958
-0.4311623 0.016657226 1.0355847 3
0.68766791 0.064502768 0.92481124 3.25
1.9832077 0.092338704 0.88147545 4
2.2076812 0.26432604 1.0587759 6.4861732
2.4625363 0.23599924 0.84935141 5.6291671
-1.3022006 0.60467869 1.021661 15.911311
-1.1655633 0.59886581 0.86361057 17.477741
1.0746467 0.7089408 1.0126849 12.2925
1.9931861 0.56626362 0.93252188 9.1184998
2.2272246 0.60639846 1.0338885 10.258521
2.4664352 0.62173527 0.89565152 9.7393045
-1.3265589 0.96331829 1.0381247 19.826887
-1.1674396 0.9504723 0.85973293 21.731785
0.91964954 0.83790445 1.0439889 14.62675
1.9800154 0.93268359 1.0776657 12.65925
2.2517812 0.96837234 1.0375202 14.28561
2.4908123 1.0300801 0.90883666 14.368155
-1.3577049 1.3160516 1.0235442 22.387972
0.015526414 1.4299381 1.0728364 17.122499
1.9491329 1.310375 1.1013261 16.118166
2.2846441 1.3627623 1.0702504 17.634623
2.4884224 1.3800794 0.95086122 17.87693
1.939497 1.6157604 1.0726283 19.1185
2.3118598 1.7878503 1.0565532 20.736265
2.4923766 1.8145449 0.99914688 21.723015
2.3658371 2.1547735 1.1402409 22.414167
2.5560176 2.10517 0.91672021 22.131283
-10.482002 2.5282691 1.0577192 9.0244999
-5.421145 2.4522367 1.0345272 15.0195
1.1391752 2.7920794 0.80568838 23.116501
1.3531407 2.7558048 0.84629947 23.01545
1.6675708 2.7258542 0.98918557 23.114124
2.1127803 2.7300317 0.93259925 23.1215
2.5852506 2.5558262 0.89392358 22.620085
-7.7461381 3.1210551 1.1355102 14.0315
-5.3604183 3.0566339 1.0248291 17.518749
-4.8925781 3.1123552 1.0414063 19.018499
-2.220103 2.9518683 1.0389812 22.608749
-0.96961057 -0.043563407 1.5574608 1.7
-0.60516334 -0.019059908 1.3469133 2.5
-0.13840047 -0.024784219 1.3880461 2
0.14507058 -0.014995085 1.2923506 3
0.61973476 -0.055004269 1.4768312 1
1.011465 -0.0997779 1.4634799 0
1.4064529 -0.056690466 1.4454272 1.8
2.0764048 -0.01176345 1.3179048 2
-1.6513476 0.33667877 1.4694179 8.3889999
-1.4502196 0.33154923 1.3756527 9.4077463
0.61441785 0.039198954 1.4728904 3
1.4709208 0.00041219592 1.2845302 2.5
1.9251704 0.258688 1.4709705 6.5365968
2.1360948 0.24476282 1.3340577 6.2527924
-2.932147 0.76639009 1.5024881 9.0124998
-1.7263676 0.5988462 1.4997985 11.891125
-1.4601109 0.59031296 1.3889421 15.135682
1.9345272 0.61257249 1.4912571 10.961052
2.1532047 0.61491644 1.3572195 10.408196
-2.8349099 1.0872056 1.4084184 12.0115
-1.6833982 1.0336692 1.5207932 19.359165
-1.4737433 0.94510198 1.3921729 20.879805
0.92615789 1.151885 1.5383216 21.122833
1.9419051 0.97028172 1.5103978 15.084787
2.1750076 1.0182741 1.3659434 14.973848
2.4066975 1.0340633 1.210677 14.118
-1.6430507 1.3111379 1.5037494 22.409666
-1.4679401 1.3302332 1.2720054 21.9419
0.89355487 1.3104112 1.4129 22.124374
1.8861461 1.3614601 1.4304588 18.07328
2.1884446 1.385112 1.4071838 18.570826
2.4483933 1.4973511 1.2411066 19.113501
0.041819334 1.9664972 1.2928045 22.122
1.503167 1.7486924 1.5641828 21.1215
1.9541533 1.8870409 1.452685 22.241751
2.2694795 1.7845145 1.4158887 21.86891
-2.1889439 2.2011108 1.5167623 23.008499
1.9753147 2.0368636 1.3644209 23.119499
2.2646325 2.0878749 1.3592278 22.741821
-9.1084375 2.711328 1.5933087 11.0245
2.3472853 2.4564157 1.2625122 22.118999
-9.2750244 3.1120465 1.3807247 12.025249
-8.693058 3.1043458 1.3389055 12.276125
-8.1249304 3.0912569 1.5064913 13.026666
-7.8063807 3.0705128 1.4201915 14.0285
-7.5641737 3.0159953 1.5265012 14.024
-6.5378313 3.0637329 1.3578497 16.0235
-6.1665969 3.0215273 1.5157603 16.362333
-5.2316785 3.0180571 1.5972607 19.023001
-5.1351132 3.0287158 1.4394019 18.02
-4.5945597 3.0035615 1.5400345 19.518
-4.2938328 2.9918375 1.3509749 21.018499
-3.4157207 3.0191078 1.3600445 23.01375
-2.429245 2.9239354 1.2502085 22.634251
-2.3829844 3.0353472 1.2331185 23.134001
-1.3293047 -0.058158971 1.8106654 2
-1.0007105 -0.036665488 1.7496344 1.8888888
-0.63080174 -0.043593589 1.8192917 1.6666666
-0.12609941 -0.04360399 1.9020933 1.6666666
0.23440456 -0.065720715 1.7949091 1.1111112
0.6522485 -0.06437315 1.6744306 0.60000002
1.0351115 -0.069770254 1.8215086 1.5238096
1.3575587 -0.055137612 1.7513126 1.85
1.8119404 -0.066027619 1.6808392 2
-8.03374 0.27908507 1.9187139 2
-1.7163748 0.35444659 1.823531 8.512331
-1.57236 0.33299962 1.6758398 8.8999996
-1.0933437 0.049274836 1.8004514 3
-0.34884226 0.035553783 1.6587369 3
0.61777794 0.027171705 1.8047961 3
1.0259295 0.039698433 1.764003 2.25
1.5107337 0.2097761 1.8677663 6.3570004
1.8055919 0.27302873 1.7830915 7.1109581
2.0539861 0.10510078 1.7732892 5
-2.0751812 0.61921144 1.8805908 11.076844
-1.7421548 0.5944559 1.839182 13.148777
-1.5762564 0.60253954 1.6667504 14.966076
1.5129446 0.66874552 1.9233979 13.185752
1.7981478 0.59251875 1.8203402 11.094484
2.1576943 0.61476398 1.6854949 10.301938
-2.065855 1.0385888 1.8576183 17.41823
-1.7597295 0.98611873 1.8304454 19.789328
-1.5637259 0.90667313 1.6714791 21.633907
1.0524344 1.0977077 1.6339417 20.121
1.5300597 0.97550648 1.955528 17.51265
1.8526229 1.001465 1.8017017 16.081171
2.1385398 1.0668746 1.7044892 14.986314
-2.0304697 1.2478788 1.9386898 20.265165
-1.8248777 1.3319992 1.8170553 21.929047
-1.5927715 1.3831835 1.8468927 23.01
1.8794487 1.3612096 1.847617 19.741856
2.1084721 1.4090968 1.7182212 18.872736
-7.8168702 1.824787 1.893919 9.0340004
-2.2312775 1.9315193 1.8400955 22.0105
1.5157672 1.8760734 1.7378397 22.120501
1.9498935 1.7508607 1.8692144 22.530827
2.1244981 1.7785246 1.7584186 22.06002
-2.2923679 2.1900942 1.681594 23.01
1.9536012 2.0145822 1.9860724 23
2.1585076 2.0157626 1.7337823 23.078085
-8.5483856 3.0640504 1.81493 12.687
-8.2424231 3.0761769 1.7588679 13.356667
-7.8174005 3.0375943 1.8302664 13.652312
-7.4731426 3.0520923 1.8147564 14.356667
-6.950048 3.0264492 1.8068433 15.027667
-6.5203795 3.0161779 1.7756876 15.861916
-6.2459145 3.0228879 1.8264152 16.695585
-5.882194 3.0268586 1.8597972 17.52825
-5.3664994 3.0442019 1.8680187 19.032499
-5.1299853 3.0005648 1.9072599 19.525999
-4.4600868 2.9899836 1.9857171 22.032249
-1.7843151 -0.016241496 2.2921436 2
-1.3914815 -0.023000579 2.2062144 1.8125
-1.0674633 -0.030687116 2.3558338 2
-0.62811828 -0.076483473 2.1324773 1.125
-0.2167387 -0.054020762 2.2852933 1.8333334
0.1538844 -0.066935115 2.2579257 1.1
0.59894884 -0.1075151 2.2407742 0.75
1.0397366 -0.10458059 2.1891284 1.4848484
1.3440306 -0.067685701 2.143388 1.9
1.754884 -0.070093885 2.3313766 1
-2.4022255 0.12521112 2.3942978 3
-2.0345929 0.36434168 2.2379618 8.0259495
-1.8379295 0.32612488 2.2035542 8.2475586
-1.3497353 0.023428829 2.3865614 2
-1.0381774 0.052672122 2.2917614 3
-0.48937351 0.041234873 2.2194681 3.5833333
-0.087019235 0.064329639 2.1795807 3.6666665
0.048850089 0.012391165 2.3792367 3
0.65490276 0.077178732 2.104511 5
1.4810814 0.29412103 2.2483146 8.2695398
1.6829903 0.30364618 2.171016 8.058383
-2.5880971 0.60279781 2.1402094 10.031
-2.0574272 0.62060416 2.2218463 11.569836
-1.8768255 0.59582227 2.1768267 13.162579
-1.4509816 0.66049051 2.2833953 20.376251
0.45416188 0.69277149 2.3026202 14.114
1.0563728 0.48087001 2.3484616 11.11875
1.5150025 0.59602594 2.267489 12.393467
1.6798767 0.62458843 2.1494448 11.975803
-2.4969239 0.88543719 2.2573814 14.0225
-2.0493238 1.0605193 2.2386687 18.646458
-1.8823347 0.99643952 2.1818147 19.810984
-0.053477645 1.0794128 2.1747308 19.120001
1.0545475 0.92518753 2.3264942 17.619251
1.5107808 0.99184322 2.2861073 17.937813
1.6956513 1.0006425 2.1709831 16.46418
2.162698 1.1689665 2.0147722 16.114
-2.0405433 1.3179611 2.2507627 21.184515
-1.9097021 1.3156967 2.1991403 21.483458
-1.5183361 1.4542232 2.014982 23.009001
1.5160599 1.2873328 2.2853494 21.289856
1.7323568 1.3869245 2.1807022 20.37524
2.0749545 1.560246 2.0566456 20.777166
-2.0243549 1.6828352 2.34705 20.522667
-1.9798362 1.888979 2.281831 21
1.8376602 1.7306714 2.197644 22.102926
2.0717793 1.7836783 2.090976 22.542212
-1.9522423 2.0316782 2.2685096 22
1.8422929 2.0392544 2.1684864 23.041891
-7.2900438 2.5099442 2.2587197 12.035
-8.4421988 3.0209074 2.2148297 13.035
-8.1343412 3.0406735 2.1440814 13.0255
-7.7092986 3.0092497 2.1957712 14.026084
-7.3788867 2.9540617 2.2911334 14.358666
-7.1023526 3.0075049 2.2464011 15.306071
-6.626174 3.0123925 2.2174547 16.170643
-6.2310529 2.9572742 2.2145936 16.402624
-5.8270087 3.0039849 2.2607121 17.628599
-5.3235245 3.033613 2.1935728 19.025333
-5.0534496 2.9616551 2.2846708 19.805332
-4.5827656 2.9918945 2.2547235 21.890999
-4.2505174 2.9934368 2.2593474 22.666677
-3.7807798 2.952539 2.3191991 23.00725
-7.8869953 3.2450359 2.0100448 14.024
-1.6506414 -0.0014449209 2.5144176 1
-1.3070349 -0.061680421 2.6495008 1.25
-0.9297508 -0.021836264 2.5505855 1.75
-0.416785 -0.087082274 2.5982332 0
-0.21117857 -0.068935163 2.5373569 0.9666667
0.28106594 -0.077277482 2.6026745 1.625
0.54104292 -0.091966316 2.6126637 1.625
0.98773479 -0.097909413 2.6477482 1.3333334
1.3877 -0.09490601 2.671463 2.2222221
1.6485863 -0.090167306 2.5240047 1
-6.9816666 0.20342271 2.6561365 2
-6.0009255 0.18452603 2.7663045 2
-4.7659941 0.10298339 2.7016668 2
-3.6056051 0.079832762 2.5569246 2
-3.2121723 0.11389586 2.6001573 2
-3.0360444 0.11043972 2.476903 3
-2.4738207 0.12818846 2.6727195 2.5
-2.1449482 0.13579005 2.5916166 3.0033333
-1.8381338 0.25731939 2.4984021 6.2150502
-1.4089019 0.096466683 2.5668046 2.5
-0.3352055 0.030517794 2.6250086 3
0.37582415 0.044707336 2.4691024 3.25
0.59387535 0.28264347 2.4390662 8.0745001
1.0895206 0.22366305 2.6753035 8.5112724
1.4165348 0.26255387 2.6072164 8.3238583
1.6430794 0.29997206 2.5907962 8.1269722
-2.0798843 0.65612257 2.4574649 12.4425
-1.8689967 0.58237571 2.4868228 14.292899
-1.2879262 0.6040374 2.6343913 22.772877
0.5831607 0.62462741 2.4983473 13.3615
1.0417231 0.63854808 2.6296382 15.066298
1.4353739 0.59850365 2.5922301 12.989754
1.6699255 0.67223263 2.5080729 11.996659
-2.4486244 0.85180086 2.5488453 14.0225
-2.066721 1.0492407 2.4657216 17.802
-1.9212089 0.96582621 2.4814122 19.915033
0.63260013 1.0489907 2.6497383 19.856874
1.031792 0.98130769 2.6277175 19.483749
1.4367527 0.99772269 2.6035767 18.117649
1.6535722 1.0179299 2.5127575 15.841013
-6.989007 1.5725912 2.6908562 8.0410004
-6.5829663 1.4570366 2.6188691 8.7030001
-6.3687305 1.3639619 2.7786503 8.5369997
-2.5523593 1.2042928 2.5574806 19.0355
-2.0932136 1.3444889 2.4383502 20.883249
-1.9629759 1.3068464 2.4476342 21.2241
0.7487731 1.2260495 2.7738056 21.088499
0.89592159 1.4084932 2.6712704 23.0905
1.4759545 1.3400069 2.6016226 21.387613
1.6641617 1.3885206 2.5095499 18.585281
-7.0353479 1.9464245 2.6713047 10.0285
-6.5314245 1.8922871 2.6748195 11.0365
-2.7265511 1.7703829 2.5726662 22.021999
1.5355365 1.7813683 2.6811934 21.990635
1.6439304 1.7275653 2.5432062 21.363586
-6.5505133 2.3226478 2.6948724 13.0365
-3.2871537 2.1897132 2.7621894 23.009251
1.4924526 2.0415728 2.6158669 22.451399
1.6281424 2.0417011 2.4280393 22.5
-7.2332683 2.5831363 2.5471604 13.028
-6.9917078 2.5435832 2.6093833 13.523125
-8.0233479 3.0484176 2.4984291 14.015
-7.7573743 2.9756367 2.4805999 14.027
-7.3507323 2.9454129 2.6249766 14.4266
-6.998136 2.9859812 2.5739801 15.108335
-6.5818372 2.95734 2.6132541 16.025
-6.1856246 2.9455259 2.6495314 16.664364
-5.7927413 2.9952366 2.5930321 17.878551
-5.3696575 2.9994652 2.5640008 19.190874
-4.9872012 2.9589639 2.6231208 20.151264
-4.6302476 2.981719 2.6310012 21.722729
-4.2167668 2.9495032 2.5991054 22.587896
-3.9459529 2.9461894 2.4313951 23.008249
-1.3510262 -0.051955942 3.0331159 1
-0.85221803 -0.076145366 2.9647605 0.91666669
-0.69239748 -0.048929021 2.8465471 1.75
-0.21902707 -0.089624479 3.0764046 0.125
0.19974068 -0.08969298 3.0494981 1.45
0.64848077 -0.10954201 3.0692735 2
0.98254347 -0.099337265 2.9964137 1.5833334
1.3639914 -0.091485202 2.9774144 2.4722223
-5.785347 0.16361023 3.1247072 1.75
-3.2402737 0.10306255 2.9440162 2
-2.4824395 0.087544121 3.0712066 1.5625
-2.1569338 0.047403127 3.0062714 2.25
-1.7850127 0.033004846 2.8875396 1.3333334
-1.4813131 0.07200788 3.0127861 2.7
-1.0695893 0.067424208 3.1275563 2.6666665
-0.60521412 0.029279854 2.9526758 2.5
-0.089403428 0.22081511 2.992419 9.9581337
0.16541596 0.26554874 3.0184219 10.475833
0.65486109 0.27510771 2.9542992 9.9990301
1.035791 0.23461729 3.0496337 9.6760416
1.3441184 0.2644828 2.9715366 9.0046501
2.2795818 0.37350392 3.0343888 8.099
-1.0886219 0.53507841 3.1202464 23.018999
-0.059935212 0.42198008 2.991019 15.11425
0.1215854 0.6095956 3.1017458 19.278812
0.63018966 0.61822957 3.111536 18.047501
1.0624623 0.58858985 3.0478451 14.967748
1.3454499 0.5959686 2.9737241 13.555355
2.460237 0.67065293 3.1399381 10.098
3.5496297 0.43309444 3.1319525 7
-6.4366016 1.0190239 2.9391692 6
-6.2200279 1.0379156 3.0697324 7.2153335
-5.4187765 1.1040308 3.1252012 9.0264997
-3.921289 0.99786103 2.8530431 11.012
-3.1777153 0.84051633 3.1244011 12.012
-0.0098765492 0.81083894 2.9806669 23.114
0.35067284 0.93770838 2.8440583 21.111
0.60423332 0.97911108 2.9090419 20.490906
1.1002938 0.94672233 3.0559373 19.351645
1.3286623 0.98174518 2.9769728 18.603823
2.3639317 1.0360777 3.1177506 14.0985
-6.471344 1.3801637 3.0163841 8.1526241
-6.2125711 1.3709229 3.0616565 8.5937853
-5.8732967 1.4740583 3.088089 10.022875
1.1444368 1.2972807 3.1164131 20.731445
1.3385676 1.3449776 2.9679718 20.340326
1.7300907 1.3126607 3.0255222 19.101
2.180707 1.28624 3.1219044 17.099001
-6.9274015 1.7386879 2.8197103 9.5352497
-6.4893746 1.7947267 3.0237064 9.7089996
-6.2210217 1.8018121 3.0405438 11.274437
-5.904211 1.6962608 3.1325016 11.033334
1.1531966 1.7550423 3.0985217 18.955826
1.3528907 1.8103398 2.980464 21.497126
1.9980439 1.9062669 3.1491024 23.099501
-6.8447862 2.3515458 2.9857867 13.0285
-6.5424838 2.3459506 2.9874001 13.0295
-6.2228117 2.2656388 3.0731544 13.6293
-5.9045453 2.1192834 3.1538632 13.362
1.1774879 2.1312044 3.0639796 22.269199
1.3128093 2.08483 2.9602203 22.223833
-7.1920185 2.5317533 2.8264742 13.028
-6.477632 2.5882962 3.030741 15.0265
-6.2134681 2.5445945 3.020973 14.724899
-5.8603477 2.6621315 3.1432228 16.461857
-2.5996318 2.7240422 3.1532328 22.6595
-2.3832366 2.7417159 3.1891761 23.061501
-11.887717 3.0443318 2.9121187 10.0175
-7.4885912 2.9741299 2.902317 14.5265
-6.9544382 2.9508264 2.8547392 15.027
-6.6065011 2.960448 2.977735 16.027643
-6.178618 2.9276717 2.9668572 16.719793
-5.803916 2.9333146 3.0083995 17.73324
-5.3838654 2.9650266 3.0340698 18.849535
-4.9900966 2.9321363 2.9628119 20.070414
-4.5668578 2.9124467 3.0258355 21.509121
-4.2343488 2.9591093 2.9810593 22.806389
-2.1517901 2.8187137 3.1456814 23.05825
-5.0237155 -0.0063822605 3.4897301 1
-3.0273688 -0.042381041 3.4970236 1
-2.2380741 -0.03074564 3.5322986 1.1666667
-1.9079227 -0.023799265 3.3882267 1
-1.5140567 -0.11944841 3.556864 1
-0.80230534 -0.03707077 3.2865925 1
-0.57853889 -0.062969826 3.4013419 1.25
-0.1997207 -0.056621931 3.3961372 1.8
0.23148172 -0.11247027 3.4079659 1.111111
0.71213293 -0.13645527 3.3987236 1.875
1.0465888 -0.07118421 3.3525295 2.625
1.3622828 -0.096836165 3.2813277 3.5
-6.5228229 0.058732349 3.4717584 1
-5.734776 0.23179528 3.3431165 2.5
-5.4109397 0.14172034 3.4380481 1.875
-5.1755619 0.35765567 3.5267577 3.3333333
-2.4850054 0.033674501 3.2408996 3
-2.1065245 0.037781671 3.2828655 1.6666666
-1.8217065 0.028759509 3.2734714 2
-1.442351 0.03467137 3.3273747 2.4444444
-1.1097772 0.067700028 3.2818866 2
-0.15677458 0.20790856 3.2256048 9.0552502
0.20243821 0.24263716 3.4250231 13.178963
0.60957217 0.22335294 3.4472299 11.686617
1.0075216 0.23731807 3.4184012 9.8854465
1.286909 0.25722188 3.4084468 9.6469193
-5.5387869 0.44737339 3.4635084 3.25
-3.1164818 0.44691452 3.5795913 7
-1.2378274 0.53685188 3.4542518 22.770374
-1.1384434 0.55778807 3.2724466 23.0235
0.22686704 0.55895215 3.4316087 21.176838
0.62720752 0.58953601 3.4510913 19.641218
1.0165863 0.60203195 3.4158933 15.480974
1.2766908 0.5619396 3.3709788 14.753118
-6.0746651 1.0841734 3.3559656 8.0230007
-5.6994777 1.0904704 3.3548024 8.1684999
-5.4414835 1.1023809 3.3991268 8.034071
-4.9975901 0.84748679 3.5965769 8.0314999
-3.0706084 1.1976281 3.3261762 14.0485
0.54642433 0.92680454 3.346791 18.422834
1.0624745 0.96900207 3.3939617 18.574755
1.3061299 0.91629976 3.3671947 19.920376
2.368557 0.88700885 3.3296828 13.097
2.4711475 0.88633484 3.3761888 13.0965
-6.0785484 1.3289875 3.3694661 8.6991663
-5.7861648 1.4488302 3.394244 9.5582743
-5.4905429 1.4559035 3.4781563 10.140717
-5.1537318 1.3714635 3.5833507 10.266666
1.0571958 1.3423052 3.412065 20.507736
1.2581457 1.4052099 3.3266525 19.215855
-6.4030209 1.8453714 3.2393494 11.0295
-6.1164656 1.7926815 3.2921283 11.174143
-5.7890596 1.7922367 3.4317882 11.719501
-5.4701824 1.7812634 3.4435761 12.698945
1.0895487 1.7844293 3.4215598 19.805685
1.2807047 1.7650309 3.3528275 22.255583
-6.033731 2.1510532 3.3738396 13.367166
-5.8401284 2.1423538 3.3687735 13.492232
-5.3955293 2.1731255 3.4452381 14.782688
-4.9529109 2.0511518 3.4238424 16.0275
-4.7721434 2.3493969 3.5572002 19.017
1.0362853 2.1623249 3.398592 21.66025
6.0814686 2.1910474 3.4862025 14.094
-6.9836249 2.6960912 3.4134943 14.039
-6.0992327 2.513346 3.3641109 14.8234
-5.7564001 2.6117191 3.4459498 16.062317
-5.4303751 2.5588295 3.473156 16.6374
-5.0793796 2.4281776 3.4135931 17.0275
-4.3165603 2.4750936 3.3674808 20.026751
-3.8218997 2.7466724 3.5691702 21.052
-2.9004486 2.601558 3.4156964 21.059999
-2.5684304 2.6986482 3.4362187 21.94882
-2.224179 2.7341967 3.3833601 22.602377
-1.8793126 2.7584882 3.4290493 22.775431
-1.4829724 2.784852 3.4777105 23.062748
1.1325262 2.4895592 3.5755293 22.079
1.2324567 2.4791071 3.2746511 23.08025
3.4194889 2.4432549 3.3680153 21.096001
-7.5443978 2.922312 3.3429618 14.0385
-6.60467 2.9733717 3.406544 16.364668
-6.1218357 2.9060721 3.3415899 16.782
-5.7489848 2.8921642 3.4118299 17.711842
-5.4087324 2.9137144 3.4151204 18.649462
-5.0160885 2.8869476 3.4258001 19.701555
-4.5728679 2.8727164 3.39833 21.267321
-4.2489729 2.9280636 3.4190829 22.506126
-3.8844404 2.9437249 3.4627306 22.716375
-3.7927077 -0.01458418 3.832849 2
-3.4561887 -0.061865769 3.8865771 1
-2.1728199 -0.082553864 3.8871255 0.30000001
-1.8570976 -0.06465432 3.8375061 1.85
-1.4155012 -0.066381827 3.7020717 1.7
-0.99079132 -0.058354251 3.8071599 2.2
-0.6046496 -0.098995395 3.824461 0.58333331
-0.24478982 -0.12000137 3.8427947 0.58333331
0.22976866 -0.10636456 3.8022354 0.98333329
0.64924097 -0.12224229 3.8024375 1.9583334
0.99243742 -0.14299203 3.7874317 2.75
1.2609805 -0.14450361 3.8357689 2.8
1.6281921 -0.19452165 3.9943581 1
-5.7032776 0.061043981 3.6805043 1.5
-5.2586975 0.067227662 3.7738466 1.5
-5.0409741 0.1329335 3.8418648 1.8333334
-4.675972 0.25019583 3.9022181 2.988889
-4.1494856 0.043513734 3.957798 1.6666666
-2.0267167 0.0020724051 3.6400347 1.75
0.66475594 0.24760334 3.7027693 12.087483
0.96687049 0.2439546 3.7618489 10.127937
1.3627111 0.24965473 3.8517392 10.069801
1.6343772 0.34962749 3.9644747 11.586375
-4.9269223 0.50371653 3.8563221 4.5317459
-4.594451 0.79475498 3.9233437 8.0349998
-4.025517 0.67338467 3.9838717 8.0345001
-3.8769245 0.70111442 3.9251752 8.7814999
-1.4656311 0.52197713 3.8430316 22.354334
0.31741643 0.46524581 3.8712003 8.0810003
0.6900062 0.53503132 3.7276018 17.351166
0.96986192 0.58894831 3.7527914 15.479724
1.3862675 0.57742834 3.8273902 15.436422
1.6313401 0.57742816 3.9790881 15.36831
2.1678061 0.57161903 3.9673662 12.1
2.4126287 0.78308433 3.7977185 12.0935
-5.2665977 1.0237293 3.7371311 8.0632286
-4.9449477 1.0037991 3.8286018 8.5720577
-4.6518331 1.0209399 3.9160151 8.8813715
-4.2500343 0.96804464 3.9805031 9.5222502
-3.8675587 0.93989831 3.8943977 11.197001
0.72416919 0.88991368 3.8078661 15.447412
0.99206066 0.95612907 3.7787907 18.983282
1.3891698 0.91893339 3.8023174 20.999788
1.7878215 0.82152593 3.9988708 18.086
-5.601984 1.349923 3.6016464 8.5
-5.389143 1.3901609 3.715028 10.118445
-4.9414334 1.3727692 3.8121977 10.687365
-4.7104049 1.3772619 3.9122293 10.949025
-3.8680031 1.2379205 3.8225944 13.02975
0.94550449 1.3517234 3.7530398 19.63917
1.8293065 1.2800742 3.9755573 20.092501
-5.7364807 1.6048061 3.7016664 11.0315
-5.4022274 1.8371423 3.7350142 12.811222
-4.936553 1.7799596 3.8308654 13.154735
-4.6381388 1.7640254 3.9357607 13.95
-4.1871924 1.9385307 3.9728279 17.0355
0.98294377 1.7857684 3.7733378 20.523733
8.4672565 1.9775367 3.6498916 11.093
-6.1072149 2.3769591 3.9403825 14.0415
-5.8615971 2.3823185 3.873842 15.0415
-5.420579 2.1679063 3.7461109 14.722501
-4.9920216 2.1779804 3.8251457 15.453057
-4.6389413 2.1173298 3.8627801 16.395716
-4.1905088 2.301661 3.8422618 19.0382
-3.9749403 2.3071077 3.9099674 19.0485
0.93260831 2.1663551 3.7892849 20.189501
6.2318916 2.1674719 3.7745025 14.092999
-6.1713381 2.6298487 3.8052235 15.4409
-5.6884589 2.5683062 3.7530077 16.0315
-5.4135451 2.6162643 3.7372742 17.038124
-4.9513345 2.7708523 3.8453496 18.712418
-4.626452 2.7529461 3.8345287 19.844601
-4.2326484 2.7245438 3.8577495 20.471069
-3.7371521 2.736187 3.7851088 21.339001
-3.4220605 2.726614 3.8624084 21.655451
-3.0166805 2.6932366 3.8127446 21.231325
-2.6284387 2.6708195 3.8361752 21.393644
-2.1965616 2.6620908 3.765017 21.276983
-1.7963231 2.678391 3.8021541 21.59343
-1.3899248 2.6865735 3.8648834 22.065794
-1.0210823 2.7068119 3.8687823 22.189169
-0.60930032 2.746628 3.8252161 22.693375
-0.19893898 2.7381332 3.8071342 22.8708
0.25458327 2.7217808 3.8734753 22.5735
0.63493443 2.731261 3.8665833 22.583937
0.90637761 2.5947719 3.8270926 22.215351
3.1249931 2.4812016 3.8386612 22.5935
-6.4670634 3.026114 3.8044314 16.782875
-6.1910496 2.9538136 3.6672921 17.040251
-5.6554646 2.8530905 3.6752355 17.702499
-5.4163976 2.8974822 3.6866457 18.326859
-4.9503179 2.8731077 3.7477071 19.944885
-4.5232482 2.8448114 3.7792339 20.997791
-4.2151203 2.8960764 3.8091059 22.356007
-3.8152132 2.9298985 3.7613738 22.611092
-3.5549536 2.9274893 3.9575925 23.053249
-1.0068709 2.8035133 3.6763229 23
-3.8358161 -0.067510396 4.1960454 1.375
-3.4620428 -0.1317029 4.2425413 1.25
-3.1204383 -0.12581737 4.3384638 0.66666669
-2.5517385 -0.1068776 4.0469441 0.83333331
-2.1690149 -0.07862936 4.2211933 1.675
-1.9513595 -0.088080421 4.3779154 1.75
-1.3805497 -0.12105851 4.1505666 1.5625
-0.95079571 -0.1817199 4.2071185 0.083333336
-0.53391516 -0.12430382 4.2247701 1.4666666
-0.22039145 -0.12254924 4.1682668 0.875
0.15312219 -0.15198421 4.2900205 1.3333334
0.55345207 -0.16946363 4.2843761 1.45
0.91287404 -0.15605274 4.1141143 1.3
1.3397169 -0.23036768 4.2842584 1.3333334
1.7145833 -0.22333023 4.1826029 1.5
-5.0402718 0.22587295 4.2706532 2.8333333
-4.5764084 0.18796922 4.1242423 2.2
-4.1035204 0.14652936 4.1719651 2.2777777
-3.7921152 0.247694 4.2610116 3.6022727
-3.5243311 0.088699371 4.3117628 2.34375
-2.9365258 0.18993351 4.2700562 5
-2.7786641 0.33241352 4.335638 7
0.6009748 0.23718245 4.1407967 5.6666665
0.97009766 0.21424504 4.0695028 9.5807247
1.4351456 0.25553894 4.109879 9.4801197
1.7601031 0.24378568 4.1841707 9.472127
-4.6241131 0.78498566 4.1226492 6.5999999
-4.2059922 0.65510345 4.2396598 6.4825454
-3.7980187 0.69157171 4.2235765 8.3202276
-3.5003386 0.70000446 4.3375564 8.9741478
-2.9516397 0.61115974 4.2698603 11.02725
-2.7608113 0.58762163 4.2923708 11.03475
-1.4223931 0.50412011 4.034802 22.278999
0.97439671 0.58779877 4.0753212 13.463208
1.4380536 0.59132725 4.1249328 15.020336
1.8087627 0.57876521 4.2143612 14.425328
2.2199054 0.52975017 4.3366117 11.097
2.6791267 0.50662768 4.2864933 10.348
-4.8402581 1.0837256 4.1104083 9.3727503
-4.5885267 1.027469 4.1225214 8.9100752
-4.1659508 1.0224614 4.1671772 9.521925
-3.8155079 1.0236857 4.2619095 10.647077
-3.5155594 1.0062886 4.3135653 11.453625
-2.6208932 0.9462235 4.2829609 15.360417
1.0150014 0.98581529 4.0636411 18.656147
1.4289041 0.98140854 4.1019039 20.392477
1.7459381 0.98549926 4.209969 19.299042
2.2507796 1.0601144 4.1486416 17.098751
2.5679362 1.0245588 4.2706885 15.498098
-4.8869734 1.3803797 4.1111407 11.305659
-4.586144 1.4166105 4.1397605 11.573193
-4.210928 1.413601 4.2410755 11.682364
-3.8174734 1.4044178 4.2788081 13.339948
-3.4807336 1.4310102 4.3187876 15.789832
-3.0495129 1.4204267 4.3982534 21.0235
-2.582649 1.2713788 4.3970251 19.038
0.78099877 1.2056564 4.0840621 13.0825
0.93284029 1.417732 4.1093483 18.042999
1.8074155 1.3452464 4.2778168 21.152344
2.1348088 1.4506873 4.2500134 20.59025
-4.9573541 1.7515157 4.0911393 13.699501
-4.5595207 1.7845752 4.142416 13.96296
-4.2269335 1.8443127 4.2225676 14.994019
-3.8143363 1.8181397 4.3226728 16.281174
-3.4266467 1.787032 4.2921729 18.581619
0.94554448 1.8169218 4.037189 21.169403
2.2084999 1.6544316 4.2693686 21.09025
8.6933136 1.9230119 4.1615434 10.09175
10.197864 1.7852474 4.2967968 9.0915003
-5.6628685 2.2391174 4.1916847 14.043
-5.2619052 2.175102 4.2147317 15.043667
-5.0307822 2.1347425 4.1647654 14.647299
-4.5810437 2.1562591 4.1585188 16.1768
-4.2078514 2.2001312 4.2217588 17.475809
-3.8615911 2.2322454 4.2498808 18.33618
-3.3613558 2.1514466 4.273684 22.283455
-3.1508517 2.0759921 4.3711176 22.011749
0.82421058 2.1919737 4.0283494 18.5
3.6721048 2.3617876 4.077961 20.091999
6.3618183 2.1052539 4.2321978 13.0915
-5.4784403 2.7774448 4.2873211 18.043501
-4.8491831 2.7809823 4.224791 19.046501
-4.5388732 2.7455387 4.1728988 19.380585
-4.1699343 2.6486747 4.241354 20.495647
-3.8440919 2.6598864 4.2506061 20.260668
-3.382812 2.669925 4.2417531 19.373749
-3.0156951 2.6898761 4.2671671 20.781517
-2.6028161 2.6645668 4.2199841 20.8113
-2.2152555 2.6866782 4.2497315 21.557863
-1.8108063 2.6784987 4.2129178 21.203608
-1.4195033 2.6920543 4.1822114 21.566891
-0.95447999 2.6573219 4.2567692 21.620152
-0.59377086 2.6215761 4.2110848 21.270802
-0.24175861 2.6677573 4.1857328 21.705502
0.19244054 2.6668701 4.1986876 21.910557
0.60883796 2.6393831 4.2082009 21.681612
3.0792041 2.5393531 4.0132275 23.092501
-6.8929691 3.12902 4.2272954 15.047
-6.3072777 2.8705208 4.0759125 16.533001
-5.3435392 2.8906927 4.0199142 19.0425
-5.0072551 2.8216507 4.1907396 19.045334
-4.57129 2.8161752 4.0919552 20.2915
-4.1731896 2.8743038 4.1341629 22.23583
-3.8707113 2.8829803 4.2281017 22.431559
-3.4020495 2.8877406 4.1920962 22.911928
-3.0957439 2.8152266 4.091558 23.056999
-2.6520777 2.8096302 4.0287228 23.059999
-6.9195728 3.3670146 4.2364731 16.544001
-6.6300931 3.5594516 4.2665467 18.042
-6.2816477 3.3408785 4.231112 18.033501
-3.6933644 -0.074167363 4.5649791 2
-3.3844867 -0.092733562 4.5933771 1.5
-3.0082972 -0.11929347 4.6534252 1.2777777
-2.6590676 -0.083195001 4.6651888 1.5833334
-2.2203894 -0.098828577 4.4921498 1.6
-1.7061239 -0.17063594 4.6187606 0.77777773
-1.4370928 -0.18231267 4.5657973 0.60000002
-1.0008795 -0.16904142 4.6242528 0.89999998
-0.54983997 -0.20402586 4.5827279 0.89999998
-0.1986908 -0.18527217 4.5971713 1.547619
0.18824446 -0.17192429 4.5812163 1.3333334
0.61176103 -0.22125417 4.6366663 1.5
1.0063819 -0.21760575 4.5210905 1.5
1.3360653 -0.23860836 4.6534767 0.66666669
1.7353377 -0.25967297 4.5615959 0
2.3644614 -0.13254943 4.6502867 3.5
2.7025051 -0.15211771 4.6774225 3.4000001
-4.1724195 0.34820119 4.5522728 4
-3.724463 0.19408786 4.5557165 3.575
-3.3690925 0.20486018 4.6009374 3.7444322
-3.0113394 0.29162017 4.6696281 6.087759
-2.4713943 0.21330586 4.5795379 6.0177002
-2.1702733 0.27038443 4.7824364 7.1899166
1.6376059 0.26753479 4.5067406 9.5939999
2.1891327 0.3156997 4.5065804 9.0829992
2.5204325 0.34096193 4.7265983 8.2398033
2.8007593 0.33800679 4.7644043 8.0865002
-4.5406857 0.41353783 4.4091697 4.5
-4.0320754 0.4092057 4.4047937 4.5
-3.73175 0.62598121 4.5385284 7.6797595
-3.4042172 0.65114945 4.6114702 8.3024607
-2.9681056 0.59806812 4.6936398 9.5624971
-2.5720351 0.60022235 4.6393495 10.696839
-2.2921841 0.59444058 4.7275066 11.217926
1.9761504 0.62400067 4.4114766 15.08125
2.3145964 0.64238894 4.6544728 12.287199
2.670013 0.63851172 4.7400422 11.34693
-4.875062 1.0145 4.412128 8.0454998
-4.7190523 0.97807485 4.4922848 8.0462494
-4.1174216 0.96119946 4.5067887 9.2605715
-3.7634079 1.0239606 4.5209804 9.9754572
-3.3954551 0.99207062 4.6044464 10.685121
-3.0479243 0.99204308 4.6671805 12.085025
-2.5565445 0.91327596 4.6437745 15.015841
-2.3126752 0.94024497 4.7453175 15.57891
1.8997846 1.0954323 4.4263639 21.331249
2.1637902 0.9423182 4.5269957 16.74975
2.5924456 1.0719916 4.5380011 16.064501
-4.4824553 1.4691863 4.4206719 13.036
-4.0602121 1.3921506 4.524653 11.777
-3.7354066 1.4154692 4.5341969 12.829869
-3.3869791 1.3919145 4.6034265 14.000224
-3.0406568 1.4254196 4.6995182 15.046103
-2.6104589 1.3690188 4.7194471 18.933142
-2.2922344 1.2564883 4.7444911 20.699041
1.8432354 1.2570975 4.4043064 23.081499
2.1934714 1.3687652 4.5031586 19.059168
2.5804508 1.3759475 4.6769376 19.206835
2.9725852 1.2025328 4.6246877 17.0805
-4.8586998 1.6809741 4.4408484 13.0455
-4.5684419 1.9037137 4.4880872 15.375916
-4.1788869 1.8977337 4.5548592 15.952137
-3.7451413 1.7856545 4.5447116 15.658149
-3.3866353 1.7794657 4.6240263 17.22147
-3.043865 1.7870078 4.6617031 19.119616
-2.7247958 1.941766 4.7786942 22.04475
1.9974641 1.7619736 4.472167 23.088499
2.1959815 1.6993015 4.5944352 22.205032
2.5492756 1.7399744 4.6988077 21.949186
9.0396004 1.8665706 4.6904888 10.0905
9.7142735 1.7344028 4.733614 9.0904999
-4.5506444 2.0777562 4.4471235 16.046
-4.085732 2.2072637 4.4636173 17.426924
-3.7842 2.2137163 4.5875182 17.606659
-3.397913 2.2075963 4.6390371 18.925348
-3.0950136 2.1199987 4.6422977 21.267387
3.8792255 2.3327103 4.6352577 19.589249
6.5663795 2.0800817 4.6177678 13.09025
-4.102778 2.6020162 4.5217342 19.876917
-3.7654753 2.580143 4.572443 19.446075
-3.39044 2.6266892 4.6501732 19.385872
-2.975975 2.6619291 4.5795369 19.767376
-2.6176269 2.659384 4.5435786 20.351219
-2.2448745 2.6212265 4.5106759 19.89727
-1.7852569 2.6295514 4.5790348 20.768909
-1.4298921 2.6717591 4.6266413 20.734835
-0.97749758 2.6268671 4.5883117 21.21209
-0.5795213 2.604275 4.580358 20.836901
-0.18861286 2.6086733 4.5808134 21.163748
0.15320863 2.600574 4.5415716 20.891314
0.65265751 2.6106431 4.6120844 21.496239
0.89139348 2.6038158 4.6059151 21.749084
-4.1704817 2.8294015 4.4749355 22.046749
-3.8016458 2.8762 4.5438313 22.954546
-3.3781109 2.8706975 4.6058598 22.791626
-6.923203 3.3968542 4.6249361 16.29825
-6.6740847 3.5743947 4.6270685 18.047501
-7.281249 3.6901371 4.7419167 17.042999
-3.2023306 -0.013795834 4.905427 2
-2.9494798 -0.067160226 4.9665823 1.8055556
-2.5683622 -0.11195655 4.9676833 1.8125
-2.1845694 -0.11478587 5.02637 1.86
-1.8155428 -0.15353608 4.9178486 1.5
-1.4097905 -0.15231204 5.0500903 1.7878789
-0.97003299 -0.20495468 4.9951878 1.5
-0.65046209 -0.26510495 5.0774856 0.93333328
-0.16903393 -0.14601889 4.9778385 3.25
0.20342927 -0.21365301 5.0013952 1.0555556
0.58029437 -0.24217051 5.0176206 1.25
0.99593574 -0.23414235 4.9132833 1.64
1.2582591 -0.25271699 4.9186893 0
1.7149267 -0.33923456 5.134418 0
3.0223067 -0.2259192 5.018568 3
-3.2881558 0.25412536 4.9149566 4.6999998
-2.9271576 0.21529703 4.9276724 4.3872089
-2.5923588 0.25101855 5.013072 5.7196279
-2.1963794 0.26967803 4.9837022 7.4951663
-1.8110826 0.26305297 5.0768404 8.1731081
-1.4720676 0.21254025 5.1486216 7.7601066
0.65199697 0.14934607 4.9020414 5
1.0081218 0.16442958 5.1495299 5
3.066323 0.28493553 4.9951725 8.0156002
-3.3571684 0.660258 4.8798966 9.1534519
-2.9701562 0.61514837 4.977634 8.3730202
-2.5750093 0.59981698 4.9744687 10.237364
-2.1981399 0.60955054 5.0125074 11.231886
-1.8666482 0.61605442 5.075038 11.831302
-1.4936868 0.54020131 5.1490402 11.138249
3.0248063 0.60882032 4.9719882 11.06686
-3.848805 0.91183186 5.0220146 12.027101
-3.3144543 1.0601805 4.8977447 12.197026
-2.9797685 1.0226735 4.967906 11.650649
-2.5953977 1.0149745 4.9935279 14.193069
-2.2275035 0.97627622 5.045795 15.881783
-1.8562862 0.99491292 5.0777888 17.582157
-1.5152272 1.029705 5.1354232 17.693073
2.9882116 0.92759514 4.9741306 14.218501
-3.3125577 1.4388735 4.8808079 14.396536
-2.960398 1.3903087 4.9711666 13.945
-2.6055796 1.4013437 5.0037098 16.336151
-2.1979725 1.3782587 5.0425372 18.688187
-1.8342574 1.2927132 5.0624876 21.386892
-1.5433491 1.4213325 5.133224 22.386332
2.3955045 1.2226398 4.8032317 18.094
2.7952473 1.2299083 4.8058529 16.0865
2.8744144 1.3088168 4.8991122 17.995785
16.590626 1.2171605 5.1704855 6
-3.2724574 1.7959721 4.8497367 17.947136
-2.9710188 1.8152572 4.9615936 17.735123
-2.6476402 1.7826713 5.0208468 17.975504
-2.2423301 1.7934604 5.1081238 19.678026
-1.9150116 1.6314117 5.1443911 23.049999
2.3069277 1.8500354 4.9135351 22.088499
2.626462 1.8536882 4.9428811 22.584501
2.8066883 1.6838512 4.8865829 22.078501
9.1708984 1.7942001 5.139473 10.0895
9.8196754 1.7564075 4.9780045 9.0900002
10.912416 1.6584677 4.8222361 8.0904999
-3.7416701 2.2456334 4.8654122 19.2502
-3.3346434 2.1667261 4.878655 17.720076
-2.9889479 2.1786637 4.9505467 18.843699
-2.6228852 2.1497991 5.048327 20.095064
-2.3266103 2.1399338 5.1507325 20.408249
2.5930624 2.3925185 5.0936613 22.0935
2.9445038 2.3910491 5.0584044 22.089668
3.3897257 2.2824068 5.0721622 21.424387
3.9738636 2.319308 4.9114556 19.087999
4.0850921 2.3215382 5.1516542 19.087
6.6823606 2.0456316 4.9562721 13.089251
-3.7807562 2.5533645 4.837204 19.304125
-3.3668568 2.5667851 4.8921037 20.015623
-3.0242426 2.6123786 4.9847841 20.814608
-2.6027131 2.5760181 5.0790095 19.570734
-2.188607 2.6440372 4.9805202 20.017845
-1.8078611 2.6346254 5.0267749 20.31311
-1.3747721 2.6222525 5.0234103 20.358395
-1.0187095 2.6126335 5.0195293 20.841534
-0.60736936 2.5817478 4.9908948 20.962721
-0.19297656 2.576659 4.9939008 21.229961
0.21294892 2.6284258 5.0095639 21.017765
0.61267596 2.6032727 5.0289526 21.18709
0.96591932 2.5804672 5.0602889 21.21916
1.3369855 2.5395339 5.1023483 22.419334
2.5755639 2.4462886 5.1313128 22.890699
2.8600011 2.4207299 5.0416622 23.088249
3.2670372 2.4521635 5.082984 23.085751
-5.7928762 2.8120716 4.9105744 19.0235
-3.754698 2.833828 4.8858051 23.049997
-3.320401 2.8630962 4.8648834 23.056374
-2.9328022 2.8013895 5.0108767 23.0595
-2.565721 2.827338 4.9727383 22.81175
-2.315655 2.8212638 5.0432072 23.06325
-7.2299604 3.5205481 5.0920329 16.04825
-7.1267662 3.4446878 5.0543694 15.7995
-6.3236465 3.3505228 5.1687608 18.0455
-7.1706114 3.6631665 5.1584826 17.0485
2.5081675 -0.45284247 5.4173174 0
4.7043271 -0.56631583 5.2899365 1
-2.5488622 -0.084696509 5.2627263 1.7916666
-2.1925397 -0.097464249 5.3312559 1.8666666
-1.7765734 -0.14375311 5.4507771 1.7333335
-1.4298156 -0.14182122 5.4282422 1.6666666
-1.0252138 -0.18944097 5.3541656 1.5185184
-0.62269503 -0.21389084 5.3937593 1.4722223
-0.26802942 -0.27456814 5.3619337 0.98809528
0.24727641 -0.2388898 5.4361873 1.3333334
0.56371891 -0.25035882 5.41043 1.04
1.0729326 -0.28220767 5.3525205 1.4444445
1.3403516 -0.31458953 5.3294406 1
1.6611724 -0.2980049 5.398653 1.5
-2.516681 0.18146563 5.3061843 4.5277777
-2.1184587 0.18827166 5.3518925 5.3012671
-1.8132024 0.23724937 5.3920932 7.071434
-1.3868557 0.24538702 5.4081883 8.2665501
-1.0318969 0.24501295 5.4873753 8.8253622
-0.64907831 0.21158765 5.5354924 7.9116778
0.66934609 0.3023994 5.5977716 10.0725
0.94910669 0.17514813 5.5952377 8.0745001
-2.8433526 0.49545968 5.2945185 8.0459995
-2.5725372 0.57385451 5.2887774 9.2968092
-2.1799562 0.61757654 5.3414946 11.112228
-1.7934525 0.5935154 5.392858 11.309312
-1.4299926 0.59183604 5.4531326 12.326839
-1.0121388 0.62276196 5.4687953 12.90933
-0.66493791 0.56149292 5.5532947 12.3131
1.098701 0.74508178 5.2446928 9.08325
-3.6747441 0.90515471 5.2395015 12.029
-2.8586426 1.074633 5.2478709 13.363999
-2.5612857 0.99202996 5.2816997 11.770597
-2.1614587 0.99588031 5.3530474 13.809271
-1.786714 1.0010129 5.437016 15.864785
-1.4235104 1.0065172 5.4243321 17.969194
-1.0207605 0.98421156 5.4809484 18.666351
-0.72079009 0.9935146 5.5593886 17.395708
-2.9866741 1.4949384 5.2424173 17.792999
-2.551132 1.3830687 5.3446326 15.379816
-2.1777809 1.3778442 5.3617511 15.128337
-1.8170696 1.3738228 5.3803825 17.252304
-1.425228 1.3406123 5.431766 21.341175
-1.0662133 1.3997042 5.4692836 22.120781
11.254123 1.5747169 5.3789387 8.0895004
-3.3950276 1.9715056 5.5616908 22.0315
-2.8626733 1.9222364 5.2641439 22.54175
-2.5602193 1.8253164 5.2820249 18.352589
-2.1824255 1.8151721 5.367034 18.172152
-1.8361157 1.8099116 5.471849 17.613405
-1.5108347 1.7436078 5.5359368 16.0695
2.3778076 1.8221737 5.2445421 22.088499
9.3025074 1.7732677 5.4806437 10.08875
9.7120228 1.7610801 5.4060574 9.0889997
-4.5117207 2.333946 5.2097917 20.026501
-2.5165598 2.1565418 5.2985735 18.151091
-2.1860011 2.1815505 5.3815985 19.092905
-1.8227397 2.1225202 5.5062385 18.493944
-1.5604439 2.099201 5.5662441 22.731417
2.2525361 2.3762481 5.4982238 21.424002
2.6692407 2.3476892 5.3889651 22.254166
3.0223925 2.3609941 5.4517875 22.395386
3.3510971 2.289732 5.4012122 21.24102
3.7468493 2.3040259 5.484549 20.737251
4.1085997 2.2983401 5.4307189 18.688425
4.6840339 2.1203103 5.4252357 16.337749
6.7895498 2.0011473 5.3793235 13.088
6.9662209 2.0244954 5.3364916 12.58825
7.2657948 2.0040913 5.2922564 12.0885
-6.6491728 2.6742148 5.4305816 16.025
-2.5441747 2.5806434 5.2748556 20.158524
-2.2358024 2.5630715 5.3556275 19.918808
-1.8547492 2.5886469 5.4463229 19.486536
-1.3870128 2.6063988 5.4048619 19.894138
-0.99179655 2.5872815 5.4364061 19.502935
-0.60530066 2.6033888 5.4191122 20.545626
-0.1984226 2.5829995 5.3882189 20.312052
0.18700275 2.6026373 5.3773313 19.451626
0.5730077 2.59303 5.4439702 19.884167
0.9927063 2.5416589 5.4090648 21.059898
1.3549576 2.5165949 5.3937669 22.145092
1.8656985 2.490381 5.4544387 22.161713
2.2034783 2.4563804 5.4226174 22.689875
2.6100957 2.4484112 5.4565139 22.943071
2.9565942 2.429194 5.3624754 22.945034
3.3936 2.4296792 5.321218 23.080624
3.6231506 2.4034989 5.3459115 23.077
-5.5241656 2.8071783 5.3107429 19.025499
-2.6120605 2.8020952 5.3006225 23.062
-7.273715 3.5833058 5.4288778 16.049999
-6.4881811 3.400332 5.4600253 17.546249
-6.394568 3.4280891 5.3366899 18.046
-7.3568296 3.8182497 5.4389811 16.549751
-7.1611032 3.9232144 5.3388882 18.049
-0.19196069 -0.40525603 5.9375048 0
0.19120187 -0.40055221 5.919302 1
2.0832343 -0.44001153 5.9503078 0
2.4043939 -0.4260661 5.9550295 0
-2.6975546 -0.2588301 5.8197417 0
-1.7070345 -0.12171292 5.6513839 2
-1.3628379 -0.1386821 5.7457881 2
-0.98107612 -0.14412886 5.8266797 2.2778797
-0.66641319 -0.20458524 5.8400235 1.7124543
-0.14643259 -0.18733534 5.8353648 2.4444444
0.14363851 -0.29227105 5.8215261 1.5714285
0.50179338 -0.061154202 5.8897791 5
0.87255925 -0.28008103 5.6264153 1.5
1.8856963 -0.1854945 5.7360196 2.75
-1.6640158 0.19243638 5.6778431 6.0974174
-1.3866569 0.22625582 5.740243 7.3200746
-0.99043655 0.22675242 5.8268495 8.3128052
-0.6513468 0.25292236 5.8100424 9.0647726
-0.23709722 0.24693309 5.8575258 8.9919195
0.18169643 0.264707 5.8307486 9.8266163
0.51008815 0.23367643 5.6755676 9.5705624
0.92200404 0.26953375 5.6522927 9.4072924
-2.0736012 0.68896389 5.6381769 10.55325
-1.7524376 0.61534464 5.7022195 11.039032
-1.3589562 0.61204374 5.7428174 12.381159
-0.99534744 0.6291405 5.8258924 12.507477
-0.64981329 0.60562402 5.8728013 11.980312
-0.21893337 0.57881171 5.8889551 12.769927
0.16852573 0.58087683 5.8739395 14.2702
0.52861333 0.60821497 5.660779 15.070875
0.93356079 0.53360319 5.6336136 13.074166
1.965119 0.71007276 5.802237 12.0785
2.0903406 0.73707044 5.8000121 12.079
2.7299771 0.63710546 5.8072224 10.081
3.3721848 0.58537078 5.8009653 9.0825005
-2.1433942 1.0419227 5.6514921 13.55275
-1.739714 0.95264435 5.6968408 13.222493
-1.3602014 0.99098843 5.7444096 15.826039
-1.0036063 0.99498034 5.8392086 17.600733
-0.61958003 1.0132773 5.8579407 18.262585
-0.20826995 0.96864653 5.8978257 18.177593
0.16923547 1.0117657 5.8454728 19.888422
0.50898129 0.97059947 5.6976295 19.403833
0.83720791 1.1488472 5.8766413 20.072001
3.1958375 0.99318504 5.8497972 12.082
3.3070304 1.015669 5.8206272 12.082334
-3.3473377 1.3009038 5.6368456 16.032499
-2.0981569 1.4146795 5.7163267 16.080481
-1.7443196 1.3619395 5.6805248 14.546559
-1.3574315 1.3833562 5.7906003 15.904173
-1.0019521 1.4121586 5.871068 16.876339
-0.6085456 1.3751769 5.9068518 19.25831
-0.25583085 1.3086174 5.8872442 20.753817
0.052329957 1.3755774 5.914196 23.070999
0.50457996 1.271391 5.7583461 22.73675
1.7024182 1.2685131 5.8829827 18.077
-2.0908442 1.8499297 5.6987062 23.0495
-1.7542003 1.7968116 5.7204666 18.137968
-1.4081355 1.7706084 5.7353344 16.528795
-1.0194094 1.7831749 5.8565125 19.000257
-0.62669897 1.7680933 5.881875 20.68716
1.4486986 1.749807 5.9349427 23.0755
1.7899894 1.9463346 5.9746132 23.077
2.9909029 1.7849038 5.8742342 18.081501
9.167635 1.8001969 5.9013519 10.087749
9.5067539 1.7121439 5.7238731 9.0882502
-2.1282222 2.1832263 5.6337914 15.732501
-1.7211734 2.1701295 5.6872849 17.566505
-1.4170016 2.1608942 5.8013129 18.718836
-1.038457 2.1773684 5.8840261 18.701509
-0.63846523 2.1298444 5.935895 19.032566
1.3829012 2.3918459 5.6728659 20.085501
1.8600451 2.3911135 5.8045945 20.754831
2.1943541 2.3632739 5.7821641 21.421289
2.6528695 2.3480308 5.8236971 21.620626
2.9631248 2.3196778 5.8106699 21.954592
3.3385475 2.2860544 5.8153529 21.164106
3.7613156 2.2815788 5.8334908 19.58526
4.1936979 2.2459836 5.8416562 18.40346
4.6039767 2.162755 5.8555598 17.010885
5.0848699 2.1865757 5.8148842 16.834
5.3379617 2.162941 5.8622122 15.0915
6.3490644 2.0199502 5.9537406 13.086
6.5912428 2.0093942 5.7607641 13.08675
-2.1155872 2.5413117 5.649859 18.866901
-1.7704048 2.5229454 5.6952791 19.788029
-1.3893696 2.5352869 5.7634788 19.92696
-1.0140526 2.535073 5.8591151 19.697989
-0.55796212 2.5928445 5.782135 20.874699
-0.17140023 2.5811164 5.7867541 19.316423
0.19078861 2.5558934 5.8114023 19.89225
0.60885996 2.5263162 5.7735448 19.630352
1.0190779 2.5069354 5.81703 20.787281
1.4220016 2.4596245 5.8571157 20.735262
1.7410535 2.450315 5.7525835 21.703136
2.232758 2.4487948 5.8158073 22.520969
2.6259465 2.4385281 5.8008366 23.083364
2.9632783 2.4137752 5.683836 22.88485
3.4109721 2.4162798 5.6554251 23.074749
-7.4107637 3.7791407 5.7886529 16.300875
1.0702448 -0.41112578 6.3255539 1
4.3426204 -0.64137077 6.1903543 1
-2.3705592 -0.23289993 6.0435386 0
-1.9549428 -0.26054469 6.3299894 0
-1.3808705 -0.0061874166 6.0416031 4
-0.95420521 -0.15315224 6.1003866 2.7583334
-0.55833769 -0.13881195 6.1455212 2.6179268
-0.19718099 -0.1723832 6.2094045 2.2529166
0.1959459 -0.21579935 6.2312598 2.2249417
