# .PCD v0.7 - Point Cloud Data file format
VERSION 0.7
FIELDS x y z intensity
SIZE 4 4 4 4
TYPE F F F F
COUNT 1 1 1 1
WIDTH 302
HEIGHT 1
VIEWPOINT 0 0 0 1 0 0 0
POINTS 302
DATA ascii
1.2436864 2.676403 -1.7965146 21
-1.4122498 0.69541943 -1.1485727 14
-1.3000933 0.49567276 -0.80587763 13.5
-1.4745727 0.70720941 -0.80522835 15
-0.98987913 0.83799207 -0.87500393 21
-1.3020301 0.37461624 -0.61064523 12
-0.97835273 0.48111656 -0.67626423 15
-1.35693 0.36773828 -0.48326308 11.5
-1.0020179 0.3555977 -0.49907887 13
-0.9920941 0.31453437 -0.54507643 11.5
-1.3244609 0.50605732 -0.46848229 15.233334
-0.97914553 0.53107065 -0.49965051 17
-1.3041722 0.68236166 -0.55452776 19
-1.0119976 0.69335222 -0.43844682 21
-1.300108 0.32228571 -0.35583323 11.25
-1.4068913 0.53829968 -0.38157821 14.5
-1.3625472 0.47437143 -0.25401884 14.75
-1.0215082 0.55308002 -0.35951135 18
-1.2841721 0.62913203 -0.21526951 20
-1.0140011 0.60015088 -0.358538 19
9.4392719 3.13627 -0.24464005 12.5
-1.3385887 0.32158819 -0.12808871 11.6
-1.3552207 0.50019008 -0.097008653 15.833333
-1.4074179 0.61462456 -0.072085023 17.5
-1.2811524 0.16085981 0.16928428 7
-1.2935126 0.22267535 0.093216613 9
-1.0211632 0.27524871 0.18042655 11
-1.3850223 0.44582006 0.13272673 14.5
-1.3486372 0.34143671 0.26418984 12.75
-1.1293916 0.26909229 0.27227449 9.5
-1.3757294 0.52004361 0.24469616 17.583334
-1.3594151 0.63181531 0.25845727 20.166666
-1.0437125 0.66621107 0.35109425 20.5
-1.3795125 0.19651996 0.49074355 9
-1.3539337 0.29294714 0.55153888 11.666667
-1.107426 0.24526632 0.49775538 9.2619047
-1.351531 0.50870806 0.49005231 17.333334
-1.0452075 0.5181312 0.55407441 16
-1.3749733 0.62502909 0.49391448 20.333332
-1.0526619 0.69402695 0.49740115 20
-1.3731948 0.17523673 0.63279545 8
-1.1010389 0.14841107 0.71580154 7
-1.3436947 0.30951181 0.69839478 11.611111
-1.1370057 0.25772822 0.6177237 10
-0.87805533 0.24809811 0.68093437 10
-0.71330988 0.33560848 0.68649781 13
-1.3458625 0.4692415 0.66120988 15.916667
-1.0735559 0.46313986 0.72884315 16
-0.66389477 0.47482139 0.69656909 17.5
-0.52508235 0.55560416 0.71091586 20.666666
9.7792053 3.0096662 0.64156306 12
9.8185062 3.2063518 0.63225406 13
-1.3750594 0.17930007 0.82476932 8
0.33230817 0.080611475 0.96287435 4
-1.3781973 0.30019242 0.85283577 11.466667
1.5638846 0.27944073 0.93531239 6.5
-1.3795576 0.50576508 0.83980012 17.333332
1.5757329 0.59393722 0.95262498 11.5
1.5503221 0.66050792 0.94782811 13
1.3140112 0.262797 1.0823605 6.5
1.3238429 0.4739213 1.0728717 11
1.5796518 0.74266917 1.1073611 14
1.5532783 0.65632796 1.3646029 11.9
1.4733745 0.40250668 1.5956948 8
0.11913961 0.73200232 2.3954453 14
0.42415309 0.24204172 2.5378928 5.5
0.32223719 0.44228736 2.442832 8
0.1187683 0.67050558 2.4269552 12.5
0.62904453 0.062012888 2.7418232 4.5
0.31097439 0.28266421 2.6520228 5.5
0.29901287 0.4025647 2.6381302 7.5
0.14210281 0.7856881 2.644078 13
0.13903759 0.87880021 2.6215332 15
9.1549616 2.9379892 2.6374841 12
0.45327973 0.46808514 2.9051862 11.25
0.58029109 0.52922428 3.1393042 8
8.9886932 2.7268813 3.295712 12
-1.1833323 0.10750583 4.0619612 6
-1.2027299 0.26116848 4.0931187 7
-1.1903827 0.30625951 4.1064839 8
-1.4097544 -0.074565977 4.2350588 3
-1.3056033 -0.0052183354 4.2076936 3.6666667
-1.3171988 0.14427082 4.2304716 5.8000002
-1.4129897 0.39753428 4.3065047 9
-1.2549427 0.37236607 4.2583094 8.5
-1.3655456 0.49813902 4.3099813 10
-0.44691777 -0.076941304 4.5465803 4
-0.18478978 -0.058690049 4.555418 3.5
0.074264444 -0.074673168 4.5435233 3.5
-0.42738467 0.13811742 4.4663687 5.5
-0.29338154 0.1689854 4.4458709 6
0.10757297 0.11994079 4.5735474 5.25
0.09192735 0.31408617 4.5749836 7
-0.72411323 0.50490546 4.5113626 6.5
-0.44968769 0.40551427 4.5566745 8
-0.72938377 0.88346678 4.5408587 9
-0.73434138 1.207878 4.5935259 16
-0.91546023 -0.073250949 4.7058725 3.5
-0.26094872 -0.1383661 4.6249256 3
-1.0002354 0.078765742 4.6960526 5
-0.84842789 0.11938992 4.7060061 5.25
-0.60789686 0.06890592 4.6043091 4.75
-0.43205163 0.070678018 4.6803827 5
-0.070601463 0.1418927 4.6350513 6
0.31981081 0.020826206 4.7903433 1
-0.86560607 0.24741998 4.7096467 6.5
-0.63765776 0.34483162 4.6554985 8
-0.020068586 0.37508285 4.6622453 7.5
-0.63565195 0.55597323 4.6836724 9.5
0.023728371 0.4541373 4.6894374 9
-0.5770188 0.68496436 4.7142491 11
-0.0206424 0.7750476 4.7140951 11.333333
0.061528563 0.66325611 4.6928186 10
-0.66624463 0.97139925 4.7468848 13.666667
-0.49182636 0.84859276 4.7192259 12.5
-0.73290849 1.1772422 4.7543011 15.5
-0.90360844 1.3025092 4.7139392 16.25
-0.71395111 1.3254015 4.7735105 17
-0.53289998 1.2397823 4.7251654 16
-0.35762486 1.3765357 4.7587242 14.5
-0.75349569 1.4956435 4.6583076 18
-0.55688506 1.5360061 4.6429071 19
-0.25136733 1.51625 4.6849484 18
-0.29250664 1.6926423 4.6942754 19.666666
-0.42693943 1.8922418 4.7918615 18
-0.75426334 -0.20225407 4.9667158 1
0.054835077 -0.037874669 4.8443351 1
-0.47106361 0.38989264 4.9565115 5
0.03758654 0.31350264 4.9876437 3.5
0.20116898 0.22608685 4.9117279 3
-0.044734214 0.5563044 4.913187 6
0.042287827 0.49993658 4.9265904 5
0.26031861 0.50009865 4.9128399 5.3333335
-0.013285667 0.71113431 4.9860325 6
0.051325396 0.75880611 4.968164 7.5
0.28089654 0.68141025 4.945322 6.8333335
-0.71380264 0.81302971 4.8224611 12
-0.107742 0.92007935 4.9154687 8
0.054053582 0.8941102 4.965858 9
0.24166 0.86870825 4.9337006 8.5
-0.42824891 1.0658751 4.9024272 9
-0.30717465 1.0507551 4.9750319 9
-0.088249743 1.1220007 4.9874701 10
-1.2993305 1.3450499 4.9103708 16
-0.4473272 1.2802781 4.9210958 11
-0.29155883 1.3115503 4.8605595 11.333333
-0.043362744 1.3082683 4.9531293 11
-1.4192913 1.425192 4.8345122 17
-1.0325085 1.5010914 4.828815 18
-0.42947471 1.4633412 4.8965702 14.75
-0.33555397 1.5011673 4.8367677 13
-0.066813447 1.4894595 4.934598 12
-0.90025628 1.7625786 4.8317804 20
-0.48974732 1.7263663 4.9121122 16.5
-1.0717019 1.9108895 4.8910508 20.5
-0.81592143 1.8415445 4.818759 21
-0.73188359 1.874939 4.8437147 21
-0.50889564 1.8443545 4.8166437 19
-0.25457141 1.8746195 4.9241672 14
0.090862125 1.9667163 4.9817686 15
-0.87762892 2.1741042 4.997468 18.5
-0.4397589 2.0116172 4.9405284 15
-0.30707046 2.0347068 4.9682622 15
0.1516442 0.35779288 5.0496612 4
0.30626139 0.37760836 5.0097456 4
-0.67073214 0.92340207 5.0698586 8
-0.04245773 0.88377994 5.0451632 7.5
0.27061364 0.99733543 5.032764 8.5
-0.63153076 1.109112 5.1016269 9.666667
-0.058257014 1.1466526 5.0379333 9.5
0.021002412 1.1772454 5.125248 10
-0.71288335 1.3537729 5.1288757 11
-0.46827579 1.242205 5.0431037 10.5
0.35092372 1.2861526 5.0413585 10.5
-1.2678454 1.5288823 5.034184 17
-0.73965335 1.5167186 5.1161995 12
-0.52975428 1.4862274 5.1019874 12
0.098796263 1.4873009 5.0613394 11.75
0.32795078 1.5397658 5.0272875 12.5
-1.2920609 1.6985397 5.0323539 18.5
-0.8703776 1.7772057 5.0402889 16
-0.74026275 1.7731485 5.0972872 13
0.057363361 1.7300526 5.0566573 13
0.29917258 1.704308 5.0872831 13.5
0.78884029 1.7993124 5.0610461 14
0.8421579 1.663712 5.0278258 13
-1.2702475 1.842551 5.0413737 20
-0.92600346 1.9352752 5.0251832 17
-0.70603287 1.890641 5.1476836 14
-0.24413241 1.9222702 5.0360651 14.5
0.063751608 1.8642904 5.0800519 14.5
0.29592049 1.8722255 5.117445 14
-0.7437529 2.1146593 5.0952983 16.888887
-0.22425863 2.1679342 5.0088325 16.5
0.0070206523 2.0374005 5.0395317 16
-0.75947845 2.2792459 5.1519508 16.25
-0.81050313 2.4092207 5.1847034 17
-0.68418038 2.5325809 5.1743841 17.5
-0.69387263 3.1101093 5.1953464 20.5
2.4521379 3.1075046 5.1783662 22
2.9649472 3.0835645 5.1674767 20.5
3.038012 3.1072812 5.1348171 21
3.4299397 3.123486 5.1231647 20
-0.69015574 3.3114357 5.1787124 21.5
-0.70036149 1.3242009 5.2477751 10
-0.27909064 1.3154455 5.2155123 15
-0.78805292 1.5228068 5.2429166 11.5
-0.27147007 1.4181299 5.2302608 16
-0.8419745 1.6706913 5.2591176 13
-0.65083653 1.7610735 5.2311854 13
-0.80297732 1.9025152 5.2317848 14.75
-0.68186569 1.8186435 5.245522 14
-0.7559154 2.2785108 5.2459817 16
2.2625144 2.3717477 5.28161 18
-0.67807722 2.4348912 5.2519002 17
2.3096867 2.4651763 5.3237209 19
2.8443687 2.5839071 5.2694864 18
2.1425388 2.6528099 5.2534308 20
2.2947822 2.6652346 5.2374039 20.5
2.4260635 2.7849007 5.2742295 20.5
2.7258871 2.7226443 5.3034286 19.5
2.8561227 2.7517986 5.288444 19
-0.77023667 2.8497753 5.2757478 19
-0.085717723 2.860764 5.3448281 21
0.11059526 2.8147604 5.3590555 19
0.41054809 2.9126973 5.394979 20
2.0701566 2.8978186 5.3298502 21.5
2.5507419 2.9515641 5.3151746 21
3.1430373 2.8433642 5.2425184 19.5
3.3464181 2.9163842 5.203805 19
3.5428998 2.8198493 5.2484035 18
-0.755651 3.0287099 5.2187324 20.5
-0.4988752 3.1936367 5.3531156 20
-0.28185382 3.1844122 5.3181114 21
0.69313073 3.1659298 5.3570857 23
2.5894654 3.1978207 5.3694496 20.5
-0.44153613 3.3730998 5.3466954 21.5
-0.24701719 3.2971187 5.3708916 21.5
-0.059520096 3.3238158 5.3815107 21
0.11591825 3.3467391 5.3076525 22
0.29869109 3.2581151 5.3214293 21
0.99878478 3.349401 5.3938522 20
1.0533707 3.3536744 5.3590126 21
1.3513446 3.320931 5.34167 23
-0.071500927 3.5305736 5.3740902 22.333334
0.045256108 3.4302297 5.3861847 21
0.5805192 3.5425353 5.2906494 22
1.586675 3.4505608 5.3354502 23
1.6568066 3.4031925 5.3773761 21
2.9299505 3.5789599 5.221108 22
3.0394452 3.4679105 5.3175893 21
0.52320611 3.6025293 5.3535023 23
1.7136165 3.6466091 5.3413205 22
1.5182586 2.3037891 5.4854097 16
1.6353005 2.2007115 5.4754906 14
-0.43060285 2.5430462 5.4972982 17
-0.10651165 2.4439743 5.4667854 16.5
0.11628941 2.4129033 5.4998498 17
0.46288016 2.5096428 5.5544276 16
0.78518891 2.4088717 5.5188236 16
0.91194373 2.5480287 5.5164032 16.5
1.4794029 2.5712118 5.5449958 18
1.8088007 2.5919168 5.4689336 18
-0.48200655 2.7600117 5.516057 18
-0.30847695 2.7841821 5.4421749 19.25
-0.10015038 2.7451541 5.5023537 18.75
0.35686091 2.7127786 5.5397911 18.75
0.55588061 2.6913037 5.5199494 17
0.84166753 2.7467332 5.473958 18
1.8138335 2.7380817 5.4897132 19
2.3816769 2.6800914 5.5685039 18
-0.43455267 2.8596325 5.4719505 18.5
-0.087407768 2.8791077 5.4875216 20.25
0.089316219 2.9224317 5.5338702 19.333334
0.21397224 2.8604543 5.4459715 21
0.45455357 2.9564931 5.4561496 21
0.78206646 2.8807609 5.5597644 21
1.0407308 2.9042845 5.504703 18.5
1.4717615 2.8840053 5.5344973 18.5
2.5440254 2.8879166 5.5925536 19
-0.27760419 3.1098747 5.5273747 20.166666
-0.056582168 3.1004622 5.4821248 20
0.14068045 3.1468821 5.4709711 20.5
0.29441226 3.0851822 5.4478998 21
0.46846062 3.0934391 5.4878607 20.5
0.69930452 3.0722001 5.4866686 21
0.91633737 3.1389625 5.4345217 19
1.0265675 3.0960119 5.4589 20
1.6645613 3.1839139 5.4926124 21.5
2.4407909 3.1239965 5.5100203 20
2.8012869 3.092869 5.5709033 19
3.0081763 3.0468438 5.5632353 19
-0.36876884 3.2388294 5.4984612 20.5
0.37145755 3.2973077 5.4638715 20.5
1.4884375 3.3061457 5.4139829 22
1.6175338 3.331049 5.4331503 20
2.9562104 3.3265946 5.4307833 20
-0.15457469 2.3412282 5.6046262 16
-0.11204006 2.6235585 5.620471 19
1.4301811 2.8802621 5.6128297 20
2.8941386 2.8858314 5.6032553 18
1.4222991 3.0447316 5.608737 21
