# .PCD v0.7 - Point Cloud Data file format
VERSION 0.7
FIELDS x y z intensity
SIZE 4 4 4 4
TYPE F F F F
COUNT 1 1 1 1
WIDTH 413
HEIGHT 1
VIEWPOINT 0 0 0 1 0 0 0
POINTS 413
DATA ascii
1.3389553 2.4404242 -1.88139 23.130751
1.6685058 2.5483258 -1.865678 23.128874
2.0836883 2.6272063 -1.7912749 22.876499
2.6208687 2.5413547 -1.7099158 21.623875
2.4552183 2.8285098 -1.7016052 23.124502
4.5397549 3.8449163 -1.6533886 23.115999
-1.3940732 0.69061476 -1.2316527 13.6117
-0.97404313 0.71022213 -1.3113937 15.914648
-1.3823664 0.80658251 -1.2400851 15.0115
-0.90209228 0.86547554 -1.3752639 18.457775
4.772666 3.86656 -1.5051385 23.115
4.9418621 3.857156 -1.2163359 22.5137
-1.3851008 0.34836912 -0.95453727 9.0136671
-0.51037544 0.33002844 -0.97291631 11.86825
0.4957324 0.37684858 -0.83195502 14.465
-1.3564041 0.62492847 -1.0669591 13.327679
-0.97872519 0.68022275 -0.89256442 17.97649
-0.62709111 0.50377619 -1.0357331 15.252439
0.48974812 0.42670077 -0.82447606 16.13175
-1.3383975 0.87272829 -0.94708455 18.2131
-0.96460313 0.85612261 -0.90823269 21.259001
-0.73341012 0.90062106 -1.0475824 22.764
5.1385746 3.8866901 -0.97956908 22.112499
5.3991141 3.8333111 -0.86469615 21.445166
9.1109037 3.7290864 -0.8987484 15.11
-1.3152313 0.32850814 -0.46108001 9.6909418
-0.98318136 0.32736543 -0.5047909 11.941286
0.116476 0.3739773 -0.4392004 14.6315
-1.3571247 0.52298838 -0.44193396 13.53664
-0.99165791 0.56037927 -0.5476113 17.366821
0.12900254 0.42602623 -0.41855156 16.131001
0.50777227 0.54426742 -0.73242712 20.574501
-1.3131346 0.87679994 -0.55947977 20.925682
-1.0684024 0.87140322 -0.62425387 22.560051
9.464797 3.0905848 -0.50738996 12.109
8.8431091 3.754993 -0.65801346 15.1095
-1.3489326 0.31466541 -0.12750606 10.812012
-1.0037611 0.30433434 -0.20605135 11.859015
0.34752586 0.34779453 -0.14916694 12.377501
0.54553473 0.31503999 -0.20117885 10.593657
0.93950653 0.33860594 -0.15049595 9.0915594
1.5607735 0.2776027 -0.035169221 8.6084995
-1.3588352 0.51868421 -0.17917411 15.408989
-1.0170565 0.55101413 -0.2918061 18.064976
0.31599918 0.60870874 -0.18871528 18.378555
0.59786057 0.5702275 -0.17296848 15.894075
0.90698469 0.60062551 -0.20494339 14.314877
-1.3523108 0.83112496 -0.29244396 18.209581
-1.0188118 0.80728948 -0.37063882 23.028
0.69591838 0.88970983 -0.15704241 20.890678
0.86635256 0.97375584 -0.21799362 20.622124
0.83437967 1.2582232 -0.1770606 23.125999
8.2699089 3.0543284 -0.39428854 13.109
9.4516077 3.1560681 -0.31779689 13.1085
9.4559832 3.2351589 -0.098962128 13.108
5.8632841 3.8142884 -0.17660071 20.109001
6.0770721 3.7484264 -0.012533791 21.108
6.9388323 3.7682443 -0.0060627614 19.108
8.5169048 3.8948026 -0.13888562 16.10825
8.878334 3.7007349 -0.15435839 15.10825
-1.3530927 0.33353236 0.30378079 12.855269
-1.0278739 0.298076 0.19634318 11.502319
0.77103108 0.35914606 0.06453234 12.114
1.0471674 0.33182272 0.13948539 10.775
1.2632732 0.34884959 0.3097702 10.959642
1.8046213 0.29473859 0.038578425 8.1075001
-1.3456525 0.54802924 0.22951798 17.822794
-1.0411969 0.57699603 0.26915798 18.543615
0.70644104 0.61039901 0.18575129 17.401962
0.9541592 0.65964508 0.34683967 18.423418
2.4540133 0.60352433 0.26240644 10.1055
-1.0288744 0.80743456 0.29598463 22.52779
0.72860456 0.89934254 0.23356782 22.476059
0.987831 0.9334836 0.28879124 22.071667
1.3469949 0.88064289 0.14822166 21.105499
2.2554269 1.0346559 0.24682464 16.605499
2.6024292 0.88928235 0.22830631 13.606
3.3636842 1.0445368 0.070794873 12.1075
5.5853615 3.1493742 0.25072765 18.1075
9.3049383 3.4403915 0.25131828 14.10725
4.7893543 3.8281395 0.15538442 23.108
5.0004187 3.8146365 0.27270865 23.107124
5.3815427 3.7777767 0.17124499 22.60725
5.9750881 3.7773876 0.24780521 20.60725
6.1920009 3.7581744 0.26462513 20.357
6.4721794 3.6947036 0.27268189 19.107
6.964601 3.7116995 0.30516016 18.107
7.68325 3.8004994 0.35083959 17.107
8.344368 3.8222206 0.2440578 16.10725
8.5999184 3.699297 0.25610435 15.60725
9.0162058 3.6616216 0.20679784 15.1075
1.1644017 -0.0073589385 0.56915957 1
1.40042 -0.010361433 0.60522139 1
-1.3455957 0.31739992 0.60374838 12.396992
-0.98229963 0.2772612 0.5972122 10.296056
-0.72859722 0.29964074 0.68336493 12.048045
0.68012458 0.31059361 0.49839255 11.279816
1.1312392 0.30794176 0.77771854 9.7608328
1.420839 0.27006465 0.68715221 7.4514065
-1.3544672 0.53113556 0.60295439 18.093912
-1.0363569 0.59170884 0.53136694 17.774563
-0.61211634 0.53237152 0.70299321 19.372578
0.68979657 0.52086699 0.49968135 16.483459
0.97744536 0.62082797 0.51676953 17.978603
-1.047225 0.85041112 0.62262714 22.355959
1.0470703 0.83157301 0.40724003 23.099501
1.3971264 1.0738555 0.63525188 21.35075
10.374476 1.8789384 0.67809749 8.1064997
9.8077745 2.1813107 0.52276385 10.10675
10.287594 2.0850854 0.66525245 9.1064997
5.6069059 3.1636937 0.76706302 18.105499
8.2044039 3.0824473 0.53983915 14.1065
9.4655066 3.1498613 0.44795525 12.60675
9.7859097 3.0246344 0.67825305 12.125
6.1351166 3.5587912 0.52314281 19.106501
9.8050537 3.2164383 0.71328413 13
4.9888535 3.8130665 0.58658183 22.772793
5.2154651 3.7936852 0.44590634 23.106001
5.7313232 3.7870181 0.50237149 22.106001
6.1884646 3.7716219 0.68586874 19.7059
6.4987774 3.687335 0.42944181 19.106501
8.2017097 3.7677782 0.64066982 16.106251
8.6180239 3.6774173 0.59923363 15.356375
9.4400721 3.6404057 0.60023987 14.1065
1.2224649 -0.022530049 1.0610614 1
-0.41866338 0.31921941 0.95115292 12.0625
-0.066441536 0.0360744 1.0760154 3.5
0.24024485 0.13696344 0.98523152 7.0406251
0.52732432 0.29376107 1.018132 11.293455
1.1078291 0.34507531 0.81186038 10.0935
1.3461131 0.33535931 0.92437184 8.8973494
1.8421369 0.038052976 0.89659297 2
2.853704 0.00043991208 1.1670978 1
-0.55601037 0.55851233 1.0777627 20.124283
0.37854946 0.53340793 0.94110143 19.398735
0.57056582 0.58186674 1.0290372 18.119781
0.99773091 0.66304016 0.9313395 17.390751
1.4886711 0.68505794 1.0368185 13.610511
0.47973374 0.86949652 1.0835046 23.081499
1.5664818 1.1573769 0.92112148 19.851042
1.8463408 1.1700916 1.0313249 19.263
1.862967 1.2186581 1.0232654 19.5965
9.4948559 3.0480599 0.8714236 12.10575
9.7724438 3.0557961 0.82407439 12.052999
5.1660452 3.7892699 1.1204631 22.6035
5.3952413 3.7857351 1.1894467 22.103001
5.9827108 3.7891469 1.0566701 20.1045
6.1537132 3.7448533 1.0355707 19.354626
8.0096531 3.72594 0.99001294 16.105249
8.5116692 3.6512938 1.0270151 15.105249
-0.18955471 -0.0021426678 1.4175184 2
0.3535977 -0.0064328015 1.2926309 1
1.4681855 -0.025408894 1.2189029 1
-0.68751323 0.29179347 1.4698552 10.8636
-0.2099278 0.011544775 1.390372 3
0.18650556 0.22393739 1.3149385 8.0533752
0.4082998 0.25573325 1.2940131 9.0790005
1.507946 0.31769025 1.5021137 7.2953334
-0.60736448 0.50830799 1.3340487 16.729967
0.26340815 0.65980172 1.3921766 18.216522
0.41593134 0.5860998 1.3649418 15.278801
1.0567496 0.76987469 1.2531108 17.087999
1.481117 0.60343647 1.4180892 11.526412
1.7746177 0.62765849 1.4626914 11.092199
-0.36306193 1.125898 1.4989202 23.0665
0.14530265 0.86446762 1.5264468 22.5805
0.42453143 1.0349495 1.4665999 22.078499
1.0711972 1.065526 1.3922358 20.087
1.4983237 1.1443739 1.3581605 18.993675
1.7340833 1.1453199 1.3228546 18.592999
1.386061 1.2181435 1.3654739 20.592499
1.7966187 1.2118903 1.3125483 19.0935
9.4136591 2.7908468 1.2975694 11.10475
5.1092167 3.7933531 1.3963239 22.602333
5.4146252 3.7854707 1.4604361 21.102751
5.724102 3.7588391 1.3551431 21.103001
6.1270614 3.6973927 1.5075047 19.103001
6.4275131 3.6890547 1.3434422 19.103251
7.8019547 3.6822746 1.3241317 16.10425
8.3632927 3.6481609 1.3946041 15.10425
9.3089895 3.6963887 1.4026475 14.1045
-0.16385542 -0.0085255783 1.7845895 1
0.31261718 -0.024116367 1.8786238 1
0.39108682 0.34217158 1.9034517 12.588084
0.51953816 0.56051993 1.7687606 18.520679
1.5500711 0.52873671 1.6127623 10.0895
1.7571108 0.60403544 1.6090562 10.591
-0.4312183 1.094789 1.764172 20.5665
-0.39345768 1.0837929 1.777102 20.066999
0.40768346 1.0323582 1.6520047 20.077499
1.7802018 1.3028874 1.6974822 18.0905
9.4478226 2.7236066 1.7411901 11.10375
4.4456792 3.195478 1.7807499 21.1005
5.187057 3.1748641 1.664391 19.101749
5.2661018 3.1655014 1.9464279 18.60075
6.3788581 2.9903479 1.8660144 16.101999
6.7926197 3.0954688 1.9372263 15.102
6.9653797 3.1157501 1.8118327 15.1025
3.8743496 3.2331247 1.9586744 22.848
4.4376564 3.2330344 1.664474 21.351
7.953691 3.5515039 1.6426857 15.1035
-0.4412975 -0.029954683 2.210115 2
0.16290191 -0.020896615 2.0605741 1
0.24141009 0.35057968 2.1615398 10.136778
-0.66400623 0.5823313 2.1039817 19.061666
0.18207394 0.62754101 2.3110983 14.235437
-0.6446569 1.1406853 2.0934706 21.941813
0.13989086 0.94968975 2.3130918 20.327751
4.5948582 3.1548996 2.259016 21.0975
3.8384118 3.2165701 2.2176845 23.096001
-0.012147158 -0.031163137 2.4790978 1
-0.66400367 0.36664438 2.5334246 10.06425
0.28195301 0.27160695 2.5774131 6.7070999
0.44720966 0.22375803 2.5360241 5.166667
0.21345609 0.56855303 2.5008039 11.630646
0.46006396 0.68968242 2.4454834 11.07625
0.80990982 0.72103363 2.5312653 15.086
-0.62772602 1.071604 2.4993336 18.067749
0.19188066 0.94526291 2.4652305 17.742834
3.4002275 3.1462777 2.6069822 23.093
4.3687596 3.7458692 2.7632322 22.596252
4.4594479 3.7789757 2.4963126 22.8475
6.274292 3.6677501 2.5645087 18.099625
0.53494143 -0.018485412 2.8785625 1
0.14259416 0.58782744 2.9063773 12.076
0.5551036 0.56551731 3.0888097 9.1716785
0.98371142 0.58109313 2.9889822 10.232543
0.69333136 0.94406652 2.9767609 13.913
1.1997801 0.89399743 2.9890549 14.086
1.3771275 1.0810473 3.1159697 15.0865
3.3738201 3.0858603 3.0211861 22.091248
6.1237645 3.4919801 2.8924985 18.098499
4.2170348 3.7194996 2.9498229 23.094624
4.5310917 3.7160866 3.0683055 21.844875
5.4058766 3.6636221 3.1099751 20.096001
6.3156223 3.6373596 3.1562777 18.097626
6.462904 3.6278057 3.0133801 18.098
9.8913908e-05 -0.076229326 3.5075536 0
0.4819079 0.5388962 3.2033563 8.0775003
3.2857461 3.085948 3.3651946 21.757168
5.8303013 2.9383307 3.5351548 16.095501
6.0138474 3.5370793 3.5125747 18.0965
3.4896114 3.6918583 3.556402 23.08975
3.6625943 3.7267628 3.4818616 23.091917
4.0519285 3.6636434 3.3481245 22.093376
4.4226975 3.6761017 3.3848364 21.759666
5.3082619 3.640645 3.3738725 20.095001
5.6098604 3.6239922 3.2293317 19.096001
6.2359295 3.6220505 3.4286511 18.09675
6.4891729 3.6438379 3.4527645 17.09725
3.2607684 3.0576487 3.7074587 21.088499
6.2057805 3.57864 3.7650242 17.095501
6.8838487 3.5953298 3.8664365 16.596251
3.389858 3.7292068 3.9036765 23.089001
3.6006238 3.7048261 3.9998312 22.09
4.3064618 3.6578705 3.7715733 21.091499
6.2548175 3.6307926 3.8596408 17.095667
-0.75336087 0.82575721 4.3544598 9.0684996
3.3103855 3.0794673 4.1228442 20.0875
6.1937394 3.5991209 4.3324375 17.094
6.8810902 3.4525657 4.3824825 16.094999
2.6093576 3.7029791 4.2848115 23.084499
3.1743822 3.6917312 4.3198142 22.0865
3.2717566 3.6934648 4.1628847 22.58725
5.1043453 3.6216741 4.176053 19.092251
6.2149763 3.6026075 4.144805 17.0945
-0.67360634 0.20087835 4.4363089 4
-0.84610105 0.73041385 4.4728322 8.7329998
-0.7361899 0.73936069 4.557261 8.3179379
0.20517221 0.75003564 4.7391686 8.0737495
-0.83466327 0.92586499 4.543736 10.0665
-0.72262377 0.90771395 4.5621185 9.7347498
-0.23277387 0.92284733 4.7755384 10.0705
-0.4109537 1.4143106 4.7930093 12.737166
-0.3902517 1.3660895 4.7888823 12
-0.44584554 1.929553 4.7853312 18.166668
-0.22345501 2.0557103 4.7119279 18.070999
0.64483917 3.0971518 4.5553031 22.32575
5.6941004 3.5430539 4.7650776 17.091999
6.1419473 3.4722688 4.5673833 16.76
6.738565 3.5735745 4.5953922 16.09425
2.4850147 3.7121243 4.521749 23.0835
2.9888954 3.7133892 4.5082946 22.485401
3.3921647 3.6799285 4.6245708 22.921919
3.742481 3.7077169 4.4444933 21.087999
4.6562667 3.6879363 4.4487252 20.0905
5.4393125 3.6795335 4.4525285 18.092251
5.7729001 3.6551967 4.4131031 18.093
-0.47755253 -0.072947711 4.8845873 2
-0.21749417 -0.10129093 4.9090481 2
0.11553824 -0.027150359 4.8584156 1
-0.46999705 0.3208704 4.9299192 4.5
-0.19177859 0.19787402 4.927062 3.8
0.19712105 0.16308582 4.9326935 2.5714285
-0.54120582 0.65211934 4.9720607 7.2125835
-0.094753154 0.59004414 4.9132953 6.25
0.1622352 0.659244 4.9180284 7.0352917
0.42457271 0.71616888 4.9016213 8.0745001
-0.5496583 1.0243475 4.9877391 9.3790464
-0.18201487 0.98217231 4.9371138 9.2136431
0.1692494 0.99901962 4.942369 9.4955006
0.4195466 1.0741419 4.8428445 11.0745
-0.91369295 1.4871157 5.0910993 13.466499
-0.57776695 1.4199457 5.0240102 12.005037
-0.23574455 1.4032599 4.8801465 12.116511
0.19263862 1.5132213 5.0380673 12.874283
0.46630991 1.3199848 5.0955515 12.0745
-0.88986719 1.835989 5.0550852 16.246601
-0.57613808 1.8142897 4.977706 14.956824
-0.21207938 1.8569237 4.9280295 14.86264
0.20321541 1.7945303 5.0517139 14.302032
0.69026518 1.8194231 5.0460725 14.716708
0.93711299 1.7614973 4.9981875 13.735837
1.2247924 1.9630188 5.0938158 16.078501
-0.88635606 2.2032688 5.0166297 18.522112
-0.66692752 2.16589 5.0536475 16.842468
-0.27196425 2.0234313 4.9650059 15
0.25864783 2.0059175 5.0678201 15
0.53397173 2.0890322 5.0208144 16.741501
1.0468887 2.0436187 4.9139256 16.077749
-0.91631448 2.5632253 5.0744781 20.8664
-0.69850731 2.5185847 5.1257434 18.284061
-0.89729738 2.9968274 5.0952473 23.0665
-0.70209771 2.9646599 5.1522903 20.426311
0.72128499 3.1050444 4.9108572 21.07575
3.1804676 2.9823263 4.9294815 20.087
3.2403908 2.9824796 4.8271203 20.0875
-0.66307765 3.2378757 5.156148 21
6.6996059 3.5626729 5.1268229 15.593
6.929503 3.5370152 4.8282433 15.094
-0.16203308 3.7221267 5.1420717 23.071251
0.062722668 3.7402511 5.0477738 23.07225
2.6569724 3.7231245 4.8456163 22.0835
3.0119243 3.6854587 4.9328108 22.085438
3.4568758 3.6481056 5.0451393 21.086624
3.6776831 3.6427493 5.0013862 20.0865
4.4479065 3.6332164 5.0604501 19.088499
5.1550961 3.6413441 5.1623893 18.09
-0.27753344 0.69553238 5.3435802 7.0472503
-0.42994437 0.85348868 5.3442469 8.0697498
-0.25754398 0.88629484 5.2768383 8.5706253
0.18124956 1.1863457 5.2540603 11.07275
0.23090294 1.444603 5.3181825 11.073
-0.81154722 1.9016213 5.2536635 15
-0.70254016 1.8845737 5.2434988 16.033749
0.19730942 1.7407566 5.2837987 13.739667
-0.14956038 2.3753617 5.4610977 17.488001
0.13566306 2.2724366 5.4009399 15.922825
0.49526715 2.3207042 5.5331445 15.799832
0.99616587 2.3218083 5.426074 15.8265
1.4895 2.2325253 5.4417176 16.108278
1.7671247 2.2609789 5.3893914 16.171577
2.2265143 2.3735328 5.3290272 17.0825
2.5581522 2.3455052 5.4908199 15.833375
3.1057429 2.24298 5.5029001 14.83525
3.6005607 2.2796104 5.5113602 14.58675
-0.55739671 2.6285212 5.4106736 18.595991
-0.17381753 2.6277637 5.4837303 18.56226
0.27669555 2.6040139 5.5093193 18.374893
0.56044894 2.6013522 5.5069909 17.439243
0.92902273 2.6754138 5.517643 17.34375
1.4588654 2.6727862 5.5038862 18.447224
1.8691131 2.5512178 5.4178472 18.33075
2.2669146 2.5967329 5.5228515 17.721334
2.5893049 2.5567889 5.3873382 17.556166
3.0056577 2.506531 5.4154224 16.585125
3.5045877 2.4871521 5.4039369 16.08675
3.916667 2.513474 5.3648672 15.338
4.3046584 2.6391888 5.4222908 15.7555
-0.46978655 3.0234663 5.4211121 19.228001
-0.19951591 3.0506201 5.4890661 20.247456
0.19340056 2.9876525 5.4505067 20.502869
0.58571762 2.9949188 5.4769258 20.605614
0.95163524 3.0592699 5.4609766 20.355782
1.445354 2.9925547 5.4901772 19.913815
1.7453063 3.0844293 5.3903236 20.964251
2.2285149 3.1209476 5.372438 20.388166
2.5740681 3.0527585 5.4745636 19.716297
2.9804273 3.0398483 5.5455222 18.771376
3.5018916 3.0142467 5.4743938 18.372213
3.9354763 3.03791 5.3723841 18.087999
-0.57630777 3.3222113 5.2879105 21.909187
-0.22787796 3.269798 5.3746777 21.57918
0.29302722 3.3340521 5.3697934 21.302553
0.59665638 3.2911763 5.3654327 20.370583
1.0263712 3.3342373 5.3784981 20.475937
1.463236 3.3764989 5.3822098 22.346251
1.7270037 3.4550197 5.3281345 22.4135
2.1664634 3.5111217 5.4548054 22.581812
2.5754485 3.3701296 5.2660513 21.889166
2.9210835 3.4429038 5.3100538 21.14625
6.5771632 3.5529706 5.2717676 16.092501
6.827776 3.5473466 5.4930606 15.0925
-0.53164309 3.6735053 5.3480697 22.819874
-0.35519612 3.7083712 5.3126254 23.070625
0.2922219 3.7348108 5.3243837 22.57325
0.47969747 3.6200159 5.3788438 22.073999
1.2578433 3.7190731 5.3959274 22.677999
2.3540831 3.7106724 5.2761431 23.083
2.5784578 3.7083185 5.3139772 23.08375
3.4801688 3.6421793 5.3258085 21.08675
5.6956663 3.6428587 5.2004046 17.091
6.2213035 3.692292 5.5685778 16.091249
-0.15457459 2.3412278 5.6046267 16
-0.11219624 2.6239994 5.6201382 19
0.058855534 3.0889759 5.6095634 20
1.4260868 2.9629252 5.610465 20.5
2.8939848 2.8862474 5.6030021 18
5.4289441 3.3337476 5.6526289 16.0895
5.7605991 3.4360816 5.668962 15.4235
6.2186365 3.4871962 5.6912723 15.091
6.4850597 3.5477512 5.6748524 15.0915
5.9100151 3.6189635 5.6297169 16.0905
