# .PCD v0.7 - Point Cloud Data file format
VERSION 0.7
FIELDS x y z intensity
SIZE 4 4 4 4
TYPE F F F F
COUNT 1 1 1 1
WIDTH 669
HEIGHT 1
VIEWPOINT 0 0 0 1 0 0 0
POINTS 669
DATA ascii
0.29145765 2.6530783 -1.8721703 22.134001
0.55283213 2.6513183 -1.7921953 22.3668
0.98681754 2.6712179 -1.8245902 22.020472
1.43938 2.6416492 -1.7223555 21.929029
1.6683768 2.5488863 -1.8654243 23.128874
2.1050136 2.6250725 -1.7911983 23.001751
2.6207464 2.5419016 -1.7096987 21.623875
1.573112 3.0439262 -1.641971 23.128
2.5885465 2.8410711 -1.7070165 23.124252
4.6888466 3.4105086 -1.6238841 21.115999
4.5397549 3.8449156 -1.6533889 23.115999
-1.3940732 0.69061434 -1.231653 13.6117
-0.97404313 0.71022213 -1.3113937 15.914648
-1.337707 0.83868778 -1.2602683 16.369465
-0.90209228 0.86547554 -1.3752639 18.457775
3.371639 2.9742432 -1.5491822 22.121
5.8673553 3.2546172 -1.4187472 18.115499
6.8426757 3.5102825 -1.2623713 17.114
7.2140512 3.2104306 -1.3935595 15.114
4.7726665 3.8665593 -1.5051388 23.115
5.0529146 3.8353996 -1.3600664 22.064224
5.5554585 3.852741 -1.2272451 21.11525
7.7488642 3.7809882 -1.2805908 16.863251
9.6707392 3.6761065 -1.2588115 14.112
-1.4213252 0.34206101 -0.91597658 9.0128336
-0.86473334 0.33282903 -0.83265591 11.7615
-0.51037544 0.33002844 -0.97291631 11.86825
0.4957324 0.37684858 -0.83195502 14.465
-1.3654168 0.64286989 -1.0041193 14.237181
-0.9911682 0.62893873 -0.92612153 16.90066
-0.62709111 0.50377619 -1.0357331 15.252439
0.48974812 0.42670077 -0.82447606 16.13175
-1.3083117 0.88026953 -0.88292992 19.782032
-1.0475768 0.88949472 -0.9972623 21.431417
-0.73341012 0.90062106 -1.0475824 22.764
-1.2931091 1.3867449 -1.051152 23.009501
9.4083061 3.0788014 -0.89270008 12.11
5.8546057 3.2185826 -0.83180499 18.113501
9.4213371 3.495398 -0.91788483 14.11
5.0713544 3.8539279 -1.0560123 22.281166
5.3991141 3.8333106 -0.8646965 21.445166
6.1722021 3.8127766 -0.96306241 20.113625
6.7257228 3.8467526 -1.0912745 19.113501
7.9825463 3.7692778 -0.87036264 16.445333
8.2479067 3.6590829 -1.0500143 15.7775
8.7250147 3.766433 -0.85178006 15.1115
9.1109037 3.7290854 -0.89874852 15.11
9.288558 3.7117448 -1.0019932 14.611626
-1.325 0.32673183 -0.50655127 9.7977858
-1.0471027 0.33978647 -0.55273521 10.465148
0.13684836 0.37266517 -0.60329759 14.381625
-1.3666185 0.55609125 -0.55816299 14.633315
-1.0879712 0.58533394 -0.57917374 15.026024
0.15791269 0.51407552 -0.60199696 18.755709
0.50777227 0.54426742 -0.73242712 20.574501
0.85968292 0.6347115 -0.40435183 14.342537
-1.3498625 0.84352541 -0.57300717 20.353844
-1.1225328 0.8574512 -0.60581899 19.619652
9.4276199 3.1350703 -0.46918336 12.610583
5.3706045 3.8621259 -0.66076589 22.113377
6.1722374 3.763788 -0.63379455 20.112499
6.7077541 3.8624961 -0.75276649 19.112501
7.4063244 3.6910181 -0.60138237 17.110001
8.2426662 3.7567244 -0.50352859 16.110126
8.4821749 3.6996238 -0.55733275 15.1095
8.8307638 3.7375975 -0.60146952 15.110125
9.5036135 3.7631145 -0.55597711 14.1105
-1.3431588 0.31587499 -0.14477375 10.841105
-1.0108922 0.29430673 -0.23592567 11.368114
0.26579678 0.33189332 -0.12158492 12.773938
0.55202633 0.30616546 -0.21558349 10.061524
0.93113428 0.33726117 -0.13913803 9.2684937
1.3859599 0.29534256 -0.080543645 8.3788538
-1.3557473 0.53412247 -0.15041301 15.947195
-1.0163584 0.5254128 -0.22458751 17.629953
0.25676399 0.58138931 -0.22964764 15.157766
0.55982614 0.56825513 -0.1879722 15.731148
0.97312993 0.60421306 -0.18627878 14.570123
-1.3657668 0.8434701 -0.27727962 19.005312
-1.1051571 0.8410815 -0.32616222 22.854416
0.3557654 1.0209143 -0.30145025 16.879812
0.59792888 0.88210106 -0.14452516 20.242426
0.92183542 0.97858232 -0.22690427 20.539829
0.83432496 1.2585548 -0.17694485 23.125999
8.2699089 3.0543277 -0.39428866 13.109
9.4274378 3.1185384 -0.31350479 12.720917
5.8275285 3.2028942 -0.39704311 18.112
8.5181942 3.5548763 -0.029845476 15.1095
8.8595076 3.2808766 -0.37783968 14.109
9.4426765 3.3728595 -0.075776577 13.608
4.9515615 3.8435779 -0.2308102 22.776667
5.774641 3.8236332 -0.21097633 20.693584
6.0770721 3.7484264 -0.012533791 21.108
6.473475 3.7844763 -0.18917984 19.359936
6.9388323 3.7682443 -0.0060627614 19.108
8.2663498 3.7210677 -0.17813373 16.109249
8.5377998 3.7913065 -0.25880653 15.608625
8.8920574 3.7003045 -0.20954317 15.109125
-1.3471824 0.29529041 0.28327897 11.342151
-1.036772 0.28256783 0.17741831 10.402623
0.76179957 0.32670325 0.21815018 11.450251
0.96171522 0.33824831 0.16745767 11.091859
1.2632732 0.34884959 0.3097702 10.959642
1.8046213 0.29473859 0.038578425 8.1075001
-1.3414775 0.55940747 0.24874316 17.637577
-1.0397946 0.54605931 0.17049259 17.010384
-0.79900891 0.78232467 0.019491971 22.213001
0.70451373 0.59037656 0.13534194 17.958759
0.96690226 0.6783455 0.31793553 18.346222
2.4540133 0.60352433 0.26240644 10.1055
-1.3196442 0.8105703 0.071532965 23.02075
-1.0752013 0.82940096 0.21754645 22.273582
0.71677256 0.87802857 0.25913274 22.635607
0.98183519 0.92205352 0.26718405 22.191467
1.2928276 0.92144716 0.24549457 20.6085
2.2554269 1.0346559 0.24682464 16.605499
2.6024292 0.88928235 0.22830631 13.606
3.3636842 1.0445368 0.070794873 12.1075
1.4661983 1.2361891 0.22715342 22.116501
9.4263153 2.3206415 0.12390164 10.10775
5.5853615 3.1493738 0.25072744 18.1075
9.428524 3.0352707 0.099879384 12.10775
8.5294704 3.5540905 0.1639154 15.109
9.3049383 3.4403911 0.25131822 14.10725
4.7831316 3.8365064 0.094016433 23.1085
5.0404668 3.8091156 0.19889669 22.940416
5.3872533 3.7509232 0.19908758 21.940002
5.8893065 3.7712147 0.15141523 20.690832
6.0989799 3.7913947 0.17297801 20.53355
6.5607185 3.762228 0.1910889 19.275417
6.964601 3.7116995 0.30516016 18.107
7.4360456 3.7813203 0.33139557 17.10725
7.7111773 3.7508395 0.20837602 16.6075
8.2802744 3.7561836 0.33077908 16.108084
8.6196423 3.698597 0.23923224 15.440667
9.0162058 3.6616216 0.20679784 15.1075
1.1644017 -0.0073589385 0.56915957 1
1.40042 -0.010361433 0.60522139 1
-1.3173018 0.29514173 0.61695778 11.362889
-1.0799104 0.28824329 0.57332265 10.800948
-0.73624092 0.28165686 0.68179852 11.572067
0.70009005 0.33782029 0.59236586 11.985242
0.93791723 0.32807595 0.67648417 10.871592
1.420839 0.27006453 0.68715227 7.4514065
-1.3319981 0.53856206 0.61351663 17.802055
-1.0505354 0.59713918 0.57128167 18.911932
-0.54899615 0.5177865 0.69040197 18.562744
-0.17569521 0.64066702 0.57440996 21.796499
0.69482577 0.56128079 0.54327786 17.519407
0.91606861 0.61092472 0.56099504 17.653082
-1.2979145 0.8397212 0.67095059 22.879915
-1.047225 0.85041112 0.62262714 22.355959
1.0343089 0.89101028 0.48525694 22.359688
1.3971264 1.0738554 0.63525176 21.35075
10.374476 1.8789384 0.67809749 8.1064997
9.8077745 2.1813107 0.52276385 10.10675
10.287594 2.0850854 0.66525245 9.1064997
5.6190619 3.0740764 0.69327164 17.605999
8.2044039 3.0824468 0.53983903 14.1065
9.4655075 3.1498606 0.44795513 12.60675
9.792613 3.0396028 0.71494311 12.25
6.1351161 3.5587909 0.52314258 19.106501
8.6351833 3.5871816 0.59586358 15.107875
9.7916021 3.2265246 0.79431415 13
4.7850466 3.8215632 0.62071854 23.106377
4.9888535 3.813066 0.58658153 22.772793
5.3818412 3.8304284 0.51379013 22.441
5.8159485 3.7973065 0.6103884 21.023335
6.122941 3.799787 0.59539825 20.073868
6.6128359 3.710881 0.50856531 18.606501
6.8270106 3.7517717 0.41676688 18.775331
7.9299684 3.7116878 0.41140899 16.107
8.1152315 3.7397864 0.67451888 16.106249
8.6767149 3.6761742 0.59800977 15.273083
9.4400721 3.6404057 0.60023987 14.1065
1.2224649 -0.022530049 1.0610614 1
-1.3746133 0.29389375 0.83245075 11.357625
-0.5353564 0.32016641 1.0239756 12.062666
-0.15990862 0.03203138 1.1361026 3
0.25945598 0.15866888 0.99038947 7.3095155
0.52732432 0.29376101 1.018132 11.293455
1.1078291 0.34507531 0.81186038 10.0935
1.3297056 0.31976345 1.0150582 8.1094332
1.8421369 0.038052976 0.89659297 2
2.853704 0.00043991208 1.1670978 1
-1.3856652 0.5460943 0.83259726 18.243513
-0.58913326 0.56564051 1.0745742 19.770355
0.31389087 0.53560406 0.93551284 18.984329
0.57227844 0.67116034 0.98524296 20.081945
0.96415591 0.68439621 0.86599326 17.89077
1.4565009 0.62709117 1.0613475 12.522642
2.0682473 0.52219558 0.80318797 10.1085
0.17814252 0.8111701 1.1659992 22.58025
0.47973374 0.86949652 1.0835046 23.081499
1.5305958 1.1693196 0.94671345 20.15259
1.7297449 1.1199424 0.98467261 18.63015
1.5054758 1.2638879 0.98468924 21.103001
1.7368083 1.2119274 0.99274623 19.84675
5.6764083 3.095381 0.99685448 17.771749
9.4948559 3.0480595 0.87142354 12.10575
9.7724438 3.0557961 0.82407439 12.052999
8.6186237 3.5843096 1.0014288 15.1055
8.868166 3.4411318 1.1262764 13.60675
5.1059995 3.8118963 0.99496365 22.854876
5.4980202 3.8122337 1.1390722 21.438919
5.9756751 3.7862883 1.1250316 19.605417
6.1537132 3.744853 1.0355705 19.354626
6.9376926 3.7069099 0.99761784 18.10675
7.3768616 3.7734981 1.0408429 16.10725
7.7939558 3.8313005 1.1086259 16.10725
8.1059284 3.7164769 0.9730956 15.856251
8.5116692 3.6512933 1.027015 15.105249
8.8483438 3.6778247 0.80157566 15.106
9.3132439 3.6908021 0.80206364 14.106
-0.18955471 -0.0021426678 1.4175184 2
0.3535977 -0.0064328015 1.2926309 1
1.4681855 -0.025408894 1.2189029 1
-0.68751323 0.29179344 1.469855 10.8636
-0.23994033 0.012102102 1.3619757 3
0.17430817 0.2834937 1.4143203 9.4277143
0.4082998 0.25573325 1.2940131 9.0790005
1.0458378 0.013229607 1.3010919 1
1.507946 0.31769025 1.5021137 7.2953334
-0.63976455 0.51808864 1.3576872 17.26298
0.21685171 0.63586992 1.4753762 18.935625
0.41593134 0.5860998 1.3649418 15.278801
1.024893 0.73895073 1.3055652 15.593922
1.4523342 0.61756212 1.3809159 11.845556
1.7677851 0.62135577 1.4364884 10.636106
-0.36306193 1.125898 1.4989202 23.0665
0.22759528 0.92017531 1.5460504 22.421
0.57523972 1.0810488 1.4052849 22.5825
1.0436891 0.95165408 1.3175255 18.53504
1.4640729 1.1057203 1.3684441 18.255619
1.7432439 1.024092 1.3811505 16.349125
0.95785117 1.2933232 1.3284883 22.108
1.3772664 1.2337577 1.3680668 20.346001
1.7966187 1.2118903 1.3125483 19.0935
9.4136591 2.7908461 1.2975694 11.10475
5.6029005 3.1119847 1.2746611 18.104
6.1637826 3.1946235 1.5238501 16.605877
8.5925293 3.1154938 1.5428268 13.10575
5.393116 3.2585289 1.5213981 18.106001
5.6527109 3.2967041 1.5421538 18.106001
6.5536032 3.2207918 1.5331495 16.106001
9.132699 3.2044001 1.5208871 13.106
5.0289464 3.8160481 1.3768389 22.211613
5.4296479 3.8229871 1.342746 21.105
5.7241025 3.7588387 1.3551428 21.103001
6.1729484 3.7671936 1.4584757 19.104334
6.526876 3.6583347 1.450886 18.602625
7.8019547 3.6822741 1.3241315 16.10425
8.2608461 3.7018886 1.3374064 15.105375
8.8400841 3.6498632 1.2153088 15.105
9.3089895 3.6963882 1.4026473 14.1045
-0.18085264 -0.022488292 1.7080181 1
0.31261718 -0.024116367 1.8786238 1
-0.69529927 0.32865745 1.7739537 10.730499
-0.028687388 0.072754413 1.7904173 3
0.23586299 0.32602769 1.936429 12.838542
0.50904202 0.34775874 1.8689368 11.68535
-0.55486512 0.57646322 1.819245 19.202509
0.2001099 0.68946934 1.6549034 21.823141
0.51427084 0.58588761 1.7619003 18.899834
1.5688837 0.46454638 1.6298494 9.0967503
1.7571108 0.60403544 1.6090562 10.591
-0.5509634 1.1181507 1.815882 21.066729
-0.39345768 1.0837929 1.777102 20.066999
0.49030012 0.94172788 1.7116059 21.5825
3.7190864 0.94153422 1.8793074 9.2702503
1.7802018 1.3028874 1.6974822 18.0905
4.1310444 1.2140687 1.9822813 10.1035
9.4478226 2.7236063 1.74119 11.10375
3.7616379 3.1845255 1.8573738 23.097418
4.2948194 3.1623547 1.8467932 21.431749
4.6347666 3.1633244 1.7968102 20.599564
5.187057 3.1748638 1.6643907 19.101749
5.3336549 3.1368091 1.8610517 18.433584
6.3788581 2.9903474 1.8660141 16.101999
6.6647754 3.0085478 1.895503 15.601251
6.9653802 3.1157498 1.8118324 15.1025
7.7929792 3.1166849 1.6287265 14.1055
8.6860209 3.1471994 1.9316779 13.105
8.9185505 3.1134496 1.8265939 12.771833
3.8743496 3.2331245 1.9586742 22.848
4.2094522 3.2634332 1.8046998 22.030643
4.5272751 3.2439466 1.7045081 20.790531
4.9628134 3.2537227 1.7451322 19.811769
5.376163 3.2549131 1.7448916 18.853624
6.5393572 3.2443666 1.6869357 16.105499
7.953691 3.5515034 1.6426854 15.1035
4.5067739 3.7259254 1.6256237 23.099751
5.0908947 3.7112401 1.6218994 22.1005
-0.51695329 -0.0447574 2.2838628 1.6666666
-0.2194667 -0.022581451 2.1260335 2.3333333
0.14479162 -0.037103925 2.1114299 1
0.56558573 -0.049261324 2.3773634 1
-0.97909725 0.17449763 2.3398635 9.0625
-0.16396436 0.23348027 2.1825209 9.9933996
0.16013725 0.25202054 2.193871 8.2144642
0.46167988 0.36401802 2.1422849 10.748668
-1.2200652 0.49694145 2.3196044 20.061001
-0.97652495 0.51797783 2.2174826 19.704231
-0.48100442 0.55218482 2.217967 20.777208
-0.18441264 0.52449113 2.2363579 19.212267
0.22176401 0.58290547 2.2528152 14.448557
0.60573852 0.68905824 2.3738523 15.718469
0.81368643 0.62862062 2.2928979 14.592667
3.9531999 0.79394364 2.3814049 8.1009998
-0.62808818 1.1225559 2.1447141 20.483709
0.13991231 0.9496882 2.3131413 20.327751
1.0051936 1.0317934 2.3754597 17.995852
1.2630489 1.0617661 2.2962074 18.095592
9.0992384 2.1895981 2.1835563 10.10425
9.3473625 2.1276872 2.0608473 9.1044998
9.7114124 2.0829916 2.2507858 9.10425
3.9469047 3.1931632 2.0259366 22.097
4.5948582 3.1548996 2.259016 21.0975
7.7457566 3.055835 2.0923479 14.103333
9.056592 3.0390286 2.1697681 12.354375
3.8384118 3.2165701 2.2176845 23.096001
9.1760616 3.3198502 2.1849213 13.1045
7.7141371 3.6950598 2.0544446 16.1045
8.0379763 3.6985638 2.0956085 15.3545
-0.9358803 -0.055476367 2.4666898 2
-0.012147248 -0.031163048 2.4790978 1
0.13749437 -0.053744618 2.7206199 0
0.58939475 -0.083437644 2.6861641 1
-1.2109797 0.25070447 2.5471554 11.396333
-0.54261869 0.31821996 2.478143 11.07225
-0.23020022 0.14945312 2.6897585 5.4554996
0.25543371 0.25480756 2.5669527 6.4104719
0.5174194 0.21655233 2.648191 5.9373112
-1.2132671 0.57676506 2.4930148 20.262501
-0.42081141 0.78518438 2.5643904 23.07925
-0.20094912 0.6107676 2.6874151 17.191221
0.20591535 0.61343491 2.5427465 12.996589
0.49372244 0.64204985 2.6165206 12.576787
0.84263891 0.6691938 2.6240523 13.70531
2.7408452 0.72146481 2.4199772 9.099
-0.58352101 1.1066757 2.5255485 19.400833
-0.17139691 0.81051904 2.4651756 23.079
0.18139423 0.89654034 2.5752921 16.559999
0.52236611 0.95195371 2.6629033 17.752501
1.0022136 1.0740117 2.5588779 18.094084
1.2542257 1.1481857 2.4967184 19.09375
4.9021835 0.97667813 2.4749541 8.1014996
0.10465738 1.2248083 2.5284815 20.5765
9.0891037 2.2690213 2.7482572 10.103
9.2466125 2.2072804 2.4809489 9.7703333
3.4002275 3.1462777 2.6069822 23.093
7.8723402 3.1706026 2.6460094 14.103
9.1460466 2.9137881 2.7001758 12.0515
7.8835835 3.5030069 2.7135282 15.10125
8.1845293 3.5247543 2.6718211 15.1
9.0300503 3.5267191 2.6598458 14.102
9.5104952 3.3762505 2.622329 13.101
4.2920952 3.7283516 2.6527028 22.928917
4.4594479 3.7789755 2.4963121 22.8475
5.1133714 3.6368465 2.572464 21.097
5.6139078 3.6099589 2.7786994 19.097
6.1991496 3.6742754 2.5979617 18.433832
-0.68724477 -0.1548451 3.0443344 1
0.022295535 -0.13090181 3.1405888 1
0.52507144 -0.056273405 2.8780413 1
-0.19618487 0.51551187 2.9538231 14.076
0.29522619 0.62437928 2.9223065 12.045855
0.57989442 0.5702036 3.0380886 10.374887
1.0251342 0.59162503 3.0378807 10.07271
-0.16858107 0.95048022 2.8745089 21.576874
0.3194347 0.92630637 2.9081841 15.077
0.59942049 0.98467797 3.0347733 13.6122
1.0986257 0.93215287 3.0196269 14.585188
1.3771996 1.0809484 3.1160417 15.0865
1.0654726 1.2283983 3.0905948 18.588001
9.1588535 2.2346272 2.9789233 10.1025
8.9412136 2.5032887 2.9900942 11.1025
3.3738201 3.0858603 3.0211861 22.091248
6.1117163 3.5422378 2.9898877 18.097626
6.5247998 3.5713313 3.1989186 17.097
7.9923983 3.5343213 2.975348 15.10225
8.6527967 3.5340061 2.9250512 14.099751
9.1186762 3.4495394 3.0599723 14.1025
9.5372467 3.4168906 2.8465714 13.1005
4.2295141 3.7337685 2.9250271 23.031183
4.5864186 3.7107348 3.0257382 21.823473
5.0585966 3.6997867 2.8971958 21.098251
5.4058766 3.6636221 3.1099751 20.096001
6.249063 3.6393406 3.1253264 18.432083
6.462904 3.6278057 3.0133801 18.098
-0.89103711 -0.16359386 3.2522893 0.33333334
-0.65813816 -0.17523289 3.3538575 1
-0.38757688 -0.19564907 3.418962 0
0.00019463897 -0.076390423 3.507525 0
0.48522192 0.6155926 3.2065012 8.8278751
1.5077368 1.2617424 3.3241236 15.085
9.1261053 2.3258271 3.4164352 10.1015
8.9303398 2.6818151 3.3300166 11.55075
9.4965048 2.7270734 3.3134143 11.0995
3.2889431 3.0753167 3.3468418 21.534777
5.8303013 2.9383307 3.5351548 16.095501
7.8688354 2.8867784 3.5869927 13.1005
6.0138469 3.5370791 3.5125742 18.0965
6.5606928 3.5858116 3.4945652 17.096251
7.8892479 3.4987538 3.3485229 15.10125
9.0978498 3.3905857 3.2760227 13.102
9.419693 3.4476993 3.4047291 13.09925
3.4896114 3.6918583 3.556402 23.08975
3.7508774 3.7084811 3.462858 23.093779
4.13763 3.6692219 3.3406966 22.344313
4.4483156 3.6659005 3.275666 21.734055
4.9188647 3.6534612 3.3644264 20.764
5.4809623 3.6164401 3.3947408 19.428333
5.6098604 3.6239922 3.2293317 19.096001
6.2359295 3.6220503 3.4286509 18.09675
6.4891725 3.6438379 3.452764 17.09725
9.1560059 2.2864604 3.6492195 10.101
9.0561781 2.6816614 3.6592112 11.101
3.237433 3.0459695 3.6579387 20.838623
5.4577193 3.580801 3.8784683 18.539305
6.2057805 3.57864 3.7650242 17.095501
6.8838487 3.5953298 3.8664365 16.596251
7.9111366 3.5115821 3.6553497 15.1005
3.0861871 3.6920671 3.8682024 23.0875
3.3550293 3.7180741 3.8572648 23.088835
3.7462356 3.6386042 3.891933 22.760666
4.2424722 3.6484399 3.7853732 21.927082
4.5958924 3.6326511 3.7656398 20.827383
5.0170145 3.6294734 3.7149026 20.095375
5.4480019 3.641515 3.7852552 19.431416
6.2548175 3.6307926 3.8596408 17.095667
-1.2309844 -0.16325231 4.1686859 2
-1.2901205 0.23676352 4.1984653 6.8333335
-1.1397855 0.32183439 4.1014757 8.0331249
-1.3572937 0.48108715 4.2778878 9.7824249
-1.3357649 0.87409091 4.3370013 13.537777
-0.97057998 0.92692399 4.2406406 12.316375
-0.75977647 0.89169484 4.3417377 9.81775
2.9175541 2.9521394 4.3608136 22.0905
3.3103855 3.0794673 4.1228442 20.0875
9.087534 2.928905 4.0587263 11.766833
3.467133 3.5457156 4.1691303 22.090626
3.778832 3.5670702 4.1658573 23.09375
4.6815515 3.5828564 4.1644816 20.762417
5.4390879 3.5688179 4.2228594 18.092501
5.8674841 3.5577378 4.2123322 18.097126
6.0819154 3.5545511 4.2189665 17.219687
6.6341891 3.5707979 4.113493 16.594749
6.8810902 3.4525657 4.3824825 16.094999
8.0762358 3.474273 4.3252769 15.099
2.6093576 3.7029791 4.2848115 23.084499
3.1070364 3.6813345 4.2467709 22.419806
3.2717566 3.6934648 4.1628847 22.58725
3.6635213 3.6630042 4.3363757 21.087999
4.1436381 3.6181087 4.1523342 21.537554
5.0080519 3.6248803 4.1245127 19.594376
6.2149763 3.6026075 4.144805 17.0945
6.804781 3.6401305 4.3185935 16.0945
-0.95789719 -0.057812519 4.7604055 3.25
-0.61153603 -0.20506117 4.5453129 2.1666667
-0.15475 -0.15275735 4.5637417 1.8333334
0.13199678 -0.11956575 4.5896077 0.80000001
-1.0135206 0.23168644 4.6492095 6.5
-0.51660931 0.23306209 4.5693278 6.084722
-0.2025007 0.049615346 4.563859 4.7066669
0.099167764 0.16831063 4.5411596 5.75
-1.2144656 0.48887065 4.4094729 9.0657501
-0.95302325 0.57641 4.5797915 8.8386469
-0.63007516 0.61300462 4.5928354 8.8557386
-0.20936564 0.59138882 4.6461525 9.9888506
0.17591561 0.67857611 4.6881175 9.0328846
-0.85059232 0.96028948 4.6293406 12.56825
-0.65793431 0.95773053 4.623877 11.064964
-0.18336675 0.97899228 4.7375741 11.151784
7.69943e-05 0.82602775 4.7350087 9.0719995
-0.95331228 1.3617997 4.7631645 17
-0.62254465 1.327372 4.7298813 16.078007
-0.21940564 1.4778318 4.7650027 17.578499
-0.58916235 1.8352947 4.7013025 19.760908
-0.31168711 1.6186302 4.6917105 19
-0.23104282 2.0733016 4.7129555 18.404165
0.66016299 3.0934839 4.5371552 22.242416
2.7185357 2.950151 4.4682207 22.09025
2.8938222 2.9494736 4.5478597 22.08975
9.0803804 2.845994 4.4792547 12.09925
0.65517461 3.2434049 4.6895657 23.07625
3.1413519 3.5559621 4.621552 23.091
3.7588079 3.5400314 4.5621319 21.870361
4.1581626 3.5687237 4.5669274 21.759834
4.6161852 3.5557327 4.4880934 20.427834
5.3884163 3.5592554 4.4665017 18.091749
5.8173294 3.5207224 4.7641768 17.4265
6.1806822 3.4907694 4.5833254 16.928249
6.738565 3.5735745 4.5953922 16.09425
8.8987932 3.3930178 4.7929268 14.0985
2.5757291 3.725174 4.4718981 23.084
2.9586873 3.7050896 4.4691696 22.410389
3.4246643 3.6885593 4.5446997 22.004459
3.742481 3.7077169 4.4444933 21.087999
4.6036863 3.6573074 4.4691906 19.715187
5.3662777 3.6451488 4.573638 17.841625
5.8407097 3.6283097 4.4326668 17.592876
-1.1220492 -0.21902035 4.8542075 1
-0.638466 -0.17024282 4.9047318 1.25
-0.16321349 -0.10958717 4.8924599 2
0.15193635 -0.029662609 4.8705878 1
-0.54732203 0.27028808 4.8827343 4.333333
-0.18688597 0.18175332 4.9183774 3.7666667
0.13954814 0.21348099 4.9496236 2.8154762
-0.87822723 0.61688381 5.0875316 9.9029999
-0.56573105 0.65779376 4.9592481 7.904583
-0.093338728 0.5530498 4.9118361 6.3333335
0.19846791 0.64338696 4.9501696 6.7085752
0.42471567 0.71582699 4.9016814 8.0745001
-1.374867 1.0651644 5.0614457 13.0655
-0.9907909 0.97939086 4.8753567 13.068036
-0.61111569 0.9932512 4.989326 9.6307831
-0.19814362 1.0007536 4.9618611 9.3307085
0.16819496 1.033193 4.9644341 9.9109945
0.41968468 1.0738076 4.8429523 11.0745
-1.3737746 1.3802179 4.8841786 16.379452
-1.0617445 1.4713808 4.9217024 16.577682
-0.59689224 1.4611813 4.9766226 13.588438
-0.22217092 1.3953317 4.9484777 12.846018
0.15804668 1.4130583 5.0268087 13.444727
0.47019011 1.3076494 5.0652523 12.0745
-1.3464619 1.718315 5.0516791 18.680218
-0.94669622 1.8353349 4.964715 17.989273
-0.59217781 1.8146935 4.9279971 16.836117
-0.17033803 1.870146 4.9569292 16.123711
0.15010591 1.8234406 5.0383129 15.638299
0.56015646 1.9007716 5.0116434 15.491426
0.98278421 1.809445 5.0028729 14.155572
1.2377741 1.9010911 5.0881071 15.578501
-1.3947971 2.2123458 5.0258474 21.912304
-0.97691977 2.1781795 5.0189571 19.825123
-0.60230374 2.1383445 5.049736 16.304375
-0.27213639 2.1197381 5.0380206 16.410313
0.24506281 2.0101836 5.1152649 14.993389
0.51049149 2.1037438 5.0303602 16.574812
1.0839531 2.1278858 5.051959 15.768178
-1.2820889 2.4265068 5.1072578 23.066999
-0.91012889 2.6340339 5.0391698 20.966648
-0.72469461 2.506856 5.1254039 18.284061
1.0480224 2.4042625 5.1939459 16.577499
-0.89380765 3.0317893 5.0735536 23.06675
-0.70206463 2.9645662 5.1523933 20.426311
0.72128499 3.1050444 4.9108572 21.07575
2.6902065 3.0135732 5.1742997 21.168688
3.0890784 3.0227313 5.088048 20.452749
3.3710313 3.081136 5.0864711 20.253351
4.7425709 2.9318357 5.1908679 17.092251
4.9575586 2.9846292 5.1360893 16.759834
5.2345247 2.8044331 5.1674275 16.0935
9.0774126 2.9122391 4.819243 12.0985
-0.67911649 3.2470825 5.1519003 21
3.0420923 3.480556 5.1206255 22.589001
3.2275469 3.509959 5.1174278 22.0895
3.8853607 3.4872074 5.0998545 21.091082
4.1340685 3.4536638 5.093811 20.59156
4.5280643 3.5088825 4.9906721 20.092667
5.3028588 3.5494633 4.915863 17.0905
5.7602272 3.5092499 5.0200205 17.760164
6.0798731 3.4918933 4.9074707 16.59375
6.7171359 3.5300214 5.0547252 15.2595
6.929503 3.5370152 4.8282433 15.094
-0.16203308 3.7221267 5.1420717 23.071251
0.062722668 3.7402511 5.0477738 23.07225
1.0798206 3.6667972 4.9867249 23.077
1.3198307 3.7169058 5.0115857 23.078001
2.6883006 3.7060361 4.8423233 22.584499
3.0108621 3.6926191 4.9122071 22.419123
3.4237728 3.6428401 5.0669026 21.086748
3.6776831 3.6427493 5.0013862 20.0865
4.4479065 3.6332164 5.0604501 19.088499
5.1550961 3.6413441 5.1623893 18.09
-0.18634677 0.29827717 5.3922505 3
-0.29764754 0.72133672 5.3357973 7.302937
-0.45003596 0.89806908 5.3490219 8.0698328
-0.26751167 0.90596485 5.3549986 8.3206882
0.18140247 1.1859554 5.2541924 11.07275
-0.6657967 1.4257222 5.2347813 11.356167
-0.21593514 1.4146856 5.2243228 15.7865
0.21887374 1.4529656 5.274333 11.32325
-0.82017154 1.9046421 5.2629418 15
-0.70731759 1.880815 5.236876 15.4225
0.19735841 1.7406269 5.283875 13.739667
-0.88212156 2.3284187 5.278079 21.868601
-0.54680699 2.2524321 5.3286014 17.847002
-0.22315176 2.3371527 5.3693509 19.40806
0.14269461 2.2849488 5.3369241 17.803257
0.53946781 2.3272061 5.4477839 16.009899
1.0320158 2.3002217 5.3799195 16.2435
1.5082792 2.2646763 5.4382038 15.726212
1.792608 2.2637906 5.4383106 16.144047
2.2742524 2.3277957 5.4180527 17.027611
2.6212704 2.325196 5.4914589 16.250917
3.0026817 2.2744532 5.508656 14.959875
3.4527631 2.2935977 5.4637046 15.420709
3.6007154 2.2792113 5.5115056 14.58675
-1.0021243 2.4445229 5.3951769 22.468899
-0.57819009 2.6148703 5.3728528 18.95627
-0.2063655 2.6259298 5.4753714 19.078009
0.22300246 2.5708539 5.4535885 18.957104
0.57673043 2.5791984 5.4608946 17.795591
0.94426072 2.665674 5.504704 17.606882
1.4164772 2.7029276 5.4930992 18.356991
1.8904431 2.6222923 5.4158797 18.778019
2.2317212 2.6031611 5.3429527 19.32741
2.5487752 2.6322033 5.346755 18.826033
3.0367777 2.5313294 5.3841119 17.227448
3.4780085 2.5702989 5.3640203 16.962894
3.9074759 2.5340552 5.3321047 16.485291
4.2385592 2.5613832 5.343039 16.257
4.4969797 2.758321 5.2375326 16.091999
5.1831307 2.682735 5.2287092 15.093
-0.57265568 3.0467789 5.3505802 20.492332
-0.20728895 2.9655952 5.430635 20.293736
0.19968274 2.9904764 5.4491172 20.707109
0.57050014 2.9902205 5.4843621 20.029325
0.97071975 3.0311637 5.456677 20.061777
1.4097316 2.9831126 5.4752536 19.216486
1.8152839 3.0475972 5.36443 21.137138
2.1830473 3.0461257 5.3384852 21.165255
2.6296461 2.9644146 5.3882103 19.78129
3.014396 2.925451 5.3718977 19.201157
3.3710427 2.9729891 5.3666797 18.730606
3.8971529 3.0703266 5.343061 18.839001
4.2870951 2.825521 5.2428684 17.4245
4.6865268 3.1825092 5.3482132 18.091749
4.9995823 2.8661907 5.4496484 16.091999
-0.57699078 3.3250716 5.3060098 22.134523
-0.20940883 3.3518953 5.3847265 21.653267
0.18448663 3.3279438 5.3713403 21.474949
0.52901787 3.3573649 5.401288 20.878916
1.0421667 3.3048003 5.3780813 21.305037
1.4490336 3.4521236 5.3725629 22.052416
1.70858 3.3857157 5.3545475 21.428415
2.2280695 3.4986451 5.4693356 22.248709
2.5823848 3.3887763 5.3398285 22.203754
2.9140892 3.4327679 5.3302464 21.428782
3.7445662 3.439743 5.2117591 21.0905
4.2905483 3.4044623 5.4274354 20.09075
4.4872999 3.4384346 5.3970947 19.591249
5.057395 3.4354169 5.2988482 18.759333
5.8193393 3.4721036 5.2366624 16.09075
6.338232 3.5163417 5.3176932 16.091499
6.5771632 3.5529706 5.2717676 16.092501
6.827776 3.5473466 5.4930606 15.0925
-0.57582462 3.6797028 5.3200569 22.869549
-0.30697423 3.7016754 5.3420038 22.94581
0.24395338 3.675642 5.3115635 22.823313
0.46123153 3.7051139 5.3777552 22.574249
1.1099585 3.7258711 5.3056173 22.577126
1.2926584 3.8305175 5.3216829 22.945
1.7318007 3.7759521 5.3715959 23.080168
2.2529159 3.7031641 5.3775563 23.082375
2.5785942 3.7079384 5.3143501 23.08375
3.3573809 3.6514466 5.3276601 21.086418
5.6956663 3.6428587 5.2004046 17.091
6.2213035 3.692292 5.5685778 16.091249
-0.87792587 2.7593036 5.6107063 23.06875
0.058855474 3.0889764 5.6095629 20
2.7049165 3.0235987 5.6333065 19.0835
5.4289441 3.3337476 5.6526289 16.0895
5.7605991 3.4360816 5.668962 15.4235
6.2186365 3.4871962 5.6912723 15.091
6.4850597 3.5477512 5.6748524 15.0915
5.9100151 3.6189635 5.6297169 16.0905
