# .PCD v0.7 - Point Cloud Data file format
VERSION 0.7
FIELDS x y z intensity
SIZE 4 4 4 4
TYPE F F F F
COUNT 1 1 1 1
WIDTH 1245
HEIGHT 1
VIEWPOINT 0 0 0 1 0 0 0
POINTS 1245
DATA ascii
-0.50347424 0.33788577 1.3616878 10.05725
1.4159757 0.38901782 1.3982908 7
-1.4679338 0.46170077 1.3320985 10.696918
1.4616736 0.43573496 1.3401263 8.08325
1.52786 0.40432096 1.3621733 7.5
-1.4165012 0.55422366 1.3743862 14.043834
1.4158576 0.53588754 1.3438189 9.5412502
1.5308435 0.55458605 1.3766644 10
-1.4493718 0.62460738 1.3531355 14.653598
-1.3971462 0.64934713 1.323854 16.043501
1.3639308 0.68506151 1.3969928 12
1.4908948 0.6054064 1.3513834 11
1.5137098 0.62415582 1.3143144 11.0875
-1.5038544 0.70681942 1.3391235 15.04525
-1.4618719 0.76556998 1.3463287 16.345438
-1.4333959 0.83453673 1.3995967 18.044001
1.375365 0.83279026 1.3681855 13.79125
1.4822814 0.86760771 1.3853405 15.08675
-1.4428811 0.96880692 1.3444964 17.937593
1.3340387 0.93582571 1.3654463 15.79125
1.4746375 0.91216564 1.3121753 16.0875
-1.4672208 1.0377834 1.3458432 20.024
1.4781849 1.0194547 1.3746237 17.35
-1.4314533 1.1738065 1.3632733 22.032333
-1.3739904 1.1871686 1.3580387 21.5235
1.4530629 1.1112387 1.3466941 19.043751
-1.3759308 1.2886937 1.3791151 22.300501
1.3700792 1.2683445 1.3435405 20.584751
1.403586 1.2713425 1.3080773 21.08725
5.5889258 1.272658 1.3730323 10.1025
1.3446542 1.3407096 1.3743296 21.056252
-1.3820642 1.4332711 1.3540326 23.053749
5.6241655 1.6603593 1.3670361 12.1025
5.5873442 2.0082664 1.3737493 13.1025
4.1293292 2.231674 1.3023572 18.101
4.597353 2.280457 1.3448581 17.1015
5.0353346 2.2458997 1.3433584 16.101999
5.3593097 2.2670825 1.3459419 15
3.045577 2.3968062 1.3378099 23.098499
3.6720941 2.3951735 1.3374277 20.1
3.8512526 2.3317671 1.3065079 20.1005
3.1489685 2.4142904 1.3001711 23.099001
-1.4087473 0.023906203 1.4657129 3
-1.4874283 0.18948689 1.4168704 5.3809524
-0.97892278 0.10418554 1.40967 4.6666665
1.436247 0.19945732 1.4591467 4
-1.3269882 0.26910478 1.4224234 8.7116671
-0.55057985 0.28779685 1.4884294 8.0570002
-1.4511937 0.31808522 1.4532703 8.0465002
-1.4438909 0.40059188 1.4221359 9.3796663
1.3905078 0.47017428 1.4959637 8.0815001
1.5262662 0.40299529 1.4014523 7.5
-1.4253333 0.52748382 1.4313183 12.7955
1.3915278 0.55618715 1.4987205 9.5815001
-1.4428287 0.63142651 1.4418293 13.762428
-1.4308335 0.76279253 1.4496307 15.934944
-1.3683732 0.78887773 1.4677266 16.047501
-1.4256552 0.86145586 1.4464447 17.117855
-1.4366837 0.9568364 1.43608 18.898375
-1.3933829 0.97135949 1.4771271 18.08625
1.357915 0.91894722 1.4890627 15.0815
1.4736738 0.91449332 1.4104042 16.0865
5.3432813 0.97531003 1.4240937 8.1020002
-1.4135276 1.148526 1.4152133 21.690083
-1.3569853 1.1277409 1.4676676 19.774
1.3735298 1.1619594 1.4302534 18
-1.418725 1.2058617 1.4490969 23.04475
-1.3537643 1.2310005 1.4091481 22.5
1.3891746 1.2616806 1.4470747 21.085751
5.11169 1.2772377 1.4967463 10.1015
5.3524113 1.2106538 1.442096 9.1020002
-1.3553023 1.3259661 1.4714714 22.17005
1.3510741 1.344997 1.4121827 20
1.3486927 1.4184753 1.4690711 21.5835
5.4106321 1.650318 1.4428419 12.102
5.4888911 1.9269613 1.4225301 13
5.4310093 2.0948524 1.4567066 14.102
2.6630242 2.2631128 1.4558548 23.0965
4.1181064 2.2270842 1.4517732 18.10025
5.0582027 2.2742131 1.4714708 16.1015
5.3188438 2.2657149 1.4266244 15.102
2.8613133 2.3683133 1.4124184 23.0975
3.1349995 2.3577759 1.4626161 22.098
3.6627667 2.3762004 1.4268755 20.099501
3.8591301 2.3335228 1.4051881 19.1
-1.4168363 0.0032473654 1.5445015 2
-1.379998 0.10994449 1.5365521 4.7142859
1.4261177 0.12317504 1.5260526 3
4.5046692 0.13221948 1.5487401 3.5
-1.3133879 0.27712038 1.5121136 9.0459995
-0.65230948 0.27305731 1.5604326 8.0559998
4.4775677 0.20153587 1.5681976 4
4.4800153 0.34486002 1.5468384 5
-1.4268664 0.56503606 1.5292615 13.52275
-1.3836373 0.57202351 1.5570272 12
-1.4279965 0.65841389 1.5329931 14.046375
-1.3683522 0.67725998 1.5980501 13.5
1.5470573 0.62214041 1.5490741 11.085501
-1.4164858 0.75188947 1.5290604 15.546499
1.4418861 0.72121525 1.5574644 11.0815
-1.4231017 0.83726895 1.5416223 17.772875
-1.341679 0.85170174 1.5719962 16.524376
1.4267632 0.87019402 1.5307182 14.082749
-1.4276338 0.99306571 1.5414865 20.0455
-1.3368208 0.94684005 1.5655372 17.024376
1.454524 0.93810487 1.5502266 15.709291
-1.3190777 1.0581793 1.5426204 19.5245
1.3921914 1.0187736 1.5963293 15.081
1.4426327 1.0589083 1.5235395 17.585251
4.5425863 1.0001043 1.5479718 9.1005001
-1.4053882 1.1255275 1.5419343 22.04575
-1.3835455 1.1781433 1.561246 22.796124
1.3747509 1.1768087 1.5113961 18.081499
1.4227283 1.12128 1.5365183 18.084999
-1.3361621 1.2527549 1.5457442 21.595678
1.3804208 1.2899866 1.5283659 19.081499
1.4062786 1.285768 1.5941246 20.084499
4.3882051 1.2076179 1.5941422 11.1
4.575439 1.2207209 1.5639918 11.1005
-1.2954016 1.3353058 1.5839413 22.54925
1.3912227 1.4183369 1.5633891 22.084749
1.3618619 1.5358641 1.5761914 23.084499
4.9273615 1.6138016 1.55086 12.101
4.9312282 1.7113589 1.5604365 13.101
5.1844778 1.7785933 1.5049893 13.1015
3.9814513 2.2984982 1.5520432 19.099501
4.2746639 2.2467306 1.5605859 17.1
4.808351 2.2746406 1.5080422 16.101
5.2027478 2.2505116 1.5201719 15.1015
3.1430511 2.3594463 1.5592099 22.0975
3.6679451 2.3715978 1.523492 20.099001
-1.3440372 0.067296125 1.6805314 3.5
1.5520523 0.22905938 1.6826313 5
4.2568717 0.22940035 1.6963067 4.1666665
4.4029951 0.22665714 1.6180255 3.5
-1.3201149 0.34498173 1.6786082 10.0475
1.5253932 0.36738068 1.6417069 6.8000002
-1.3614984 0.51120824 1.6881576 12
-1.2972738 0.51076424 1.6995876 10
1.4376509 0.57576406 1.6279076 9.2905006
1.5132153 0.56402624 1.6324909 10.0845
-1.3294388 0.65683579 1.6538862 13.199333
1.4699279 0.62792778 1.6806722 10.262472
1.5054526 0.61215895 1.630343 11.0845
-1.3548957 0.70172995 1.6288871 14.04875
1.4448851 0.76032239 1.6117557 11.8605
-1.4206707 0.80745429 1.6524069 17.046499
-1.39089 0.86598271 1.6506467 18.046749
-1.2734622 0.82797921 1.6561915 16.049749
1.4448533 0.8615247 1.6437396 14.042
-1.3499012 0.90189004 1.6032022 16.056
-1.2815992 0.94553334 1.6575593 17.049749
1.4304079 0.92548227 1.646654 14.888165
4.4151578 0.90190578 1.6004227 9.1000004
-1.3798119 1.0151786 1.6345425 20.046749
-1.2787296 1.0761777 1.6884528 19.049999
1.4115478 1.0103894 1.6393385 17.084
-1.328922 1.1538895 1.6454471 20.960112
1.458376 1.1653489 1.6854339 18.084
-1.3610674 1.2268142 1.6889321 20.54925
-1.2813816 1.2859371 1.6637187 21.275
-1.3856276 1.3215711 1.6036023 22.0485
-1.2702519 1.3682274 1.6325359 22.234896
-1.2674495 1.4581008 1.6390059 22.528625
4.3054848 1.4678924 1.6378698 12.5
4.4083948 1.4801373 1.6067697 12.1
4.4143505 1.5370136 1.6067351 13.1
4.3532538 1.6954029 1.6273633 14
4.1563215 1.7869602 1.6822623 14.833333
4.2024493 1.8331552 1.6431986 15
4.1111875 1.9337338 1.6889135 16
4.7516742 1.9812185 1.605641 15.1005
2.6878204 2.294415 1.6407434 23.095501
3.9337485 2.2906382 1.6302611 19.099001
4.1049471 2.2180552 1.6519516 18.099251
4.2645664 2.2509274 1.6632141 17.099501
4.7693353 2.2497303 1.6134381 16.1005
3.6738272 2.372685 1.6224502 20.098499
3.3810976 0.077311441 1.7593405 3
-1.3292079 0.17775877 1.760844 4.9285712
-1.2303301 0.1700149 1.7990998 5.5
4.1725645 0.15673275 1.7420855 3.5
-1.3182625 0.26760358 1.7682278 8.3815002
3.4023108 0.23925027 1.7668247 4
-1.2943358 0.31031972 1.7529439 7
1.4873233 0.36546162 1.769284 6.5
4.1792293 0.31879929 1.7495329 5
-1.3472373 0.48625648 1.7330832 12.04775
-1.2573515 0.46644944 1.7921311 9.0579996
1.4895929 0.46743584 1.7754627 8.5
-1.3494092 0.54241395 1.7225511 12.0485
3.9815812 0.56280994 1.790743 7
-1.3635768 0.69059235 1.7167826 15.0475
-1.2729841 0.65941149 1.7658355 12.528749
1.48173 0.61089253 1.7258496 10.5
-1.3741047 0.73465371 1.7280469 16.047501
-1.2475907 0.74350709 1.7496672 14.052375
1.4524537 0.77391362 1.7514226 12.08025
4.042417 0.75425428 1.7980298 8
4.2179236 0.7563771 1.7460988 8.099
-1.306493 0.88127786 1.7670722 14.5
1.4373171 0.86429465 1.7070012 14.0835
4.0678697 0.83893931 1.797349 8.3825836
4.1612821 0.86795509 1.7763754 8.5
-1.3423364 0.93439025 1.7315133 17.631893
-1.2504494 0.98175442 1.7767216 16.675499
1.4289117 0.91302741 1.7026324 15.0835
4.2059474 0.90563494 1.747013 9.099
-1.30872 1.153241 1.7320417 21.77425
-1.2614987 1.110657 1.7568631 18.057751
1.4326485 1.1073539 1.7803636 17.083
-1.3405323 1.222854 1.758665 20
-1.2685686 1.2714869 1.7315128 21.553125
-1.2227764 1.3192592 1.771315 21.054626
4.1405625 1.3794919 1.7408006 12
-1.3204578 1.4551276 1.728331 23.049999
-1.2033358 1.4608822 1.7124565 23.051001
1.4031229 1.4499294 1.7195723 22.0835
1.3837752 1.5841964 1.7116182 23.0835
4.0530195 2.1384861 1.7231505 17.5
2.5181038 2.2847488 1.7646152 23.094
3.7823608 2.2308452 1.796028 18.5
3.1870174 2.3910499 1.7496759 22.0965
3.7276568 2.3553262 1.7116956 20
3.0199888 0.090380177 1.8495864 3
-1.1975498 0.29459506 1.8629707 7
3.0531015 0.27734783 1.8619671 5
3.3696012 0.21407996 1.8023516 4
-1.2840543 0.34587193 1.87791 9
-1.2461069 0.47932822 1.8678405 9.5
1.4189645 0.46739668 1.8070996 8.0795002
-1.3287176 0.57842505 1.8458784 12.909115
-1.2654368 0.55609125 1.8459444 10.73362
-1.3119197 0.68842834 1.8464797 14.549
-1.2366592 0.60558677 1.8226122 12.051
1.5557535 0.63543934 1.8723309 10.083
3.2208841 0.69731456 1.8689755 8.0959997
3.0367818 0.7656123 1.8852445 9
3.9242055 0.76162165 1.8264917 8.0979996
1.4702224 0.89290887 1.8712513 14.0825
3.0691359 0.87300843 1.8695381 10.0955
3.3521671 0.80494469 1.8387326 9.0965004
-1.2528504 0.97256345 1.8488359 18.050165
1.5006511 0.99087131 1.8439345 15.083
-1.2297057 1.0336627 1.8693377 18.972221
-1.1942461 1.0017525 1.8971345 17
-1.2234135 1.1850206 1.8330376 19.0585
-1.1943928 1.2616072 1.8470616 20.55175
3.7967055 1.2630523 1.8870813 12
4.0144172 1.251578 1.8153471 11
-1.1744961 1.302911 1.848936 21.052
3.7989998 1.4592201 1.8868909 13
3.8598623 1.4876658 1.8685758 13.25
3.8559453 1.8017086 1.8448249 15.545455
-1.2271074 0.13977847 1.9473255 4
-1.2579434 0.27607557 1.9483583 6
-0.55066252 0.27749193 1.956674 7
2.977875 0.20839708 1.9080638 4.4000001
-1.2625492 0.37931809 1.9490578 10.05
-1.163107 0.35855913 1.9998719 8.0524998
-1.2543776 0.47348547 1.9300244 11.05
-1.1931752 0.43286526 1.9431908 9.052
2.9319942 0.46185273 1.9471853 7
1.4994713 0.51398122 1.997798 8.5
1.513164 0.51671278 1.956573 9.0819998
2.9394436 0.56276178 1.9363666 7.5
-1.1977164 0.64978957 1.9400101 12.052
1.5253297 0.60730892 1.9333313 9.8571424
2.9222236 0.63699579 1.9203938 8
-1.2042973 0.73489875 1.977304 13
-1.1994693 0.75879931 1.9413383 13.552
1.5157439 0.73516721 1.9560503 11.554667
2.797507 0.703107 1.9942687 9
2.8720517 0.89252257 1.9462583 10.5
-1.1803104 0.94140083 1.9479662 15.666667
1.4894564 0.97093743 1.9652691 14.582
2.7703238 0.98537135 1.979194 11.5
-1.2212372 1.0838809 1.9175103 18.55475
-1.1687421 1.0462369 1.9475536 17.026249
2.800703 1.0790865 1.9530783 12
-1.1663126 1.1039467 1.9547629 18.0525
3.011714 1.1543877 1.9135538 13.095
-1.1453007 1.2415545 1.9726135 19.7195
1.4887314 1.2256588 1.9201863 18.0825
2.8362517 1.2130826 1.9716165 13.5
3.1304893 1.2575228 1.9033486 13.0955
-1.2337726 1.369289 1.9169443 23.050501
2.7243316 1.3899931 1.9776649 15
2.8218951 1.334227 1.9754144 14.5
3.0312963 1.3476396 1.9249153 14.095
2.745121 1.4681191 1.9677179 16
2.8399663 1.4126545 1.9336067 15.04725
3.039402 1.4790685 1.9401022 15.095
2.7174337 1.5799044 1.9867417 17.0935
2.8433793 1.5770651 1.9951168 16.094
2.9178817 1.5917895 1.9463438 16.0945
3.6787446 1.5730802 1.9291809 14
3.6667461 1.7363391 1.9256077 15.5
2.8175402 1.8200486 1.982986 18.094
3.4365344 1.8619784 1.9892514 17.096001
3.5666933 1.9367015 1.9811103 17
3.5223565 2.1393716 1.9701467 18
3.4424622 2.2410676 1.9878241 19.096001
3.5357473 2.2733459 1.938956 19
3.2826312 2.421062 1.9989091 21.095501
3.4295759 2.4207449 1.9306084 20.698668
-0.6937533 0.096745335 2.0236487 4
2.700017 0.0058089029 2.0790386 1
2.8101249 0.16720541 2.0144548 4
-1.219189 0.24132644 2.0134315 5.5
-1.2291031 0.32166642 2.0156507 8.5507498
-1.1414994 0.35406029 2.0733066 8.0530005
1.5414515 0.34499249 2.0356846 5.916667
-1.2191923 0.45620108 2.0290272 9.5
-1.1637323 0.44640443 2.0537181 9.7191467
-1.2170322 0.59027833 2.0446579 12.285714
2.8123379 0.57982409 2.0100641 7.6666665
1.5114648 0.66276294 2.0344868 10.0815
-1.1530235 0.74681973 2.0516489 13.5333
-1.1702293 0.88330126 2.0664172 15.556
-1.1600709 0.95728207 2.0477188 16.1224
-1.1584548 1.0683937 2.0346406 17.777166
-1.1611093 1.1443734 2.0708799 20.026001
-1.1141651 1.2515334 2.0541477 19.053499
2.663229 1.2886963 2.0086582 15
2.563242 1.3447393 2.0618925 15.142858
2.7437081 1.5321726 2.0177231 16.0935
2.5283678 1.6683236 2.023536 18.092501
2.3801196 1.702172 2.0952399 19.091499
2.44189 1.7252462 2.0552452 19.091999
2.3060458 1.8020451 2.0929463 20
2.4607701 1.8899378 2.0672505 20.091999
2.7233362 1.8953172 2.0000551 19.0935
2.6395326 1.9054322 2.0303178 19.093
3.010623 1.9461721 2.0183764 19.0945
2.4712186 2.0759239 2.0692985 21.091999
2.796232 2.0919721 2.0454879 20.0935
2.4430628 2.114023 2.0525589 22.091999
2.7950246 2.1276877 2.046906 21.0935
3.0813723 2.1553471 2.0527692 20.0945
3.1856728 2.1023638 2.0402985 19.094999
2.3696589 2.3301756 2.0724928 23.091499
2.4793079 2.3663075 2.0861931 23.091999
2.5430715 2.3290889 2.0419917 23.092501
2.7515328 2.3638601 2.0638413 22.09325
3.1015933 2.3298106 2.0767076 21.0945
3.1396377 2.4452221 2.0080535 22.094999
3.2206218 2.448657 2.0463049 21.094999
-0.96809185 0.080118358 2.1935151 3
2.5733087 0.18823466 2.154243 4
-1.1650631 0.24257857 2.1433737 7.2619042
-1.0516185 0.22425403 2.1627393 5.3076925
-0.99126786 0.22101824 2.1673872 5.5
-1.1393156 0.31664249 2.1280458 6.5
-1.1485046 0.44172356 2.153908 10.385667
-0.84480447 0.42576215 2.1710837 8.0635004
-1.1256034 0.54012358 2.1646991 10.609834
1.5802667 0.58764714 2.1867867 9.0810003
2.5986586 0.59777129 2.1365547 8.1538458
-1.1280854 0.65401584 2.1272907 12.401751
-1.1209717 0.72289878 2.1313887 13.184501
-1.1673031 0.82891041 2.1535969 15.5
-1.093837 0.80046278 2.1165009 14.05375
-1.1499863 0.93325853 2.1797092 16.833332
1.4958045 0.935592 2.1202717 14.081
2.5453215 0.96534145 2.1310368 11.615385
-1.1864649 1.0493468 2.1183522 18.701334
-1.1025306 1.1908785 2.1793957 20.333334
2.3402665 1.5147343 2.1304405 17.5
2.3199768 1.6743695 2.1081555 19
2.4016638 1.6122273 2.1031237 18.091499
2.1255574 1.7679257 2.1953535 19.444445
-1.3087547 1.8575587 2.1566463 23.0595
2.3262408 1.8161649 2.1252377 20.091
1.6022131 1.9301522 2.1240091 21.5795
2.0831552 1.9555391 2.1498642 21.5
2.1417906 1.9240574 2.1368849 21.09
2.2178781 1.9630044 2.1272666 21.0905
2.2031627 2.0782962 2.1119137 22.0905
1.9549224 2.1211822 2.1920516 23
2.0432446 2.2040391 2.1388535 23.0895
2.1546681 2.2596226 2.1514189 23.09
2.4134934 2.2344072 2.1216624 22.091499
2.2324629 2.3005919 2.1318171 23.0905
-0.55919856 0.031355638 2.2745144 3
1.8228565 0.085671194 2.2345161 3.5
2.1170824 0.024883309 2.2712293 2
2.3365064 0.011482108 2.2423577 1
-1.1627089 0.18798164 2.2571709 5
-0.97580647 0.10633658 2.2237139 4
2.2108335 0.16068175 2.2669401 3.8
1.9121268 0.20140225 2.2638164 4.5
-1.1019803 0.30789056 2.2072716 8.0530005
1.8665998 0.32111496 2.2705576 5.5
-1.1231402 0.41201925 2.2244606 8.05375
-1.0989352 0.48547101 2.2605526 9
-1.0924711 0.5284391 2.2680178 11.0535
2.1289268 0.50761974 2.2958677 7.5
-1.1086608 0.63060403 2.220839 11
2.2139552 0.61667037 2.2962914 8.5555553
-1.0599066 1.0845393 2.2872953 18.5
2.2192619 1.033654 2.2879105 12.6
-1.0941752 1.2007685 2.2207754 20.5
2.2200093 1.3811131 2.2397876 16
-1.3837682 1.7489102 2.2077992 23.052
2.0206051 1.8478301 2.2366624 20
-1.2999245 1.9311606 2.2578368 23.059999
1.6148696 1.9473909 2.2274868 21.579
1.5874566 2.0341763 2.2974517 22.078501
1.7558732 2.0726135 2.289957 22.5
1.8043 2.0680583 2.2670553 22.6
1.6860679 2.1005805 2.2993126 23.0865
-1.0327412 0.29833579 2.3939884 8.0544996
2.1499968 0.25298914 2.3091054 5
-1.0709479 0.37736467 2.3873701 8.7208328
-1.1125311 0.40755171 2.3278286 9.0535002
-1.0922551 0.49789247 2.3334312 9.0620003
1.6836071 0.54813844 2.3013985 9.0865002
1.7129346 0.55905914 2.3103466 9
-1.1239686 0.66625804 2.3189125 13
1.6212193 0.6459018 2.3212156 10.086
1.7222909 0.66531646 2.324158 10
1.8466768 0.65987492 2.3274808 9.5714283
1.6975968 0.72047609 2.3134799 10.0865
1.7601185 0.74184787 2.3521025 10.58675
1.8683507 0.76146269 2.3547997 10.877001
-1.0379586 0.86615694 2.3889289 15.25
1.6678137 0.81708997 2.3845594 11.086
1.7440202 0.83960414 2.3799961 12.0865
1.8638618 0.88133883 2.3735018 12.043625
-1.0512134 0.95244998 2.3713815 16.054501
-1.0593734 1.0490688 2.3423955 17.415688
1.9381745 1.0290663 2.3812072 13
-1.0448585 1.1704651 2.3394234 19.304501
-1.2609782 1.2496439 2.3163986 18.053249
-1.0540894 1.2407929 2.3543427 20.054501
-1.0598552 1.3053298 2.3014362 21.054251
1.8744819 1.4354724 2.3810556 17
1.6603839 1.7513387 2.3719091 20.080999
-1.2813456 1.8910278 2.3257399 23.060499
1.6032864 1.885114 2.3118505 20.078501
1.8451743 1.835153 2.3200631 20.75
1.5906945 1.9733498 2.3062453 21.078501
1.575196 2.0464511 2.3809776 23
1.6449277 2.0353003 2.3518398 23.086
-0.0020948385 0.021545418 2.47598 3
-1.0520951 0.22439314 2.4306269 6.5
-1.0255959 0.38245246 2.4599545 8.5366669
-1.0286181 0.55640918 2.4485276 10.768417
-1.0623162 0.68682349 2.4223597 13
-0.99733698 0.72154999 2.4572811 13.05525
-1.0278836 0.8156172 2.4470894 14.055
-0.85072327 0.82397276 2.4497619 13.057
-1.048654 0.9797526 2.4779346 16.055
1.6812733 0.99926943 2.4259012 13
1.6480861 1.1392872 2.457788 14.03875
1.7733927 1.1148 2.4867835 13.875
-1.210968 1.2384704 2.4176989 17.054001
1.6837875 1.3086356 2.4577079 16
1.6541635 1.4132642 2.4742475 17.085501
1.6662474 1.5536466 2.4931035 17.581749
1.7075173 1.5427487 2.441083 18.042999
1.7579529 1.6657184 2.4209328 19.333334
1.6427414 1.7509073 2.4531913 20.085501
1.707261 1.7735001 2.405659 20
1.5949285 1.834538 2.4099371 20.077999
1.6162932 1.8158292 2.479682 21
1.587883 1.9979653 2.4073291 22
1.6444457 1.9646944 2.4602265 22.0805
-1.2262911 2.0197899 2.4883399 23.061501
1.5829543 2.0571728 2.4105706 22.077999
-0.96587026 0.41569278 2.5509443 9.0557499
-1.1336597 0.64072067 2.5670688 10.0625
-0.95025861 0.62795603 2.5675111 12.056
-0.94862807 0.72551769 2.5476539 13.056
1.7054557 1.2873893 2.5493293 14
-1.261461 1.38407 2.5088754 18.054001
1.6823999 1.3397886 2.5330718 16.085501
1.7017728 1.3249016 2.5768595 14.5
1.7401047 1.4163964 2.5063369 16.727272
1.6380069 1.6585064 2.5371766 17.5
-1.2072457 1.8717077 2.5777662 22.062
1.6870027 1.8424765 2.5527992 20.58025
1.6591765 1.9636194 2.5799007 21.58
-1.1824437 2.0608985 2.5436339 23.062
-0.91377985 0.44119573 2.6254327 9.0565004
1.7511451 0.77495956 2.6584744 9.0775003
-1.1660913 0.85253441 2.691803 12
1.7437873 0.90963411 2.6620216 10.5775
1.7371153 1.1740901 2.634361 13
-1.187263 1.2129699 2.6581101 16.055
1.6792763 1.2176352 2.6724081 15
1.7052925 1.2312567 2.6059163 13.5
1.7791123 1.3789078 2.6782434 16.08
-1.1997718 1.4777993 2.6784344 18.055
1.6444769 1.4580402 2.6295042 16.025667
-1.2181576 1.5957586 2.6066241 19.062
-1.2078311 1.6158559 2.6855967 20.055
-1.1776079 1.9376655 2.6675117 22.0625
1.6272978 2.0116162 2.6762569 21.693167
-1.1520571 2.1203899 2.6186407 23.0625
1.5697523 2.3972154 2.637573 23.077
1.7829709 0.39750028 2.7630925 5.5
1.7619041 0.64998591 2.7814398 7.5
1.7466074 0.79221487 2.7640445 9
-1.1618088 0.85353488 2.7105284 12
-1.1396936 0.95040029 2.7581868 13.0555
1.7270842 1.0169494 2.7728941 11.333333
1.6803987 1.1404989 2.7177429 13
-1.1977139 1.2384481 2.7179217 15
-1.1686893 1.3445786 2.740478 16.25
1.674095 1.3283765 2.7211344 14.077
1.7854757 1.3999633 2.7983274 16.0795
-1.1510422 1.4264253 2.7766988 17.063
1.7254562 1.478173 2.7322369 17.0795
1.6588906 1.8198506 2.7215109 19.693083
-1.1275136 1.9727966 2.7160947 22.063
-1.0783033 2.0323691 2.7647276 22.063499
1.6238261 2.0332651 2.7569206 21.079
1.4560013 2.2869391 2.7313972 23.08325
1.5680276 2.2910557 2.7194648 23.084
1.0186932 2.3129566 2.7653134 23.073
1.2558129 2.3799486 2.7870569 23.074499
1.4190173 2.3878651 2.7987928 23.0755
-0.31523797 0.24941614 2.883779 5
1.7712482 0.27864125 2.8500574 4
-0.9468925 0.70947224 2.8585625 12.057
1.8559735 0.70187104 2.8312428 9.0795002
-1.1168784 0.98866379 2.8618617 13.056
-1.0346192 0.91797137 2.8565264 12.0565
1.7423106 0.94581795 2.8152943 10.666667
-1.1592114 1.0122584 2.8035202 13.063
-1.1527946 1.350529 2.8492188 16
-1.1271899 1.4482177 2.8299046 17.028
1.7624438 1.4047744 2.8845809 15.079
-1.1346548 1.5551164 2.8607111 18.556
1.7092667 1.531112 2.8127882 17.079
-1.1201351 1.7353029 2.846118 19.80975
1.6822027 1.7116911 2.8025863 18.079
-1.0266956 2.0589411 2.821753 22.063999
1.0529695 2.2964928 2.8956947 23.08
0.94240612 2.3099737 2.8258424 23.07225
-1.0959655 0.243293 2.9026916 5
1.7451847 0.25181544 2.9189582 3.5
-1.113694 0.58456862 2.9155552 9.0559998
-1.1346334 0.63438773 2.9173114 9.0635004
1.8355303 0.74387813 2.9860759 9.0393753
-1.136739 0.84395295 2.9211526 11.0635
1.7106804 0.8856023 2.9559584 11.084
-1.1324725 1.059021 2.921473 13.0635
1.6885866 1.0971158 2.9276321 13.084
1.7670188 1.0477054 2.9889593 12.039249
-1.0995705 1.1155844 2.9789736 13.5
1.7725272 1.1307977 2.9238853 13.078751
-1.1460799 1.2003825 2.923141 15.056
1.7706441 1.2630825 2.9869709 14.0785
1.8011193 1.2600232 2.9231369 14.079
-1.0920196 1.4664645 2.9803112 19.056499
1.7577646 1.4218843 2.9843702 15.0785
-1.1011635 1.5436605 2.9798343 18.056499
1.6863031 1.5971397 2.906112 17.078501
-1.0568087 1.7966477 2.913409 20.063999
1.458383 2.29529 2.9646015 22.0825
-0.94606286 2.3085365 2.9766085 23.065001
1.2290759 2.3295391 2.9758725 23.080999
1.4047126 2.3374698 2.9858518 23.07675
1.6798522 2.3183322 2.9232092 22.084
1.8883178 0.38571006 3.0098536 5
1.8760517 0.58451813 3.0001652 7.5
-1.1170965 0.6549527 3.0611022 9.0640001
-1.103869 0.77253467 3.0182362 10.064
1.849442 0.70518017 3.0474851 8.0784998
1.79968 0.80362737 3.0672016 9.5
-1.0818471 0.95033431 3.0571265 11.5
-1.0445071 1.0553526 3.0961001 12.5
1.7387335 1.1931117 3.0521221 13
-1.1075222 1.2647789 3.0284381 15.0565
-1.0949128 1.2765901 3.0551901 15
-1.1031711 1.3622898 3.0055895 16.056499
-1.0440419 1.3722625 3.0584273 15.79773
1.6790742 1.4118465 3.0034375 14.076
-1.0668497 1.5550969 3.0335793 18.778374
-1.0515701 1.6597565 3.0091686 19
-1.0592699 1.746931 3.0820837 21.2785
-0.95930815 2.0614707 3.0473866 21.065001
-0.92704028 2.2544718 3.0146523 23.058001
-0.75228089 2.2830479 3.0839462 23.0665
-0.64708954 2.2886291 3.0735357 23.067249
-0.43935862 2.2759886 3.0335159 23.06875
0.40198249 2.2864418 3.0609934 23.075001
-0.46726722 2.3041134 3.0899613 23.061501
0.24017903 2.3157463 3.0539742 23.06675
0.69705039 2.3179133 3.0458326 23.07
1.3023853 2.3079221 3.0253682 23.076
1.6374704 2.3164048 3.0020025 22.0835
1.5385406 2.4138081 3.0349038 23.077499
1.9026659 0.22165902 3.1002738 4
1.8390694 0.31526539 3.1976707 4.7142859
1.8392978 0.4036203 3.1096833 5.3333335
-1.0630323 0.67661953 3.1437161 9.0190001
1.8265266 0.66492051 3.1265562 8
-1.0068114 0.82356632 3.1810648 10.065
1.7657912 1.0575738 3.1057475 12
-1.0020545 1.1122358 3.1803246 13.0575
1.7332944 1.1602038 3.1091046 13
-0.90608317 1.2770308 3.1773689 15
1.7318428 1.2489363 3.100682 14
-1.0222579 1.339413 3.1393025 15.038166
-1.0306895 1.4330704 3.1519015 17.028751
-0.98405975 1.4293612 3.1423295 16.185835
-1.0065019 1.5386723 3.1687386 17.057501
-0.91989738 1.6134831 3.139873 17.0655
-1.0537958 1.7337416 3.134799 20.375
-0.93205833 1.9698706 3.1850224 21.032749
-0.83677679 1.9831486 3.1107311 20.566
-0.95027703 2.0726388 3.143425 23.019501
-0.84865165 2.0317144 3.1866953 23.059
1.7415692 2.1785722 3.1672401 19.076
-0.82736117 2.2782733 3.1666646 23.059
0.0079583973 2.2959795 3.1590998 23.065001
0.13767375 2.2796853 3.1406095 23.073
0.20082654 2.2772765 3.108238 23.0735
0.56971902 2.2947357 3.1318533 22.069
-1.1000897 2.3822343 3.1256623 23.056999
-0.84603697 2.3024948 3.1212928 23.066
-0.63961703 2.3352599 3.1256609 23.060249
-0.39990276 2.3163049 3.1078382 23.062
0.076959595 2.3141029 3.1491184 23.0655
0.48111966 2.3036451 3.1253605 23.0755
1.0143832 2.3067005 3.1928053 23.0735
1.2189021 2.3221116 3.1543672 23.075001
1.6231843 2.3671424 3.13708 22.083
1.7850032 0.32873932 3.256875 5
1.7927104 0.59070283 3.2394528 7.5
-1.0126048 0.65458906 3.250695 8.5612497
-0.99500084 0.9654144 3.2077756 12.0575
1.7546443 1.1057041 3.2114918 12.0775
-0.96841222 1.2890235 3.2134733 15
-0.89554739 1.2522434 3.2614384 14.25
1.8276652 1.2030363 3.2414539 12.076
-0.9451527 1.3061616 3.2489703 15.058
-0.94287622 1.4349085 3.2314482 16.058001
1.8474413 1.4181895 3.2148147 14.084
-1.0137793 1.5040808 3.2846003 18
-1.0373948 1.6207496 3.2444201 19.028751
-0.88639486 1.6154727 3.2720251 17.066
-0.96016037 1.7430035 3.2991743 19.875
-0.92829251 1.8156551 3.2944348 20.5
-0.8547411 1.8506581 3.2387867 21.059
-0.95198584 1.9489832 3.2004526 22
-0.79662228 2.0240755 3.2336776 23.0595
-0.002579313 2.2841244 3.212436 23.072001
0.7513746 2.2789044 3.250612 23.071501
1.1077949 2.2741888 3.2167084 23.073999
-0.76985711 2.3064268 3.2798018 22.5595
-0.12592693 2.3056252 3.2470031 23.063999
-0.060694769 2.3032355 3.2046185 23.064501
0.82403159 2.3161235 3.2596691 23.072001
0.95623398 2.314297 3.2339873 23.073
1.0775781 2.39448 3.2752945 22.072001
1.1776427 2.3133192 3.205858 23.074499
1.6112648 2.3495212 3.2686298 21.0825
-0.90029222 0.19813499 3.3969631 4
-0.9436174 0.26537016 3.364398 4.833333
-0.87909442 0.28924567 3.3995712 5.5
1.8097862 0.35169822 3.3269303 5
-0.90387177 0.57455641 3.385443 7.6666665
-0.89817709 0.57938498 3.3852754 8
-0.92822081 0.66094726 3.3541188 8.5
-0.89792871 0.891635 3.3609357 12.0585
-0.8882392 0.94449419 3.3000278 11
1.8918644 0.94034797 3.3209293 9.0760002
-0.94190961 1.0058986 3.3204174 12.305333
-0.88395709 1.0713549 3.3184199 12.5
1.857625 1.0316463 3.3516598 10.07575
-0.97594965 1.1326677 3.3213727 15.058
-0.88349837 1.1250507 3.3569026 13.0585
-1.0530745 1.2813642 3.3056386 16.057501
-0.94977725 1.3281717 3.3985178 16.142857
-0.93559861 1.4201488 3.3904471 17.0585
-0.89244467 1.4994016 3.3205023 16.066
-0.91950488 1.517203 3.3095648 18.0585
-0.91413498 1.7301809 3.3992856 19
-0.75471711 1.8697077 3.3968916 21.059999
-0.35872576 2.2229621 3.3963337 23.063
-0.26034015 2.2932947 3.3038554 22.063
0.43683115 2.2554622 3.3472841 23.069
0.57981443 2.2748826 3.3627915 23.07
0.66536665 2.2747579 3.3022354 23.070749
1.1093823 2.2883439 3.3103068 22.07375
-0.147158 2.3382988 3.3647213 22.070999
0.38785285 2.3266916 3.341645 22.067499
1.5610727 2.3561985 3.3533618 21.082001
1.2815132 2.4194257 3.363776 21.073
-1.4347697 2.5508652 3.3943796 23.0555
-0.90676016 0.11201258 3.4200706 4
-0.84859365 0.22298968 3.4658408 4.7777777
-0.79380554 0.27087155 3.4901023 5
-0.88140911 0.46184739 3.4176974 6.5
-0.86025929 0.7450496 3.463151 9.7795
-0.8603549 0.83290958 3.4088602 10
-0.92995065 1.0579593 3.4180079 13.25
-0.94847536 1.1757541 3.4421141 14.686168
-0.90564752 1.3888139 3.4645801 16.5
-0.88947141 1.4594307 3.4703438 17.059
-0.84713429 1.5196744 3.4466481 16.059
-0.86193264 1.6096685 3.4741268 18.05925
-0.85275394 1.7489889 3.4162526 20.05925
-0.57621133 2.215579 3.4494479 23.061501
-0.15900466 2.2335274 3.4842393 23.064501
0.14749557 2.2511201 3.4574409 23.06675
0.31035575 2.2928994 3.4100697 23.068001
0.51302826 2.2913165 3.4311602 23.0695
-0.68684381 2.3899989 3.4704556 22.067499
-0.4343915 2.3152876 3.4486709 22.0655
0.97470391 2.3094118 3.4681759 22.0725
1.0406929 2.3034611 3.4322696 22.073
1.1659327 2.3430023 3.4220872 21.0795
1.5127852 2.3657179 3.4486096 21.081499
1.4527857 2.4358902 3.4288173 20.57375
1.721558 2.4288788 3.4937217 20.075001
-0.78360897 0.12040769 3.5271528 3.5
-0.81147546 0.56920999 3.5127604 8.059
-0.86572456 0.63720077 3.5704794 9.059
1.8397013 0.69020784 3.5512748 8.0830002
-0.80343246 0.93486524 3.5552886 12.0595
1.8453896 0.97730243 3.541609 10.5
1.8658221 1.0161946 3.5416446 11
-0.85403466 1.1614575 3.5482123 14.30925
-0.77143425 1.1173329 3.5910902 12.0595
-0.81592095 1.2837919 3.5351441 15.0595
1.8528824 1.26004 3.5433116 12
-0.22640118 2.2192471 3.5591969 23.063999
-0.085384279 2.2176616 3.5549138 23.065001
0.010158211 2.2371767 3.5233324 23.06575
0.2573345 2.2475889 3.5458257 22.567499
-0.61550617 2.3610754 3.5173721 22.068001
-0.55139118 2.370014 3.5977943 21.068501
-0.0027737331 2.3513339 3.5079772 22.072001
0.63500929 2.353641 3.5880516 21.573
0.93372989 2.3408024 3.5823669 22.072001
1.1188579 2.3830681 3.5378098 21.079
1.383769 2.3662577 3.559783 21.0805
1.4490204 2.3554385 3.5142593 21.080999
1.8423431 2.3946309 3.5113132 19.0755
1.5036805 2.4352405 3.5489519 22.0755
1.6036303 2.4463894 3.5764453 21.076
-0.86891377 0.47492731 3.6243484 8.059
-0.75808036 0.68296361 3.688735 10
1.8801681 0.78230304 3.6159885 9
-0.81004119 0.82555944 3.6113436 11.0595
-0.90179491 0.9409371 3.6423631 12.059
-0.74544758 0.94442099 3.6675503 11.262055
-0.76795733 1.2284107 3.6626873 14.06
-0.94412404 2.0250645 3.6506042 19.05875
-0.52853382 2.2496316 3.697968 22.062
-0.22957733 2.2326229 3.6752994 22.063999
-0.15564612 2.2297871 3.619575 22.064501
1.8980886 2.2906995 3.6464958 19.083
-0.73883033 2.3561885 3.659039 21.063749
-0.59084922 2.3914039 3.6172061 22.061001
-0.40168643 2.3894358 3.6110964 22.0695
0.078164831 2.3889492 3.6440346 21.5725
0.40724817 2.3946953 3.6403556 23.068501
0.8933903 2.3357682 3.6867368 22.071501
1.0519868 2.3678422 3.6060424 21.078501
1.3172461 2.3763232 3.6312439 20.58
1.4094666 2.3732827 3.6127772 20.0805
1.8085423 2.3501618 3.642242 19.075001
0.72766519 2.4121597 3.6860914 21.0765
1.8181106 2.4235899 3.6045167 21.077
-0.81896377 0.47436944 3.7011676 8.0594997
-0.74074662 0.55632412 3.711875 8.0600004
-0.82482398 0.67062789 3.7015693 9.0594997
-0.74504042 0.687608 3.7061129 10
-0.74849546 0.86448693 3.7108762 11
-0.75976813 0.99462694 3.7010098 12
-0.31724229 2.2389123 3.736742 22.063499
1.7534962 2.2990785 3.7521119 19.082001
-0.8273626 2.3719401 3.7181523 21.066999
-0.4371323 2.3819513 3.7633433 21.062
0.14239278 2.3445797 3.7982457 22.0665
1.1839588 2.3615713 3.773031 20.079
1.2566482 2.3701286 3.7136414 20.0795
1.5348397 2.3746741 3.7149982 20.080999
1.6758049 2.3412011 3.7611084 19.073999
1.728709 2.3784833 3.7407908 19.575249
1.82891 2.3090823 3.7111809 19.0825
-0.32998398 2.4023318 3.7205913 21.07
1.7781172 2.4258115 3.7039928 20.0765
-0.83662742 1.6950388 3.856987 16.0595
1.9111332 2.0687952 3.8033464 16.075001
-0.78829575 2.2810037 3.8682282 22.060499
-0.47158912 2.2750206 3.8776274 22.0625
-0.39061823 2.2708511 3.8145108 22.063
-0.047931522 2.2688391 3.8422794 21.56525
1.5538312 2.2878258 3.8741233 19.08075
1.6668476 2.2914262 3.8008482 19.081499
-0.42215723 2.3952129 3.8243167 21.0695
-0.34313217 2.3861716 3.8984582 20.07
-0.27066475 2.3658047 3.8913128 20.063
-0.18461043 2.3625622 3.8305123 21.067249
0.7664721 2.3588665 3.8124332 21.570499
0.83309668 2.3599644 3.8062422 20.077
1.0423983 2.3503439 3.8750091 20.077999
1.1187218 2.351299 3.8183103 20.078501
1.3114797 2.3551531 3.8607333 19.072001
1.4766568 2.3206367 3.88855 18.07275
1.5482669 2.3385453 3.8209629 19.07325
1.0234145 2.4038107 3.8539047 21.072001
1.6687191 2.4145586 3.8641043 20.0755
1.9695603 1.7309009 3.9805477 14
-0.86908793 2.0790868 3.9671309 20.059999
1.948359 2.1750269 3.936151 18.0825
-0.64020169 2.2857702 3.9948776 21.061501
-0.15546635 2.2526546 3.9053981 21.064501
1.3458282 2.2758217 3.9849706 19.0795
1.4385509 2.2662497 3.9667008 18.58
1.6500429 2.2502325 3.9893134 18.080999
2.1425567 2.2494969 3.9107902 18.0835
-1.2417593 2.396178 3.9423888 20.057501
-0.80199504 2.3716052 3.992429 20.067499
-0.44577092 2.3484805 3.9735608 20.062
-0.35701805 2.3628445 3.9464273 20.0625
-0.26598465 2.3686213 3.9507935 20.070499
-0.091232076 2.383795 3.9498155 20.071501
0.42136803 2.380754 3.91608 20.074499
0.51999706 2.3760588 3.9955347 20.075001
0.70981431 2.3829637 3.9573352 21.07
0.97036177 2.329391 3.9488666 19.577499
1.0543137 2.3427203 3.9558001 19.077999
1.1551852 2.3221231 3.9502592 19.070999
1.2395017 2.3472474 3.9127398 19.071501
1.387058 2.3196306 3.9201849 18.57225
1.5383291 2.3779659 3.9801681 20.074499
1.9019125 2.3406878 3.9293988 19.0765
1.2246506 2.4081967 3.9303796 21.073
1.3414969 2.4189246 3.9885252 20.0735
1.6096004 2.4051483 3.9414542 20.075001
1.9976894 1.1837379 4.0966382 10.0745
1.9892929 1.5525397 4.0318589 12.625
1.9802492 1.7380476 4.048295 14.25
1.9815879 1.8929189 4.0416474 15
1.8892094 2.1873128 4.0417109 17.082001
-0.73234379 2.2679942 4.0061083 21.061001
-0.32696584 2.2970963 4.0183039 21.063499
0.90411371 2.298418 4.0875411 18.0695
1.1592255 2.2694669 4.0606408 18.406668
1.273644 2.2664099 4.021781 18.325251
1.3661643 2.2377124 4.0262232 18.0795
1.9118278 2.2457089 4.0614123 17.578251
2.0828097 2.258074 4.0122862 18.083
-0.72522992 2.3414173 4.0788531 19.314251
-0.63662118 2.3324163 4.046278 20.061001
-0.23943356 2.3156965 4.0637555 21.063999
-0.18256855 2.3643827 4.0479465 20.070999
-0.0031292588 2.3828871 4.0484185 20.072001
0.094464026 2.3526249 4.0885229 20
0.44560561 2.3328066 4.0739908 19.074499
0.53645158 2.3502536 4.079988 21.06875
0.62214518 2.3340373 4.0494394 19.5755
0.71580648 2.3297315 4.0752106 19.076
0.9896552 2.3058386 4.0449095 19.07
1.0756214 2.3164124 4.0064321 19.070499
1.4694654 2.3699872 4.0587993 19.573999
1.6584282 2.3774426 4.0411153 19.075001
1.7672421 2.3572366 4.0333505 19.0755
1.8739002 2.3373067 4.045083 19.076
0.66092563 2.410872 4.0703397 21.0695
1.8495694 1.6799875 4.1906404 14.0815
1.7357521 1.7459606 4.176496 15.081
1.9336174 1.7356817 4.141078 14.082
2.1721563 2.0043344 4.1604629 16.083
2.1703796 2.1945033 4.1558728 17.083
-0.5736469 2.2797542 4.1408677 21.062
-0.48608699 2.2905366 4.1049619 21.0625
0.17664114 2.2923512 4.1869736 19.073
0.64635253 2.2614532 4.1990266 18.068001
0.73627704 2.2756522 4.1663795 18.068501
0.82173383 2.2914178 4.1090341 18.57275
0.92438382 2.2627151 4.1753335 18.577
1.0216143 2.2608697 4.154778 18.07375
1.1040931 2.2557054 4.1172595 18.077999
-0.67745692 2.3564718 4.1548491 19
-0.41156939 2.3097808 4.1778803 21.063
-0.01190193 2.3599534 4.1159048 19.564501
0.091694281 2.3362095 4.1719828 19.065001
0.26857114 2.3151901 4.1630321 19.0735
0.36445934 2.3195558 4.11797 19.073999
0.41951385 2.3365412 4.123498 21.068001
0.52663159 2.3263597 4.1201515 19.571751
1.3287942 2.3393176 4.1698399 19.073
1.4055362 2.3600905 4.1207142 19.0735
1.6345046 2.3130684 4.1953387 18.074499
1.5672646 1.6763406 4.2931604 14.08
1.652274 1.6482567 4.2716408 14.0805
1.7558722 1.679656 4.2297392 14.081
-0.72132534 1.8241246 4.2700577 15.5
-0.47272709 1.8084724 4.2667842 16.0695
-0.38358992 1.8500508 4.2553058 16.07
-0.69398147 2.1554613 4.2784367 17.5
1.7410016 2.1832662 4.2056112 17.080999
-0.67878592 2.2467918 4.2697172 19.03075
-0.19322759 2.2669835 4.2684169 18.570999
-0.050491568 2.2670126 4.2302694 18.821751
0.15727459 2.2661433 4.2461991 18.524332
0.28380859 2.2553091 4.2850542 18.0735
0.3776218 2.2395988 4.2699604 18.07025
0.47624213 2.2303166 4.2499304 18.066999
0.56787819 2.2446566 4.221034 18.067499
0.74995875 2.2223382 4.2962894 18.076
0.83699828 2.2212164 4.2352419 18.0765
1.2450593 2.2206807 4.2745285 18.078501
1.4791784 2.2882972 4.277801 18.0735
1.5520711 2.2921684 4.2077708 18.073999
1.8485724 2.2731507 4.2560444 17.574501
-0.5496555 2.3098953 4.2526393 19.731167
-0.3327308 2.3088684 4.292758 20.063499
0.17636757 2.3145533 4.2111931 19.0655
0.26648954 2.3113685 4.2577796 20.066999
0.35221973 2.3248127 4.2698984 20.067499
0.42810729 2.3893702 4.2650533 20.068001
1.1753649 2.3140011 4.2785649 19.072001
1.2637492 2.3406377 4.2565804 19.0725
-0.81782901 1.4350684 4.3016024 14.0605
1.9849771 1.5440758 4.3335452 12.074
-0.66156775 1.7930216 4.3295794 15.0685
0.10405926 2.182586 4.392911 17.065001
0.58422142 2.1998301 4.3676624 17.067499
1.6605095 2.1843834 4.3001199 17.0805
-0.77258742 2.2616935 4.3031459 20.061001
-0.5693391 2.2383852 4.3228078 18.069
-0.4706547 2.2436922 4.311749 18.0695
-0.37513211 2.2628531 4.3260279 18.07
-0.27771634 2.2702742 4.3149877 18.070499
-0.0033203149 2.2361403 4.3388467 18.072001
0.055788606 2.2901816 4.3697681 20.06575
0.24734569 2.2115631 4.3620367 18.06575
0.46432903 2.2692199 4.3050137 18.074499
1.0603671 2.2915602 4.3478756 19.071251
1.3438625 2.2351036 4.3648415 17.57575
1.4004085 2.2787013 4.3364606 18.073
1.8172112 2.264365 4.3364635 18.075001
1.9230422 2.2333708 4.3912134 17.081499
0.18449661 2.3105488 4.3247733 20.0665
-0.78624701 2.1225567 4.4529204 18.061001
0.40867037 2.1863863 4.4851508 17.0665
1.5181134 2.1801834 4.4531822 17.0795
-0.58501208 2.2225423 4.4799557 17.069
-0.15833619 2.2734213 4.4477315 19.564501
-0.071460634 2.2717106 4.4301038 19.065001
0.76466691 2.2478395 4.4974003 18.0695
0.84889722 2.2550728 4.4476013 19.07
0.93767297 2.2757831 4.422081 19.070499
1.2278373 2.23827 4.4171576 18.072001
1.6656522 2.2504199 4.4804769 17.073999
1.741459 2.2562301 4.4066682 17.074499
-0.61462808 2.1946673 4.5461426 19.062
-0.28342539 2.1567621 4.5855289 17.063
-0.18170281 2.1625776 4.5328321 17.063499
0.35054588 2.1888835 4.5348625 17.07
1.4199196 2.1738851 4.5423374 16.079
2.0745704 2.1157057 4.5670619 15.074
-0.52015316 2.2046034 4.5402226 19.0625
-0.42825642 2.2321768 4.5511785 19.063
-0.33391944 2.2408254 4.530436 19.063499
-0.22648296 2.2422128 4.5154963 18.067499
0.028035969 2.2587419 4.5485239 19.0655
0.56490993 2.2328494 4.5603356 18.070501
0.68376541 2.2409606 4.5363832 18.069
0.89593154 2.2380717 4.5356846 17.0765
0.93864268 2.2887225 4.5766206 17.069
1.0701469 2.2207386 4.5331588 18.070999
1.163687 2.2459812 4.5105228 18.071501
1.1455294 2.3065255 4.5383525 17.07
1.2493556 2.3167102 4.5182791 17.070499
1.5650598 2.3734832 4.5027118 17.072001
1.9597651 2.30672 4.5733905 16.0735
1.6890491 2.4093633 4.5232935 17.0725
-0.38569003 2.1702728 4.6711159 17.0625
-0.074439242 2.169759 4.6022229 17.063999
0.019514367 2.1768422 4.6629367 17.064501
0.19565293 2.1780932 4.6293311 17.073
0.2201113 2.193862 4.6088772 17.0655
0.32223162 2.1840563 4.6754112 18.066999
0.41257086 2.1929064 4.6278048 18.067499
0.81027091 2.1751444 4.6646843 17.0695
0.90178454 2.1995776 4.6291819 18.07
1.6708559 2.1270671 4.612215 16.08
0.12714955 2.2374773 4.6042037 19.066
1.4382591 2.2228858 4.6870475 17.0725
1.8718455 2.2964802 4.6715631 16.073
1.0754038 2.3261843 4.6627822 17.0695
-0.54053456 0.92011994 4.7657981 9.0614996
-0.60357451 1.541608 4.7065167 14.062
2.1728125 1.5699552 4.7130184 11.074
-0.82420981 1.8254325 4.7569618 16.061001
-0.073954895 2.0950356 4.7976732 16.063999
-0.59506983 2.1376486 4.7332544 16.061501
-0.48784012 2.1522076 4.7038002 17.062
0.039350957 2.1351838 4.7571673 17.5655
0.13394782 2.1482658 4.7188826 18.066
0.23598227 2.1740084 4.7089744 18.0665
0.63093352 2.1512959 4.7756085 17.068501
0.72020519 2.1572924 4.7124171 17.069
1.3727002 2.124747 4.7038169 16.078501
-0.0035993296 2.2193868 4.7629824 17.072001
0.74262607 2.2733362 4.7954969 17.0755
1.3327458 2.2240829 4.754137 16.571251
1.4420223 2.233067 4.7652164 16.070999
0.5441252 2.326803 4.7916889 17.070749
0.77343142 2.3245251 4.7639422 17.068001
-1.1329179 2.4330816 4.7281404 19.0595
-0.6032691 1.1199054 4.8847084 11.062
-0.16461426 2.1161954 4.8456411 16.563999
-0.049945384 2.1412702 4.8263011 17.065001
-0.94910693 2.2978344 4.8345623 18.060499
-0.31871325 2.2440169 4.8368435 17.070499
-0.0036649497 2.2112989 4.8640256 16.072001
1.0699277 2.287142 4.8470836 17.077
1.2721659 2.2135587 4.8636212 17.071501
1.5754765 2.2442961 4.802062 16.071501
1.6966492 2.2583435 4.8209605 15.572001
1.8467664 2.2700362 4.8805499 15.0725
1.9748293 2.2663622 4.877028 15.073
2.1063912 2.25002 4.8744731 15.0735
-0.65010154 2.100445 4.9464507 17.062
-0.44826427 2.1079676 4.9950643 17.063
-0.36758327 2.1503301 4.9582691 16.563
-0.26395339 2.140542 4.939333 16.563499
0.44668677 2.1381598 4.906291 17.067499
0.87245756 2.1808138 4.9575944 16.076
-0.11337065 2.2010562 4.9315662 16.071501
0.10550766 2.2381659 4.9034929 16.0725
0.21676321 2.2231688 4.9479361 16.073
1.1973585 2.2198191 4.9481707 16.574249
1.2724675 2.2851515 4.9861712 16.07
0.11482628 2.3037581 4.9791846 17.0725
-0.51489556 1.3912544 5.0279193 12.0625
-0.75791752 2.0371943 5.009593 16.061501
-0.5607999 2.0064971 5.0510597 15.0695
-0.55346477 2.129529 5.010859 17.0625
0.7684263 2.198987 5.0186419 16.0755
1.0032879 2.1991713 5.056448 16.0765
0.33351275 2.2300656 5.04213 16.0735
0.65721422 2.2013071 5.0400023 16.075001
1.1394234 2.2392337 5.0247746 16.07325
1.4260863 2.2472265 5.0805087 15.0705
1.523276 2.2625456 5.0003729 15.071
-0.57036442 1.2158142 5.1529403 10.0695
-0.51726943 2.157758 5.1227527 16.062
0.79111189 2.1840851 5.1952477 15.0755
0.90256447 2.1966953 5.149961 15.076
1.9826351 2.1725688 5.108604 15.0805
0.45201293 2.2328296 5.1047845 16.073999
0.55012226 2.2312248 5.1023664 16.074499
1.0392518 2.2249339 5.1697054 16.07
1.3218099 2.2300162 5.1438141 15.07
1.7214582 2.262218 5.1947122 15.0715
-0.506603 1.0177321 5.2030425 10.0625
2.2862535 1.6767246 5.2176323 11.0735
0.75828153 2.1988971 5.2779393 15.0675
0.8318826 2.194402 5.2854714 16.069
1.0432005 2.1908088 5.2521234 15.0765
1.2246004 2.2124438 5.2403212 15.0695
1.6149038 2.2171407 5.2865891 14.071
1.7582794 2.2102566 5.248878 14.5755
1.8716124 2.2584567 5.2624092 14.072
2.0133696 2.2403412 5.2488108 14.0725
2.1378729 2.2377894 5.2604647 14.073
-0.16188534 2.0869961 5.3782682 15.0635
-0.059163406 2.0998106 5.3989911 15.064
0.66595989 2.0856435 5.3851905 14.067
-0.14340833 2.1434519 5.3983831 16.064501
-0.048541218 2.134398 5.3056865 16.065001
0.398864 2.1670792 5.3375549 16.066999
0.55098474 2.1816778 5.3858151 15.570999
1.3026888 2.1868227 5.3480287 15.0775
1.4427104 2.184478 5.3982358 15.078
-0.82015467 2.290134 5.387754 17.061501
-0.12302772 2.2098484 5.3415098 15.0715
-0.4576644 1.5229009 5.4972653 12.063
2.1422627 1.6585366 5.4875517 11.0725
2.2788112 1.7149452 5.4967194 11.073
-0.71251094 2.0311182 5.4880128 15.062
-0.41116124 2.0871367 5.4045339 15.0625
-0.29141074 2.0975461 5.421865 15.063
-0.25543848 2.1218777 5.4275484 16.063999
0.061659381 2.1144805 5.4197149 15.0645
0.14984271 2.152597 5.4312944 15.06875
0.30446905 2.1356528 5.43048 15.0655
0.45260596 2.1713877 5.4520321 15.07
0.65592444 2.1723914 5.4575081 15.567501
0.86803794 2.1734245 5.4815121 15.069
1.5873957 2.1786873 5.4510031 14.0785
1.7198993 2.1533859 5.4517078 14.079
1.8475649 2.1558318 5.4896941 14.0795
-0.93908322 2.2978883 5.4147849 17.061001
-0.0040291995 2.2008071 5.4164352 15.072
1.1444395 2.2635086 5.4249301 15.069
1.5879494 2.2045264 5.4674783 15.0785
2.1064398 2.2477751 5.4873481 15.074
2.2333491 2.2432339 5.4203653 15.0745
-0.35793784 1.618377 5.5567141 12.0705
2.0105433 1.6270137 5.5375066 11.072
2.3051653 1.9225223 5.56636 13.0745
0.24426129 2.16571 5.5456657 15.073
0.36763734 2.186276 5.5288754 15.0735
0.55962676 2.1849575 5.5173311 15.0665
0.80056173 2.1698966 5.5011201 14.0675
1.0356138 2.178875 5.5340281 14.569
1.1530292 2.1645167 5.5301294 14.5695
1.2718495 2.1808465 5.5990705 15.0705
1.3368164 2.1651073 5.5724874 14.0735
1.4620473 2.1641867 5.5426502 14.073999
2.1663692 2.1961088 5.5988927 14.074
2.2922604 2.1895401 5.5585289 14.0745
0.92986745 2.2434573 5.5685015 15.068
1.0594193 2.2661905 5.5316367 15.0685
1.9972456 2.2404652 5.50352 15.0735
2.3762271 1.4591494 5.6880503 9.073
-0.47243109 1.872095 5.6006031 14.063
0.92185771 2.0195537 5.6903963 14.069
1.291002 2.0528989 5.6361833 14.0705
1.4071195 2.0804691 5.6657414 14.071
-0.38238481 2.1656857 5.6115556 16.063499
-0.13856164 2.132452 5.6411128 15.0645
-0.0042066174 2.1669977 5.686132 14.072
0.1217203 2.1692193 5.6242537 14.0725
0.49083093 2.1743312 5.6578703 14.074
0.58467609 2.1736901 5.6858263 14.0665
0.67958677 2.1584544 5.6701794 15.068
1.1272103 2.1395707 5.6355081 14.0765
1.2576498 2.1589341 5.6344428 14.077
1.3985916 2.1946173 5.6633425 15.071
1.6310172 2.1434064 5.6323605 14.07125
1.8985814 2.1716504 5.6866894 13.0715
1.9145437 2.1545312 5.623126 14.073
2.0395145 2.1784267 5.6230021 14.0735
1.5246295 2.2498755 5.6624737 15.0715
1.6569022 2.2755241 5.6686573 15.072
1.925898 2.3283062 5.6734967 15.073
0.4535279 1.9944915 5.7710195 14.067
2.3975146 1.9123175 5.781497 12.073
0.80921733 2.0260582 5.7513504 14.0685
1.1735628 2.0589416 5.7069373 14.07
2.2432585 2.0891178 5.7944536 13.0805
-0.12317462 2.1663964 5.7510796 14.0715
-0.019388109 2.1439996 5.727026 15.065
0.08503601 2.1348755 5.7596731 15.0655
0.20677397 2.1175451 5.7647548 15.066
0.33269322 2.1339245 5.7718887 14.566
0.46452552 2.1616859 5.7538323 14.066
0.56645119 2.1388061 5.7296047 15.0675
0.62788743 2.1732574 5.7507854 14.0745
0.81345713 2.172441 5.7432656 15.0685
2.0716527 2.179368 5.7576666 13.072
1.8013386 2.3143179 5.7031965 15.0725
-0.37321666 1.850407 5.8618731 14.0635
-0.011318117 1.9977381 5.8908286 14.065
0.11100098 1.9984772 5.868134 14.0655
0.23120579 1.9914491 5.8200855 14.066
0.3361524 2.0022206 5.8257771 14.0665
-0.6521908 2.1439242 5.8794584 14.0695
-0.38456222 2.1232097 5.8582244 14.0705
-0.25357446 2.1561201 5.8016324 14.071
0.086058661 2.1272478 5.8954043 14.0645
0.2356793 2.127985 5.8684936 14.069
0.38317513 2.1118345 5.8112793 14.0735
0.76527292 2.1598783 5.8097324 14.075
0.94811332 2.1451571 5.8337479 14.07175
1.0455116 2.1139421 5.899436 14.076
1.579241 2.1033669 5.8033886 14.0715
1.8454361 2.1885047 5.8019843 14.0725
-0.24911657 1.9913421 5.912106 14.064
-0.1432586 1.9952388 5.9070616 14.0645
-0.27366307 2.118237 5.9593472 15.064
-0.16584881 2.104738 5.9591236 14.0635
-0.034180358 2.1146021 5.9385366 14.064
0.47862455 2.149375 5.9608865 15.067
0.74586576 2.1301737 5.9455075 13.067
1.1680435 2.1075215 5.9033852 13.0765
2.0512075 2.0955069 6.0263705 13.0795
-0.13839471 2.1121821 6.0453744 13.0715
0.49364179 2.1210833 6.0993514 13.066
0.61641121 2.1306539 6.013083 13.566999
0.7370379 2.1295433 6.0403824 14.068
0.80003411 2.1042407 6.0953245 13.075
0.92933297 2.1132703 6.0408568 13.0755
0.24615757 2.099534 6.1882038 13.065
2.2287152 2.0912242 6.1434097 12.072
0.37797016 2.1008019 6.1132903 13.0655
1.9323418 2.1005812 6.1540594 13.079
0.10266058 2.0944312 6.2847915 13.0645
1.3076901 2.0835669 6.2126193 13.07
1.8003672 2.07938 6.2139544 13.0785
2.1261299 2.0810452 6.2889857 12.0715
0.67913014 2.1210039 6.2421107 13.0745
1.1606698 2.1169612 6.2420087 13.5695
1.5007104 2.1174836 6.2052016 13.0775
2.4573503 2.1196859 6.208972 13.074
-0.026383236 2.0882761 6.3224154 13.064
1.0563858 2.0683272 6.3716402 13.069
1.700001 2.0738795 6.3154783 12.078
2.372143 2.097187 6.3683872 12.0735
-0.0046393196 2.1637688 6.3438907 13.072
1.6975501 2.1004379 6.3130727 13.078
0.27122241 2.099824 6.4596186 13.073
0.818923 2.0445926 6.4868622 13.068
0.95048428 2.0614898 6.4422998 13.0685
0.14772055 2.1512477 6.4199252 13.0725
1.4963951 2.136272 6.4413733 13.0705
1.6437761 2.1348372 6.4745436 13.071
1.8861897 2.1036751 6.440484 12.0785
0.69457066 2.0438781 6.5983195 13.0675
1.3041494 2.0131965 6.5997548 12.0765
1.444627 2.0507972 6.506855 12.077
2.0467916 2.0910065 6.5255322 12.079
0.42257559 2.1173432 6.5782709 13.0735
1.8235471 2.1408589 6.5746412 13.0715
0.56348062 2.0352013 6.6835241 13.067
0.71973848 2.0070918 6.6675382 12.0745
1.0190531 2.0126414 6.6478167 12.0755
1.6367402 2.0487139 6.6519284 12.0775
1.9275042 2.0632279 6.609324 12.0705
2.1024768 2.0804529 6.678 11.071
2.2720451 2.0969889 6.6823688 12.0795
2.0160856 2.1455095 6.6872921 12.072
2.1868784 2.1263406 6.6841555 12.0725
-0.011106402 2.0339227 6.7557073 13.065
0.14595445 2.0254056 6.7681437 12.0725
0.43046579 2.0183284 6.7765374 13.0665
0.5953781 2.0173588 6.7154865 12.074
1.1776557 2.0356936 6.7627339 12.076
2.4543118 2.0583887 6.7613883 11.58
2.3632948 2.1260586 6.7499557 12.073
-0.0049409405 2.0348399 6.8023906 12.072
0.30358455 2.0129499 6.8688903 13.066
1.941919 2.0340288 6.8900304 12.0715
0.16008422 2.0410063 6.9264431 13.0655
1.6938976 2.0383384 6.9234819 11.0695
2.371845 2.0566814 6.9482327 11.0715
0.0009111613 2.0938654 7.0131903 12.064
0.92208523 2.0414886 7.0839667 12.0715
1.829476 2.0235536 7.0490804 12.071
