# .PCD v0.7 - Point Cloud Data file format
VERSION 0.7
FIELDS x y z intensity
SIZE 4 4 4 4
TYPE F F F F
COUNT 1 1 1 1
WIDTH 1346
HEIGHT 1
VIEWPOINT 0 0 0 1 0 0 0
POINTS 1346
DATA ascii
2.4769404 0.45421758 0.86198473 7.6666665
-1.2489676 0.62200153 0.93202567 18.5
2.1904025 0.72893178 0.99527335 12.5
2.2269068 0.65261263 0.98155606 11
2.4553499 0.79322332 0.95717943 11
2.6098092 0.77889335 0.85699308 12
2.2942872 0.8980155 0.86492538 12.25
2.5611291 0.91701376 0.88543952 12.5
2.1794147 1.1755384 0.92715979 15
2.3308764 1.1028039 0.93093181 14.5
2.511337 1.0794287 0.90158427 14.9
-1.3578894 1.3241211 0.82079995 21
2.3413177 1.2707639 0.97818422 16.75
2.5123272 1.2692237 0.86102551 17
2.377255 1.5029409 0.84848201 18
2.4948375 1.4447037 0.92159891 18.166666
2.3656878 1.648349 0.95385146 19.5
2.502768 1.6894599 0.9065901 20.25
2.5089104 1.9060305 0.88265079 22.333334
2.4010587 2.0269191 0.829207 22
2.1007097 0.08644633 1.1277902 4.3000002
2.3334084 0.047079947 1.0903627 4
-1.3373433 0.39123309 1.0491498 11.166667
2.0939777 0.30138716 1.1239252 7.0833335
2.2893629 0.26461399 1.1044005 5.5999999
2.4067893 0.3619619 1.0024633 8
-1.5203501 0.50361729 1.1977887 11
-1.3150287 0.5305438 1.082927 15.941666
2.1472294 0.51337588 1.0754352 10
2.3046081 0.50654405 1.1736702 8.666667
-1.2515291 0.69981992 1.0068152 22
1.9278489 0.69926214 1.1038502 10.5
2.1329622 0.6765967 1.1180935 11.875
2.4176931 0.69691205 1.086406 10.75
1.8730985 0.90742552 1.1329305 12.5
2.1362464 0.9161917 1.1449046 14.7
2.3104856 0.92337841 1.0759569 13.166667
-1.4798622 1.0814503 1.1661781 19.5
2.1717684 1.08562 1.1389608 15
2.3513484 1.0866218 1.1516844 14.75
2.4695051 1.0626608 1.0536858 14.333333
2.2881587 1.2526771 1.1179752 17
2.4549155 1.2521241 1.0981089 16.75
2.2509673 1.4327122 1.0988923 17.5
2.4618075 1.4136691 1.066517 18.25
2.512125 1.7047372 1.0644389 21.166666
2.2815001 1.8706281 1.1478274 21.5
2.4825218 1.9076359 1.0852799 22.75
-1.5297222 0.13406296 1.3207531 4.5
2.0286274 0.0096187508 1.3134609 3
-1.5467799 0.31033522 1.3347955 7
1.9626521 0.30261797 1.3592911 7.25
2.0389547 0.30992565 1.2601509 7.5
2.2514434 0.3406468 1.2519841 7.25
-1.4562083 0.47519627 1.3034929 12.991666
-1.389506 0.49902856 1.3145983 15.5
2.0642157 0.5008437 1.248917 10
2.2649703 0.5972867 1.2685354 10
-1.4864258 0.71644115 1.2932816 16
-1.3828849 0.6984632 1.2901291 20
2.0413618 0.78745282 1.3856409 14
2.2878513 0.69885683 1.2584352 10.25
-1.5211242 0.9613477 1.2881869 17
2.049927 0.88962913 1.3130149 14.333333
2.2724628 0.84570438 1.3063486 12.666667
-1.5070391 1.1548157 1.3818811 19.5
1.9670944 1.1655806 1.3522036 18
2.0414591 1.0391645 1.3240772 16.666666
2.2626369 1.060457 1.3144736 15
-1.4617102 1.3045915 1.2859674 22
2.1904716 1.3617915 1.2526774 19
2.2490268 1.2684095 1.2537198 17.25
2.1624167 1.4527795 1.2541499 18
2.3015857 1.4728959 1.32388 18.6
2.2943618 1.6952274 1.3477045 20.5
2.3128815 1.8252316 1.3434939 22
-1.5357759 0.10462701 1.4431686 4
1.8984442 0.098391391 1.5318271 4.1666665
2.1696062 0.11000665 1.5045252 5
-1.558948 0.34087402 1.483258 8.75
1.8347598 0.29429221 1.5490179 6.8333335
2.1183252 0.3475236 1.4595234 7.5
2.2343357 0.32726389 1.5049533 7
-1.7033868 0.43856663 1.5875418 8.5
-1.5343915 0.52370971 1.482085 13.5
1.9096888 0.50314587 1.5209227 9.583333
2.0591059 0.58858824 1.4404445 10
-1.55782 0.7200675 1.4733764 13
1.9293247 0.7089479 1.5238677 11.833333
2.0761087 0.68339282 1.4522396 11.5
-1.5109138 0.82898277 1.4446942 19.333334
1.9519244 0.8772527 1.5496525 14.5
2.1032906 0.91975313 1.4979682 13.75
-1.6424192 1.130749 1.480244 19.200001
-1.5216529 1.0278749 1.4066613 17.5
1.9694939 1.1116101 1.5440307 16.333334
2.0348079 1.0888913 1.4381211 17.5
2.2185678 1.0924447 1.5371132 15.5
-1.6220447 1.2846339 1.5905541 20.5
1.9674308 1.2019485 1.4331262 19
2.1457381 1.321538 1.5141819 18.25
2.2092044 1.2724699 1.4566809 16.833334
2.1094286 1.527601 1.4721124 20
2.2247295 1.4759647 1.5001861 18.833334
2.2497067 1.6583643 1.4733438 21.125
2.1611414 1.920728 1.4212894 21.5
2.1267049 2.0378418 1.4436648 23
1.7433453 -0.00291052 1.7813375 3
1.774316 0.18591836 1.7121644 6.5
1.8081462 0.083730355 1.6991675 3.5
-1.7227141 0.35342818 1.7138597 7
1.7574201 0.32713461 1.7045616 8
-1.6585019 0.50596255 1.6951014 11.75
1.7617955 0.40127766 1.7614363 7.6666665
1.8058884 0.55801678 1.7929404 9
-1.7093593 0.78023791 1.6857151 13.5
1.7979162 0.74069297 1.6627108 13
1.8487192 0.69468576 1.676676 12.416667
-1.6804321 0.93311119 1.6476837 15.5
1.8833098 0.86876869 1.7282094 14.666667
-1.8181621 1.0021826 1.7581844 16.5
-1.7354389 1.1341227 1.6825756 18.666666
1.7760801 1.148132 1.7295918 19
1.9002546 1.1228614 1.6047511 18
-1.7231174 1.3713942 1.7622883 21.875
1.8084099 1.2066953 1.7937554 19.5
2.0992062 1.2805828 1.6553186 17.5
1.936803 1.4852049 1.6383171 19
2.1188765 1.4799986 1.6583115 20.4
2.1251929 1.6876711 1.7859702 21
1.6998916 0.090289354 1.8743063 4.0625
1.7351608 0.29338101 1.86285 6.7916665
-2.0000429 0.55292702 1.9677546 10
-1.8637788 0.50106484 1.9468963 9
-1.7832252 0.4015936 1.9323781 9.5
1.7456698 0.49287277 1.8866966 9.875
-1.9328388 0.7224825 1.8951455 12.333333
1.7254803 0.67128158 1.8964736 12.6
1.8264079 0.61852312 1.8053447 10
-1.8498116 0.89536953 1.9704502 16.125
1.782788 0.91695577 1.8234571 15.5
1.8792101 0.90951616 1.8985199 13
-2.1348438 1.1765144 1.9052424 18.75
-1.9193678 1.1475968 1.9531238 19.75
-1.7997465 1.1272196 1.925493 17.5
1.7612233 1.0998287 1.8616755 17.833332
1.8539129 1.1005403 1.864324 16.833334
-2.0841565 1.2863142 1.943411 20.5
-1.8517236 1.2934011 1.9333791 22
-1.7697482 1.2319084 1.8467417 19.666666
1.7783335 1.250205 1.8845818 20.25
1.8915367 1.2924011 1.8998547 18.6
1.7699813 1.4437327 1.9090364 22.25
1.897473 1.4717652 1.8637776 20.833334
2.0425756 1.5858068 1.8070474 20
1.9510183 1.6823266 1.9355953 21.25
1.6029766 -0.055701807 2.1173582 3
-1.9516158 0.10141194 2.1629877 4
1.5482327 0.055676866 2.159054 3.6666667
1.6735169 0.12866834 2.0616736 4.6999998
-2.0044589 0.35196581 2.1564806 7.5
-1.9166925 0.28777161 2.0944133 6.25
1.3318193 0.37443691 2.1626329 10
1.5726686 0.28480253 2.0896626 7
1.6630946 0.34523702 2.0436223 7.9166665
-2.009269 0.59913415 2.1939361 11
-1.8252945 0.44595388 2.0779166 10.5
1.2977871 0.48893118 2.1205993 11.5
1.5421844 0.553931 2.1651773 11.666667
1.7610136 0.5344432 2.1074262 8.666667
-2.0764349 0.70966417 2.1233799 12.333333
-1.9711571 0.75616932 2.1548581 13.666667
1.2753596 0.60790604 2.1203737 13
1.5276754 0.68533784 2.1566815 13
1.633337 0.6790517 2.0841646 13.138889
1.8232455 0.73832721 2.0685496 11
-1.9547927 0.923347 2.0951805 15.5
1.6671959 0.88709974 2.0681908 15.2
1.8199595 0.9450357 2.0883648 13.5
-1.9457654 1.0865371 2.1067674 18.25
1.7245761 1.0967395 2.0731826 17.333334
1.8553076 1.0650802 2.0209644 15
-1.9195131 1.2641104 2.1226556 21.166666
1.6923733 1.2488215 2.1123185 19.700001
1.8488225 1.3282866 2.0245473 18
1.7302886 1.439701 2.1434016 21
1.9030948 1.4775466 2.0183434 18.75
1.9239533 1.7831076 2.0741119 21
1.3019408 -0.029246993 2.378665 4
1.1919281 0.034089237 2.2301884 5
1.467912 0.095546916 2.28666 4.8000002
1.6528414 0.16381732 2.2245727 5
1.3361164 0.35054553 2.3728709 9.75
1.5052775 0.30711338 2.2398734 8
1.6548426 0.28211468 2.3089256 5.75
-2.1341612 0.52328134 2.2761056 10
1.3679832 0.57601911 2.3809671 13
1.4934437 0.48914886 2.293855 10.9
1.640699 0.48493218 2.2751806 9
-2.1762097 0.76787406 2.3513398 13.5
-1.991129 0.67111206 2.2439716 12
1.4368082 0.71970344 2.3555536 14
1.6294684 0.71718526 2.2832351 12.8125
-2.0984726 0.92774701 2.2820373 15.766666
-1.9545989 0.85550833 2.2285759 15
1.540023 0.9084813 2.2968884 16.357143
1.6782125 0.87010336 2.3202238 13.333333
-2.1302872 1.143551 2.273833 18
-1.979652 1.1377058 2.2122841 19
1.5408909 1.1112487 2.2684159 17.75
-2.0643992 1.3092854 2.3168299 20.75
-1.9433076 1.3485346 2.3231051 22
1.5633774 1.2705605 2.2428968 20.5
1.7579191 1.3331996 2.3151312 17.25
1.8210425 1.2752725 2.2586958 16
-2.0466886 1.5433133 2.3368764 18
1.749326 1.5237815 2.2527254 21
-2.0139678 1.7373239 2.3014171 19
1.7783045 1.7657118 2.3990083 21
1.828684 1.6363277 2.2939429 19
-2.0100944 1.8292297 2.3524225 20
-1.9907115 1.9092865 2.3270125 21
1.7805274 1.9227502 2.369586 22.5
-1.9424518 2.0006373 2.2723408 22
1.3380227 -0.025487911 2.5011821 3
1.36423 0.025965277 2.5655003 4.5
1.5345347 0.12498531 2.4356499 5
1.6471347 0.1291654 2.4785936 3.5
1.3499569 0.33623493 2.5399697 9.4444437
1.4412384 0.28529105 2.4870665 7.4444447
1.2630138 0.50563985 2.4816356 12.833333
1.4386603 0.51090968 2.4472873 11.45
-6.2329378 0.77339685 2.5950656 6
1.3653387 0.70930511 2.5159152 14.583333
1.4394672 0.70703632 2.4698515 14.875
1.6517713 0.65418255 2.4260068 10
-2.034637 0.84174204 2.4735484 14.25
1.3797971 0.92050111 2.5333486 18
1.5122458 0.88443226 2.5101066 15.166667
-1.974692 1.177332 2.4429979 19
1.3932937 1.0059419 2.4513788 17
1.4800527 1.099134 2.4937034 18.9375
1.6969759 1.0752205 2.4717269 14
-2.0784914 1.3782899 2.4445255 16
1.3702056 1.2616416 2.5975194 21
1.4513378 1.2575411 2.5488155 20.833334
-2.0518889 1.5385963 2.4158461 17
1.4504704 1.4256009 2.5171189 23
1.6999178 1.4819083 2.4519031 18.666666
1.6395909 1.6926953 2.5405731 20.5
1.5640006 2.0729489 2.577728 23
1.2739002 -0.035667028 2.6405873 4
1.4238307 -0.018110726 2.6653132 4.5
1.2679813 0.10188972 2.6543036 5.25
1.5513572 0.071354166 2.678066 3.5
1.2957939 0.30468571 2.6978741 8.875
1.4498887 0.38263446 2.6878538 10.5
1.3020971 0.49103385 2.7850077 13
1.4537623 0.48958921 2.693444 10.8
1.3662579 0.76310688 2.722476 15.75
1.4563928 0.66084743 2.7277284 12.333333
1.2995192 0.89590001 2.7080183 17.375
1.4862744 0.86714029 2.7082703 13.3
1.314976 1.0654459 2.7198677 20.116667
1.4482079 1.1164688 2.6498859 20.166666
1.3397615 1.317385 2.708849 22.5
1.4676849 1.3028716 2.6879375 19.833334
1.3144045 1.4489816 2.7758951 23
1.5444022 1.4453588 2.7743425 17.5
1.6307538 1.4728594 2.6488681 19
1.6267691 1.6016607 2.6239381 20
1.1444504 0.055821843 2.9270618 4.75
1.3029513 0.09124279 2.8999894 4.75
1.4386317 0.065870687 2.8569582 3
1.1626464 0.28549775 2.9253132 7.5
1.309356 0.27700368 2.8765688 8
1.1868916 0.4991405 2.9575615 12.75
1.2543228 0.5145613 2.892277 12.333333
1.4818795 0.50367439 2.8598256 8
-0.099447876 0.63533425 2.9324822 20
0.77396804 0.64093155 2.9201345 15
1.1616478 0.66574085 2.9754388 17.5
1.2803729 0.70353329 2.8455687 13.5
-6.3458614 0.80170286 2.9166911 5
1.162505 0.94780916 2.9653945 19
1.2816195 0.87230611 2.908221 15.888889
1.4306872 0.819713 2.9424567 10
-6.3635292 1.0135359 2.8644688 6
1.2836038 1.1256126 2.8937569 19.5
-6.4206095 1.204368 2.8374925 7
1.2427382 1.2485663 2.8660023 21.5
1.4545603 1.3307472 2.8253677 16.5
1.4067138 1.4570267 2.9241247 19
1.2005591 1.7244182 2.9930773 19
1.4585587 1.658304 2.9449866 21
1.4668512 1.9226061 2.8776712 22.5
1.2464257 2.0602732 2.9278007 22.5
-5.9945173 3.0184393 2.916647 18
0.99049157 -0.061791282 3.1860118 3
0.9888401 0.18825063 3.0820394 9.5
1.0433332 0.10118064 3.1237936 5.3333335
1.2724936 0.12281131 3.0855904 7
0.90685403 0.25732416 3.0967383 10
1.0767034 0.24990761 3.1389134 7.3333335
-0.013519317 0.40628406 3.1525941 17
0.027725339 0.58239102 3.1754098 21.5
1.0876949 0.48818037 3.1071155 12.25
1.3021861 0.52678615 3.1154449 8.4444437
-6.253468 0.75335836 3.0887611 5
1.1342666 0.72449672 3.1165092 13.25
1.2618299 0.73224574 3.0937321 10.833333
-6.1756864 0.86656433 3.0794868 6
1.142727 0.89267898 3.128695 16
1.2261579 0.93746871 3.186923 20
-6.3467689 1.1734818 3.1423678 7
-6.1414695 1.0720522 3.0901442 7
1.3028044 1.1084652 3.0883744 18.777779
1.1604005 1.262952 3.0321021 23
1.3701668 1.238168 3.1488066 15.5
1.4504511 1.3285376 3.015481 17
1.2720928 1.4866227 3.1107988 17.5
-6.0566435 1.6093184 3.1552863 10
-5.9484105 1.7322525 3.0773616 11
1.1979197 1.7118061 3.0619504 18
1.2744017 1.694109 3.0763927 19.5
-5.94315 1.9497198 3.0932889 12.5
1.2168833 1.8673718 3.1100335 20.75
-6.2387319 2.4402061 3.0877833 14
-6.0509467 2.5179119 3.0911345 15
-2.3658988 2.7896988 3.1233115 23
-6.0213752 2.8176093 3.1060188 16.5
1.069464 -0.053239658 3.2921178 3
0.89048386 0.13417262 3.3162529 7
1.0279679 0.11176485 3.3437452 3.5
0.21236616 0.28120792 3.3777356 15
0.94450676 0.30934569 3.2866499 8.25
1.0734687 0.27026498 3.3031683 6.125
1.2150753 0.24320595 3.2530141 6
0.28368661 0.50701773 3.362915 20.288889
0.94865799 0.44605821 3.2785435 10.25
1.0732198 0.50372982 3.2658341 9.166667
0.98352516 0.77434337 3.2994251 21
1.1213682 0.71502078 3.2456164 12.25
1.2420706 0.66828114 3.2763231 10.5
0.94382894 0.81944132 3.3063037 22.5
1.0661967 0.95767367 3.2895041 13.75
1.2655985 0.83035421 3.2428305 14.5
1.0644634 1.1075339 3.2156272 20
1.2284411 1.0907818 3.3147812 15.5
-6.2709885 1.3634285 3.2132654 8
0.99361491 1.2831684 3.336679 17.25
1.0304897 1.3065335 3.3105609 19
1.2546203 1.3190157 3.2941439 19
0.99764395 1.4524453 3.3284478 16
1.2615625 1.4325268 3.3135014 18.5
-5.6256752 1.7263958 3.3818727 11.5
1.0423189 1.6418948 3.3271849 18
1.2604491 1.638705 3.31038 20
1.14463 1.966557 3.323787 22.25
-6.0145893 2.3159781 3.2717967 14
-5.9549761 2.5757852 3.2679694 15
-2.5118985 2.6894295 3.2928472 21.5
-5.8765707 2.8025792 3.2834392 16.5
0.9235577 -0.055355433 3.51682 2.75
0.74962205 0.11467332 3.5471678 6.8666668
0.80977094 0.13003173 3.5302176 5.5
1.112411 0.10776262 3.4372628 4.5
0.46917069 0.26859593 3.4454746 13.4
0.75877458 0.28898865 3.5334508 11
0.93258679 0.25708154 3.5980325 5.5
1.0913608 0.3420161 3.513015 12
0.36778808 0.55944151 3.4371479 21
0.74985397 0.52568156 3.5626237 19.166666
0.86723411 0.49513835 3.5428421 9.2333336
1.0500464 0.50107718 3.4982409 11
2.3982441 0.44213054 3.5259187 9
0.89820039 0.71109903 3.5325227 9
1.0801904 0.69161165 3.4794614 13.125
0.90884191 0.90762055 3.5036709 14.8
1.0655639 0.88058358 3.5035655 13.666667
-5.5660343 1.0711936 3.557323 7.5
0.94337577 1.0560585 3.4914505 13.666667
1.1307645 1.1625092 3.4847331 14
-5.5939746 1.2896614 3.5682173 9
0.91303372 1.2801518 3.5461068 21.5
1.0674132 1.3231596 3.54915 18.125
-5.5549545 1.4556799 3.567821 10
-5.1477628 1.5577811 3.5565972 11.5
1.0045689 1.5281972 3.5028691 15
0.89391029 1.6415709 3.5768514 19
1.0508341 1.6374383 3.5052018 18.25
0.92313647 1.9492558 3.4534407 22
1.189272 1.8246942 3.4512 21
-4.148078 2.863338 3.5674186 21.5
-3.9743094 2.9410441 3.5189686 23
0.75497746 -0.013396028 3.64463 4
1.0956507 -0.095080525 3.6645379 3
0.75961959 0.088905051 3.708251 4.875
0.83825159 0.1352035 3.652832 4.8333335
1.0905234 0.091080405 3.6831474 6.1666665
-4.9776053 0.36105782 3.7238903 4
0.7688669 0.31476146 3.7343788 6.5
0.85888016 0.36824384 3.6268058 8.625
1.0917397 0.34485951 3.6392899 12
-5.0161262 0.57417578 3.635777 5
-4.1109829 0.54183632 3.7458816 7
0.77866584 0.50578994 3.7268865 10.166667
0.83896768 0.50527745 3.7006004 9.8000002
1.101547 0.55391055 3.6701338 15
-4.9744358 0.69660258 3.6404843 6
-4.0843859 0.6838001 3.7860465 8
0.78950202 0.71410006 3.7742953 9
0.83916008 0.75919908 3.6612344 15.5
1.3376061 0.65656197 3.7905517 16.75
-4.9242849 0.87570047 3.6884515 7
0.78370273 0.87190217 3.7495351 10.5
0.88383746 0.91791642 3.6717772 16.375
1.1117649 0.84279919 3.7466073 19.75
-5.2721701 1.0229495 3.6640663 7
-5.1993508 1.1941813 3.6416888 8.5
-4.9849453 1.0812848 3.7012746 8.75
0.79670835 1.0767221 3.793242 12
0.85189056 1.1247138 3.7065983 18.714285
1.0708953 1.079532 3.6695786 15
-5.2122254 1.3303431 3.603538 10
-5.0093064 1.3845754 3.7740035 11
-4.8805008 1.2556962 3.7350039 10.25
0.91615617 1.2758486 3.7720985 19
1.0904797 1.2868699 3.6901963 17.166666
-4.8414407 1.596561 3.7946355 12
-4.7913127 1.4082147 3.7871351 11
0.79997921 1.4963596 3.7471261 17
0.92975891 1.427291 3.7515888 20
-5.6225381 1.666633 3.6955402 11.5
-5.5770068 1.6432095 3.6051383 11
-4.9062805 1.6778097 3.7341337 13
0.84211898 1.6460881 3.6437392 18
1.1029558 1.6703571 3.6979272 21.444445
-5.5729308 1.8961387 3.7117147 13
0.87230682 1.9337929 3.7249119 21
1.0209439 1.810384 3.7672033 23
-5.1563768 2.1325881 3.7821667 14
-5.0367427 2.2847142 3.7950764 15
0.97428805 2.5975947 3.7740588 22
-4.4809327 2.8756969 3.6308324 21.5
-4.3092155 2.9346039 3.671104 23
-4.0467534 2.8580763 3.7718797 21
-3.9608915 2.8990364 3.7073135 22
1.1913451 -0.19318362 3.8431017 1
1.2575324 -0.042826794 3.8797963 5
1.403978 -0.026600659 3.8601885 5
0.7615549 0.14643037 3.8124671 5.5
1.2774456 0.1239925 3.9053526 8
1.4342004 0.14254242 3.8972936 7.5
-4.9147997 0.27667916 3.8695259 3
-4.7518573 0.31333306 3.9153183 3.3333333
0.72021866 0.32431379 3.8389208 10.833333
0.84900141 0.2768214 3.8807302 6.25
1.2625521 0.30015418 3.8681059 10.5
1.4888128 0.32829916 3.9710803 11
-4.8034406 0.42783707 3.9239292 4
-4.7400484 0.46024087 3.8952584 4.5
0.7138502 0.51110107 3.8951559 11.666667
0.88301772 0.50725579 3.9121764 13.5
1.259666 0.5238719 3.8854785 14
1.4837557 0.49617881 3.9541481 14
-4.685029 0.72183979 3.858017 5.75
-3.9563305 0.61311495 3.9946656 8
0.75465608 0.67591554 3.8160372 9
0.90011787 0.71661258 3.9349415 10.833333
1.2496971 0.74008012 3.880527 17.25
1.4775008 0.65344691 3.9870481 16
-4.7353549 0.88357288 3.8320494 7
-4.479496 0.98267722 3.9514856 8
0.7789306 0.8424896 3.8075376 11
0.89186513 0.93784606 3.9521682 16.9
1.1997702 0.97191435 3.9461296 21
1.2721901 0.88878798 3.9812703 19.5
-4.69591 1.082109 3.869348 8.75
-4.4531293 1.1477805 3.9826698 9
0.91126215 1.0939555 3.8579433 16.75
1.1693614 1.0144825 3.8025331 22
-4.6430063 1.3507198 3.9431453 10
-4.5187345 1.2391604 3.9194622 10
0.79812622 1.2857693 3.9351315 16
0.81749201 1.2719076 3.894351 15
-4.418757 1.4478801 3.9500422 11
0.7782408 1.5368507 3.9110928 17.75
0.81110609 1.4576287 3.845376 16
1.0171797 1.4542108 3.8756306 19
1.0664684 1.6311849 3.8694715 21
-5.2129521 1.9729608 3.8049183 13
0.84895086 1.8027422 3.8073559 20.5
0.98511767 2.290992 3.8200669 20
0.89435971 2.4487319 3.9421296 20.75
-3.7513347 2.7469442 3.9077554 21
-2.2309828 2.7638903 3.9751196 22
-0.24831961 2.7447205 3.8964574 23
0.85850459 2.6768458 3.9246895 22.5
-2.1480088 2.8407707 3.8211813 23
1.5075868 -0.13037726 4.0644116 3.5
1.6125655 -0.081366405 4.1813788 4.5
-3.8315539 0.19192845 4.1835589 4
1.4852881 0.13672279 4.066927 7.75
1.6364281 0.021161534 4.1946707 6
-4.0321145 0.34747362 4.1494741 4.5
-3.7556081 0.31136772 4.1372766 5.25
1.399215 0.23735264 4.0288954 9
1.543775 0.26025209 4.0915089 10
-4.5279298 0.46592179 4.0921354 4
-4.3701639 0.51415318 4.0689464 5
-4.0144749 0.54426539 4.1092434 6
-2.9660151 0.51031464 4.0975509 10
0.88840079 0.5552392 4.0793142 9.5
1.5105807 0.49187663 4.0536079 13.75
-4.4860229 0.64891464 4.0409627 6
-4.0769377 0.68555766 4.1733985 6.3333335
-3.8575568 0.72527933 4.1630602 8.5
-3.7588089 0.67869353 4.1171908 8.5
-2.9465754 0.63723761 4.096014 11.5
0.8948282 0.74110949 4.0856667 11
1.4944391 0.72061938 4.0374742 17.333334
-4.9136209 0.9611091 4.0872922 9
-4.5854053 0.87625909 4.0903893 8
-4.3168421 0.89901495 4.1553564 7.5
-3.8881958 0.96224356 4.0856514 11
-3.7288914 0.89847243 4.1300583 10
0.95168889 0.98405021 4.0078797 14
1.4459082 0.91306043 4.0053363 20
-3.9172781 1.1707606 4.0521431 11
-3.782882 1.0966058 4.1431894 13.25
1.4565117 1.0893666 4.0602217 22.5
-4.8686862 1.2524223 4.0828447 10.5
-4.4902997 1.3570139 4.0529513 11
-4.2612615 1.3782799 4.0195327 11
0.95881152 1.2071731 4.0150299 16
-4.0806475 1.4978696 4.087822 12
0.90399343 1.5133411 4.05618 18.416668
-4.7802048 1.6731987 4.0424399 13
-4.4988079 1.6547546 4.0027184 12.5
-4.2421379 1.6870611 4.1809435 13
-4.1029639 1.6109034 4.1860323 13
0.87259626 1.7255471 4.0478735 20
-4.3340216 1.8667151 4.1109052 14.5
-4.0400977 1.9212121 4.1805501 15
-3.2947528 1.9169216 4.1201677 20.5
0.81564623 1.8729348 4.1114669 16.5
-3.3046541 2.1240137 4.0610104 21.666668
0.81134522 2.0838101 4.0771151 18
-4.1360736 2.2821174 4.1727781 17.5
0.80054814 2.2462316 4.0385623 19
-4.3178625 2.6880274 4.1238728 21.5
-3.8294106 2.7189867 4.1546459 20
-3.2552273 2.6679943 4.1343369 21
-3.1904509 2.736326 4.0486436 22
-2.6998301 2.7013979 4.12643 22
-2.311826 2.6718464 4.106575 21
-0.27103513 2.6117926 4.0825863 21
0.00013472341 2.6835046 4.0742502 22
-2.8832545 2.818531 4.1394892 23
1.6631151 -0.064925216 4.2686591 4.5
-3.9543674 0.19998589 4.2251253 3.5
-3.6632526 0.10357981 4.3195863 3
-3.5956929 0.16151167 4.2733288 4
-3.0146339 0.11587653 4.3701553 4.5
1.7128967 0.1199844 4.3196487 7.6666665
-4.1999793 0.36558661 4.2101784 4
-3.8544028 0.25956729 4.2421207 4.5
-3.6380515 0.30979618 4.3483033 4.75
-2.991966 0.28939629 4.3651614 6.5
1.7077764 0.33246094 4.2860165 10.666667
-4.1088901 0.46296421 4.2595754 5.3333335
-3.9635563 0.55337882 4.3326292 7.5
-3.7277608 0.52818966 4.2982507 6.5
-3.554456 0.48297009 4.3359661 6.1666665
-3.0142374 0.4771266 4.3675408 9
-2.8971379 0.50423032 4.3056121 10
1.6770337 0.48873597 4.2277927 12
-4.1392746 0.6708107 4.2093577 6
-3.8908045 0.68003631 4.2667236 7
-3.6494839 0.69349104 4.3370037 8.5
-3.5139089 0.75461382 4.3671474 9.5
-3.0417056 0.68794131 4.3666883 11.5
1.7106032 0.74352086 4.2670341 15.75
-3.8966138 0.99459213 4.3553519 9
-3.7083645 0.91335487 4.2753119 10.5
-3.5486834 0.88989908 4.280261 9.5
-3.2971468 0.97748131 4.3328404 11
1.699782 0.88941097 4.3277578 18.5
-4.2374783 1.0893258 4.2901206 9
-3.8731537 1.1780517 4.3451705 9
-3.4716172 1.0450854 4.2601643 11
-2.7635961 1.12801 4.2892666 19.5
1.5930468 1.1092405 4.2330446 22
-4.2231369 1.3017026 4.284606 10.5
-3.8092198 1.2941074 4.2518201 11.75
-3.791029 1.3623073 4.289609 10
-3.502449 1.2830956 4.3285637 13.5
-3.3703356 1.3033091 4.3036017 13
-4.4183679 1.4840209 4.2090383 12
-4.1519575 1.5616846 4.2144113 13
-3.8037045 1.4330002 4.2978077 12
-3.4861417 1.5143009 4.3387361 16.4
-3.9091191 1.7729638 4.3004379 13.75
-3.4854519 1.6886787 4.3128066 18
-4.0607824 1.9868828 4.3980956 15
-3.9652874 1.9460106 4.2297921 14.5
-3.4955173 1.8150192 4.3838763 19.5
-4.2068357 2.1291356 4.3063622 16
-3.9307618 2.3654435 4.3103356 17
-4.068511 2.4000914 4.2993093 19.5
-3.9050708 2.5047681 4.283062 18.5
0.010214875 2.5950375 4.2306128 20.5
0.71447659 2.5696297 4.322526 21
-3.8192616 2.6533802 4.2904186 19
-3.6047783 2.7109609 4.2816896 20
-2.9025333 2.7023175 4.3566093 22
-0.12987438 2.6808784 4.2114906 22
0.73604023 2.6509495 4.3990397 23
-3.565515 -0.20920342 4.555191 1
-3.4430654 0.19836153 4.4974017 4
-2.6864073 0.069606528 4.5801201 4.5
-3.8096805 0.34489378 4.5235286 6
-3.6941385 0.23539531 4.5103445 4
-3.1146736 0.39333087 4.4864039 5
-2.6475132 0.30226508 4.5300493 7.5
-4.0779147 0.45352784 4.4571991 5
-3.7146232 0.45684907 4.5084209 6.1666665
-3.5231385 0.57183421 4.4546728 7.5
-3.3962674 0.56885159 4.5879617 6
-2.8649576 0.40294749 4.4953885 8.666667
-2.611268 0.53132355 4.4351692 9.5
-2.5642772 0.52327144 4.5123177 9.5
-3.8323927 0.61520189 4.4355893 6
-3.7220325 0.70210165 4.5022402 7.3333335
-3.5470488 0.68631911 4.4921794 8.25
-3.3868701 0.62153083 4.5789962 7
-2.8001277 0.6720134 4.5947571 12
-2.5419276 0.73437744 4.5177302 12.333333
-3.8826258 0.90507507 4.4584746 7.5
-3.6942573 0.85749847 4.4988804 8.5
-3.5203552 0.93112803 4.4989657 9.333333
-3.3743017 0.91241527 4.4879742 9
-2.8995938 0.82906294 4.4627075 14
-2.5052667 0.91767991 4.5110016 14.75
-3.8844595 1.0950437 4.5306349 8
-3.7264767 1.0806941 4.5273728 9.375
-3.4891515 1.1115361 4.4983892 12.75
-3.1545963 1.1256486 4.4828844 11.75
-2.8194125 1.049911 4.5223851 17
-2.6404986 1.0074016 4.4910097 18
-2.4065275 1.1942183 4.596189 18.666666
-3.9182012 1.3599707 4.4095831 11.5
-3.6672392 1.3313415 4.5275636 12
-3.4612312 1.2789624 4.5213876 13
-3.3281651 1.2056575 4.5581903 13
-2.7991912 1.2519124 4.5149059 19.5
-2.5034304 1.2943362 4.4627433 19.5
-2.3977511 1.3436615 4.5429001 20.666666
2.2483799 1.2484792 4.5740294 18
-3.8722687 1.5252107 4.4957147 11.333333
-3.7478657 1.5460367 4.4897537 12
-3.4754229 1.4977561 4.5665188 13
-3.3269243 1.4859905 4.4726849 15.5
-3.6608195 1.6516047 4.5346231 12.75
-3.4538567 1.7825434 4.4046736 21
-3.3058529 1.7461221 4.5315199 19.25
2.2623265 1.6368906 4.5610037 21
-3.8068271 1.8270135 4.4701657 12
-3.644949 1.8579888 4.5389524 13
-3.4387267 1.9046481 4.4711504 17.5
-3.1627328 1.9422513 4.5121851 21
-4.1106677 2.08056 4.5308361 16.5
-3.8369794 2.1198814 4.5543156 13.5
-3.6688554 2.187252 4.5735173 14
-3.469527 2.1441796 4.5450263 16.833334
-3.3846884 2.0352101 4.4340916 21
-3.8250782 2.3297424 4.4980149 15.75
-4.0714703 2.460289 4.5853539 20
-3.8579068 2.4909115 4.5460005 17.5
-3.4039614 2.5925095 4.5997839 20
-3.3349619 2.4397516 4.5928831 19
0.3143065 2.5763948 4.4499378 20.5
0.74624062 2.5763435 4.5261827 22
-3.6252198 2.7216229 4.5584211 17.5
-3.2193191 2.613292 4.5350628 20
-3.17906 2.6934006 4.55511 18
-1.8744087 2.6017306 4.4760981 20
2.5653749 -0.24886198 4.620676 1
2.490664 -0.093396492 4.6508899 4.5
-3.2660789 0.098936543 4.6955538 3.5
-2.6784806 0.12509236 4.7959375 5
-2.5043588 0.02351521 4.7693157 4
-2.3713706 0.1144385 4.6364141 4
2.4780962 0.15964514 4.6210194 7
-3.4391711 0.27128583 4.6481118 4
-3.319545 0.31131071 4.6949663 4.875
-3.0889592 0.30826396 4.7179475 4.6999998
-2.6545711 0.22151691 4.6059856 6.5
-2.4576216 0.22017479 4.7788868 6
-2.3616495 0.30519891 4.6631012 7
2.5257237 0.29982311 4.6997075 8
-3.7508318 0.41572151 4.6002779 5
-3.5038483 0.52573621 4.6464672 6.75
-3.3786492 0.40522394 4.7290225 7
-3.1307123 0.52757305 4.6475224 6
-2.9484143 0.59117329 4.6600065 7.5
-2.7014313 0.51300824 4.7040243 8.5
-2.5831602 0.45408776 4.6213498 10
-2.2759066 0.5430733 4.7413931 10.5
2.5469241 0.44571081 4.6891651 9.75
-3.6101317 0.62522709 4.6490488 9
-3.5547709 0.71105707 4.6607881 9.5
-3.3441961 0.69847769 4.7599387 8.5
-3.1143746 0.72447962 4.6976337 9
-2.8734372 0.66484034 4.7647395 7.3333335
-2.4498761 0.77233875 4.7333155 9
-2.2830255 0.67501163 4.7877197 14
-2.1862607 0.74744976 4.7701869 13
2.4837556 0.71818697 4.6405449 12.25
-3.4292362 0.85061604 4.7421579 11
-3.3119698 0.9473412 4.7355976 9.666667
-3.0413709 0.99845183 4.7042904 12
-2.8520875 0.88771439 4.6899571 9
-2.7122855 0.84168112 4.6398792 15
-2.4820592 0.88382214 4.7546353 14.666667
2.5375564 0.88742954 4.7511101 14
-3.6079605 1.0305902 4.6053338 9
-3.4782991 1.1192037 4.6652465 11.166667
-3.3128357 1.1193479 4.6474652 11.375
-3.0533941 1.0469011 4.7832398 10
-2.6664188 1.1356388 4.7552423 16
-2.4414773 1.1936467 4.7835555 21
-2.2909706 1.0669123 4.7393146 19
-2.1592841 1.1336256 4.7542396 19.5
2.4230034 1.0272861 4.6533604 15.5
-3.5049102 1.285924 4.6564779 10
-3.3016245 1.2415328 4.6714401 13.666667
-3.1639676 1.3107557 4.7578769 13
-2.9228399 1.2882664 4.7578802 11
-2.6107359 1.3336766 4.6479821 21
-2.5688024 1.2600772 4.7234588 20.5
-2.3123522 1.3183714 4.649713 21
-2.1129532 1.2658215 4.7834678 22
-3.8178062 1.427912 4.6653986 16
-3.7514241 1.4053934 4.6187439 10
-3.4572432 1.4990385 4.7117653 14.75
-3.2926135 1.4523134 4.6684213 14.75
-3.0617402 1.4410886 4.65135 16
-2.8888581 1.4800016 4.7302942 13
-3.4994109 1.6229575 4.6501694 11.5
-3.2994809 1.7312602 4.7527752 15
-3.1167033 1.6733019 4.7360778 18.5
-2.8665905 1.7708453 4.7999048 19.5
-3.7834175 1.965344 4.6516485 16
-3.0817604 1.8963283 4.6907673 21.5
-3.4717104 2.0546484 4.6831656 16.5
-3.3386867 2.0409241 4.7760954 13
-3.1621041 2.0294483 4.66821 22
-3.5098016 2.3231575 4.6936464 18
-3.3972168 2.3204279 4.6689787 18
-3.9528561 2.5930781 4.6200495 21.5
-3.7635725 2.4695666 4.7018123 16
-3.1169953 2.5927086 4.7518291 18
0.74942303 2.5487025 4.6458406 21
-3.6606088 2.6450763 4.6169682 17
-3.4847682 2.6069331 4.6891174 17
-3.2373633 2.6299648 4.7173772 16.5
-3.0314772 2.645606 4.7828336 17
-2.7305784 2.604969 4.745831 20
-0.83762693 2.7165916 4.6641555 23
-1.9532249 -0.22107714 4.9008026 1
-2.4169226 -0.0087429211 4.8892751 4
-2.834919 0.088180557 4.9123168 3
-2.5516517 0.081896357 4.9127922 5
-2.2776451 0.021560103 4.8833942 3.5
-2.1319475 0.035749368 4.9453144 3
-2.8256314 0.38570604 4.9042039 4
-2.5440547 0.2799063 4.8923259 5.5
-2.3174746 0.34912363 4.8644452 9
-1.8219054 0.37927771 4.9871235 9
2.7493577 0.34321898 4.9761539 8.5
-3.3542972 0.55836892 4.9377918 8
-2.8045101 0.47991738 4.967845 7
-2.71539 0.51326638 4.8702822 6.6666665
-2.4975882 0.50901443 4.889647 6.9166665
-2.2212629 0.52187008 4.9447861 13
-1.9809679 0.48208749 4.9043636 10.25
2.7374856 0.54079336 4.985621 11
-3.1002703 0.73859018 4.9518414 9
-2.8477435 0.66619503 4.8734198 7.5
-2.6930926 0.69706708 4.8336473 8.2142859
-2.4990463 0.72083342 4.8654485 9.6999998
-2.2889469 0.67487538 4.9100385 13.625
-2.1279984 0.77006936 4.9849424 14.5
-1.9375865 0.72960395 4.9686317 13
-3.2553442 0.88327813 4.856967 10
-3.0494478 0.89149433 4.9136868 10
-2.8136663 0.925515 4.8485041 11.5
-2.6504798 0.86921269 4.8701749 10.5
-2.5103736 0.9335342 4.9252944 10.5
-2.2852378 0.81946886 4.943552 11
-2.1533139 0.97831631 4.8999372 19
-3.3059416 1.0970136 4.8798242 12.875
-3.0609443 1.1385038 4.8780327 11.75
-2.8100021 1.0281994 4.8818154 9.5
-2.7647116 1.1309509 4.8678961 11.5
-2.1281748 1.0853156 4.971036 19
2.6599672 1.0970051 4.9569163 16.5
-3.3674929 1.3377509 4.8497868 10
-3.1099277 1.2637682 4.868185 12
-2.8776357 1.300601 4.9223623 15
-2.7508252 1.3184346 4.9112158 12.833333
-2.5662656 1.2952663 4.9861965 11.5
-2.3480783 1.2507973 4.8385534 22
-1.9806689 1.3390615 4.9544468 23
2.6257715 1.373255 4.9541178 18.5
-3.0124421 1.4313586 4.8369083 11
-2.908402 1.4067838 4.9801626 17
-2.774797 1.536273 4.9058266 17.333332
-2.5980394 1.594674 4.9345846 13
-3.3533609 1.6117531 4.8025465 14
-2.9484894 1.7216756 4.9379401 17
-2.7356286 1.6141156 4.8653526 15.5
1.8446853 1.6360089 4.9184475 21
-2.8902187 1.882995 4.889451 16
-3.2464061 2.065172 4.8124866 17.5
-2.6361496 2.0994072 4.9396877 22.5
-3.7473211 2.3618672 4.8060279 19
-3.1410906 2.3119211 4.881844 22
-3.2290599 2.5406137 4.9003124 16.5
-2.6500282 2.5974774 4.9417424 19
-1.067706 2.5493505 4.9574051 21
-0.6491639 2.5731337 4.9603658 21
-3.6647048 2.684484 4.8135357 21
-3.1059887 2.6788511 4.9884748 18
-2.4906535 2.6797645 4.9775763 21.5
-1.0586199 2.6449747 4.8029356 22
-0.90711725 2.6082973 4.9550419 22
-0.6437155 2.6234217 4.8607159 22.5
2.7452281 -0.22272629 5.0400524 3.5
-2.2865927 -0.061938316 5.1451974 2.5
-2.0027649 -0.041833367 5.0666976 2
-2.2628469 0.15380818 5.1050324 3.25
-2.1240921 0.07049422 5.1178684 3
-1.8768933 0.19756334 5.1952734 4
2.7938495 0.016776986 5.0108337 5.5
2.8368831 0.14686611 5.052093 7
-2.8450944 0.37937045 5.0090656 6
-2.6830823 0.2855126 5.0310922 5
-2.4606793 0.32879269 5.1059895 5.75
-2.065166 0.2690219 5.1137509 8.666667
-1.9224193 0.29912364 5.1554346 6.75
-1.7792611 0.22136664 5.1501417 8.5
-3.0186703 0.55387336 5.0221982 5
-2.908669 0.56721318 5.0439816 7
-2.6418979 0.5280624 5.1141191 7.5
-2.0938671 0.48233706 5.0769529 11.25
-1.9679606 0.55172688 5.1547036 7
2.790875 0.46811029 5.0721197 9.5
-3.1134443 0.60075885 5.1285372 8.5
-2.8439603 0.61786866 5.0647316 9
-2.6895933 0.78955954 5.1917763 8
-2.5727291 0.69339544 5.0838423 8
-2.2977128 0.70147932 5.0945377 11
-2.0456209 0.71971172 5.1654539 10
-1.9107511 0.73061836 5.0940742 12.5
-2.8124113 0.85836411 5.0716839 9
-2.6640434 0.92609817 5.1324544 8
-2.4689016 0.84573525 5.1064405 9
-2.3512135 0.90658283 5.0477409 10
-2.0559165 0.87400216 5.0857191 17
-1.9144419 0.94696671 5.1981354 18
-2.9642866 1.1422943 5.1837964 14
-2.6252155 1.0908073 5.1381116 12.333333
-2.4735551 1.129908 5.0829 13
-2.2335076 1.0120825 5.0955896 19
-2.0527678 1.0770015 5.1090546 14.5
-1.9448581 1.0730947 5.1046886 18.25
-1.6449426 1.0635802 5.1765728 21.5
-3.0707269 1.3709828 5.0767565 16
-2.9819021 1.333559 5.0267916 14
-2.6358218 1.2674177 5.0763683 12
-2.449738 1.2673856 5.0966086 12.75
-1.9442955 1.2634736 5.1541142 21.5
-3.0568271 1.4574808 5.0753417 13
-2.4794333 1.488768 5.0996051 16.666666
-2.374728 1.5151654 5.1485891 17
-3.0032988 1.6227857 5.10606 18
-2.8811748 1.7538705 5.0414395 15
-2.6596818 1.7168382 5.0705605 15
-2.4544721 1.6692387 5.036788 17
-2.2769651 1.6493417 5.193038 13.5
-2.1405506 1.7154486 5.1604457 16.5
-2.9584835 1.9873202 5.0408821 13
-2.7043037 1.8822783 5.1220689 18.666666
-2.4650154 1.849296 5.16782 20
-2.8411493 2.1332245 5.0978613 15
-2.5800004 2.0723822 5.0188665 21
-2.8335822 2.3001122 5.1659393 16
-2.7197354 2.3405414 5.0245171 17.5
-2.5853186 2.3168993 5.1826005 18
-3.0753591 2.467787 5.0777783 16
-2.8789902 2.5415125 5.1177082 19
-2.5580363 2.4717338 5.1686974 18
-2.1325512 2.5730634 5.1826692 20
0.23205015 2.5794821 5.181602 22.5
0.5791232 2.563139 5.1093493 22.5
1.0818334 2.5490828 5.1675682 22.5
1.2670559 2.5334883 5.1531048 23
-2.773047 2.6782601 5.1737828 23
-2.5159085 2.6604199 5.0506635 18
-1.9119849 2.6099977 5.1868753 18
-1.9516265 -0.10937173 5.2790008 2.75
-1.6514088 -0.059502959 5.2884569 3.25
-2.5798833 0.19253941 5.2115769 4
-2.3366606 0.16067328 5.227562 4
-2.1261277 0.12806499 5.2887931 3.5
-1.8652813 0.020151652 5.2853279 3
-1.7546365 0.18368134 5.3032212 4
-2.5324626 0.27436543 5.2144608 5
-2.3237362 0.37293172 5.2038107 6
-2.1155629 0.33511332 5.3595476 5.5
-1.8849626 0.35576791 5.2904749 9.5
-1.7630982 0.28513208 5.3642602 5
-1.5404921 0.31969932 5.3558764 9.5
-2.3124642 0.46319637 5.3170695 6.5
-2.0555565 0.43182349 5.2546725 6.5
-1.8826672 0.52860773 5.2735958 10.5
-1.7360784 0.4711265 5.2850809 9.75
-1.4609177 0.52460784 5.2606153 11.5
-1.2813966 0.49657494 5.3228121 11.5
-2.3089356 0.73041868 5.3016291 10.625
-2.0007155 0.73419636 5.2175598 9
-1.8597771 0.66080976 5.2696486 12.833333
-2.2393274 0.85268348 5.3111286 8.5
-2.0792592 0.89276993 5.3225536 16.5
-1.8311708 0.91308653 5.3034868 9.5
-1.7399352 0.86607218 5.3178434 16.1
-1.3167717 0.88180381 5.2314343 16
-1.0695221 0.85473973 5.3550415 16
-2.2850597 1.0382603 5.259325 13
-1.6114635 1.0502697 5.3561287 12.5
-1.5480334 1.0725003 5.2898273 21.666666
-2.9397182 1.2894542 5.2072487 15
-2.4738758 1.3356664 5.2096548 14.5
-2.3352056 1.2722436 5.2496076 13.333333
-2.1011362 1.3307356 5.3608203 14.25
-1.9436426 1.2983055 5.2027712 15
-1.6755847 1.3104272 5.321876 17
-1.5464002 1.3438981 5.343719 22
-2.7314765 1.4592612 5.26964 14.75
-2.2849536 1.5233041 5.2878494 14
-2.1823258 1.480144 5.2051263 15.5
-1.5157562 1.4279592 5.330709 23
-2.3584476 1.7673986 5.3624592 15
-1.9679863 1.7111297 5.2811804 17
-1.7633755 1.6835454 5.3854909 16.5
-2.2748673 1.8858556 5.3839645 19.5
-2.0922282 1.9685836 5.2840242 16
-2.6878715 2.1369903 5.2625933 14
-2.2347336 2.047034 5.349493 21
-1.822376 2.1144354 5.382618 18
-2.2580729 2.3151016 5.3210506 17.5
-2.109302 2.2621527 5.3069391 17
-2.8272233 2.5315745 5.2038622 22
-2.1548285 2.5145853 5.2656212 20
0.30016664 2.4969003 5.3483896 21
0.60842574 2.4999459 5.2968864 21
1.3048509 2.44227 5.2770381 21.5
-2.4482019 2.6180995 5.2285485 21
-2.1170437 2.6899848 5.2151146 22
-1.9039028 2.6985891 5.3749833 17
-1.0805438 -0.02413404 5.5328803 5
-0.24298042 -0.078863464 5.5592623 4
-1.8454354 0.13766077 5.5427208 4
-1.7102084 0.11710416 5.4950504 3.5
-1.4898207 0.1205987 5.5770855 4.5
-1.1087103 0.0043447688 5.5919304 6
-2.2022357 0.31199318 5.411974 5
-1.8789864 0.32450864 5.5294418 6.1666665
-1.6733942 0.27037272 5.4581909 4
-1.3497226 0.35736778 5.5410156 10
-1.8046365 0.51546204 5.5899081 9
-1.6825323 0.50739413 5.4654155 5.5
-1.5461012 0.48082963 5.5180717 11.5
-1.3750565 0.47034577 5.5687532 7
-0.93623275 0.58745557 5.407856 13
-2.1611273 0.61297613 5.45819 6
-1.8548732 0.69994658 5.53652 9.5
-1.690509 0.72531652 5.5352464 8.666667
-1.2594452 0.73039347 5.5444288 9
-1.0975581 0.67147571 5.4542756 12
-2.1550102 0.89675027 5.472403 7
-1.668907 0.95368296 5.5089197 13
-1.5042083 0.82288134 5.4824619 13
-1.3469889 0.9558633 5.4861641 20
-2.2170792 1.0926813 5.5336018 14
-1.4476385 1.1137397 5.4893293 10
-1.2552541 1.1287401 5.5908313 12
-1.0649729 1.0857909 5.5835056 20.166668
-0.98614609 1.0874519 5.5263724 21.5
-2.2082326 1.228681 5.5237885 10
-2.0973058 1.2162598 5.5731521 15
-1.4481233 1.2397246 5.5077724 11
-1.2293229 1.3967029 5.5863657 15.5
-2.1347008 1.471738 5.437613 11
-1.8311224 1.4593573 5.4221601 15.75
-1.6877166 1.4241757 5.5080557 13
-2.0817964 1.623017 5.5065541 12.666667
-1.8782799 1.6723394 5.5098128 16.5
-1.6127918 1.752735 5.5944529 21
-1.5995848 1.6185352 5.4822721 18.5
-2.2580137 1.9391167 5.4341698 13
-2.0440717 1.8912294 5.4438663 19
-1.9166539 1.8558905 5.4658813 17.5
-1.6938874 1.978049 5.5229645 16
-2.482657 2.1304798 5.4110909 14
-1.7114575 2.1612914 5.5616245 16.5
-1.7249024 2.3630741 5.5654526 15
3.3335361 2.3614423 5.5279245 23
3.4376924 2.2761221 5.5608377 22
-2.0218554 2.5466421 5.5039673 16
-1.8678572 2.5232236 5.5355215 21.5
-1.4961395 2.5163512 5.5070791 18.875
-1.8365901 2.720449 5.5344477 23
-1.4682027 2.7372389 5.5146646 23
-0.43588811 -0.28332019 5.6694698 2
-1.4776539 -0.074652195 5.6948442 2.75
-1.3327452 -0.09346199 5.6656151 3
-1.1522992 -0.079420708 5.6752524 4
-0.77937734 -0.12631664 5.7110004 3
-1.4062078 0.15526327 5.6783257 5
-0.7611779 0.10561074 5.7817473 5
-0.57642227 0.10888891 5.7662306 7
-1.7317219 0.22901474 5.6547413 4
-1.2955178 0.24804452 5.6618314 7
-1.1028295 0.32785302 5.7260118 7.3333335
-0.88986993 0.36287391 5.6805348 8.5
-0.74386197 0.22011992 5.7901325 5
-1.6270936 0.54631019 5.7074008 5
-1.3121163 0.51201659 5.7089405 10.833333
-1.0631452 0.52284807 5.782896 13
-0.89669919 0.51976603 5.7082629 8.75
-1.4750314 0.77849603 5.6326923 9
-1.242941 0.65936446 5.6532683 15.222222
-0.91150951 0.74511963 5.714663 14.333333
-0.82761079 0.87268668 5.6948118 16.1
-1.7217811 1.1374871 5.711297 13
-1.4990988 1.0915004 5.6792068 12.666667
-1.2720912 1.0165746 5.6875582 16
-1.1864697 1.0647976 5.7717237 10.5
-0.93243825 1.0686309 5.6831923 16.700001
-1.6033781 1.2193933 5.6067247 12
-1.2978981 1.3722137 5.794148 13
-0.9201659 1.2506146 5.7174368 14.75
-1.8948325 1.5124402 5.6692901 11
-1.7201161 1.4708812 5.7062273 10.75
-1.4954293 1.573297 5.6980162 15
-1.3141804 1.5249951 5.6612663 13.5
-1.0421946 1.4732608 5.7264261 17
-0.94973624 1.4814497 5.7001276 18
-1.8716516 1.7681404 5.6976423 15.5
-1.476366 1.6026621 5.7033663 12
-1.226925 1.6277273 5.6639833 19
-1.6215886 1.9493842 5.631494 14
-1.5176841 1.8420763 5.7648373 16
-1.2821198 1.9531095 5.6597471 23
-1.0570498 1.8523016 5.76161 19
-2.2406046 2.0563166 5.66998 15
-1.6492692 2.1245224 5.6642122 15
-1.4576232 2.0079432 5.681716 18
-1.3825098 2.0369608 5.7961588 15
-1.0239141 2.0073736 5.7806816 17
-1.9272014 2.3281596 5.6191506 15
-1.5742648 2.2208929 5.6599655 16
-1.0798732 2.2091339 5.7364426 18
3.3066654 2.3220603 5.7156181 22
3.545687 2.2428882 5.680439 21
-1.689446 2.5231228 5.6204071 16
-1.3914158 2.56071 5.776865 21
-1.2315533 2.7308412 5.6353025 23
-0.81892931 -0.3640573 5.8827658 0
-0.68355435 -0.20499617 5.8907948 2.5
-0.44709799 -0.37562814 5.9315782 0
0.118094 -0.2513583 5.9224262 1.5
-0.94412899 -0.12587115 5.8308086 2.6666665
-0.71904647 -0.17887709 5.9135151 2
-0.59992713 -0.02169754 5.8039856 4
-0.35572088 -0.11160932 5.9904385 4
-0.062040061 -0.079499014 5.9396276 4
-1.2348834 0.018765235 5.8380213 3
-1.0709637 0.14725938 5.8580704 4
-0.61487353 0.17530477 5.9327612 9
-0.51485729 0.082575403 5.897151 5.0833335
-0.29016903 0.080192059 5.9746199 6
-1.275461 0.34733403 5.8190651 5
-1.0714552 0.33536285 5.957387 5.5
-0.87900615 0.31341156 5.8740606 7.25
-0.4882319 0.28453597 5.8763251 7.8333335
-0.35777169 0.29166609 5.9960966 10
-1.2882191 0.55561209 5.9544759 9
-1.087312 0.44314814 5.807445 7
-0.90111244 0.54161221 5.8785005 10.3
-0.70548981 0.46981859 5.9545412 7
-0.42985046 0.41343328 5.9436603 10.5
-0.92319191 0.72565621 5.8652067 15.5
-0.70173001 0.68732357 5.9037104 12.375
-0.40642065 0.73065233 5.984024 16
-1.0069711 0.98639959 5.8290563 13
-0.96647727 0.93462121 5.8996325 12.5
-0.72491199 0.92838442 5.9083133 10.7
-0.49699479 0.84497494 5.9547091 18
-1.3103348 1.1839243 5.8024869 12
-1.1659272 1.0062315 5.859189 14
-0.89488757 1.0853219 5.973177 11
-0.74861127 1.054821 5.8804235 13
-0.59249651 1.0632799 5.8850546 21.5
-1.3049247 1.343006 5.9519353 10.5
-1.0558333 1.3314695 5.8852506 13
-0.65364313 1.2257993 5.8380632 23
-1.8045604 1.4782124 5.8954186 18
-1.0736176 1.4858227 5.9639244 14
-0.91920578 1.5807488 5.9658127 11
-0.71783572 1.5385491 5.9595876 18
-1.6250689 1.6231928 5.9265079 20
-1.2406194 1.6640441 5.865427 13.75
-1.1031219 1.7461557 5.8387547 13.5
-0.74776703 1.7259294 5.8563256 19.75
-1.2310386 1.8364943 5.8464165 17
-1.1098144 1.9637599 5.8720913 15.5
-0.90115869 1.9337279 5.9776173 17
-0.64306855 1.8514085 5.9590273 16
-1.2502789 2.0441158 5.8708868 14.5
-1.0534153 2.0641835 5.887434 16.5
-0.65093124 2.0823915 5.933569 18
-1.6772317 2.2550278 5.9430389 20
-1.2929922 2.2116566 5.8365693 14
-1.1274582 2.21504 5.8420534 15
-1.634747 2.4358461 5.8495579 21
-1.279889 2.4618931 5.8167167 15
-1.1240368 2.5651135 5.8681722 17.5
-0.76094174 2.5784121 5.9254169 22
2.1222796 2.4102623 5.924345 22
-0.9952867 2.6498709 5.9283051 23
-0.60707414 -0.063101232 6.0211735 3
-0.52692318 -0.11872274 6.059236 3
-0.36837524 -0.10765869 6.1124291 3.5
-0.088203467 -0.076035298 6.135035 4.1666665
0.030521035 -0.075255543 6.1742449 4
-0.88142264 0.053737581 6.0061502 4
-0.68945611 0.047727041 6.0444794 4.5
-0.43585989 0.16048658 6.1236095 8
-0.30837697 0.061191641 6.1498547 5.125
0.033163577 0.10732705 6.1693697 6
-1.081203 0.31861931 6.0247583 6
-0.94744837 0.3897835 6.1104956 5
-0.75610971 0.23611459 6.0790796 5
-0.5020088 0.27369153 6.0831928 7
-0.22443944 0.31611189 6.1316547 7.5
-0.098290652 0.37673953 6.1855659 11
0.062367335 0.27265561 6.194622 7.75
-0.65618396 0.59996152 6.1721706 8
-0.49015591 0.49530604 6.1464639 9
-0.28074244 0.49671382 6.1272688 10.071428
-0.1457608 0.53766179 6.1835318 13
-0.71376717 0.71565473 6.148901 10
-0.58851779 0.6845119 6.0240984 16
-0.29790527 0.71621668 6.1477852 12
-0.9406172 0.96775526 6.063571 10
-0.67146456 0.93695927 6.0983438 7.5
-0.51025379 0.88444787 6.1054192 13.666667
-0.3307268 0.85534823 6.0891724 17.75
-0.11887021 0.89234924 6.1788616 17.75
-0.71847475 1.0779663 6.0600128 14.5
-0.43538424 1.0859649 6.0773134 15
-0.27161855 1.0831001 6.1004939 15.7
-0.17948946 1.0256019 6.1670389 20
-1.0175259 1.2643422 6.0446038 12
-0.92801911 1.2142587 6.0491762 15
-0.71428847 1.3524005 6.1248069 9
-0.51776028 1.2785617 6.1638942 11.333333
-0.29915178 1.228031 6.0547695 19.25
-0.17700589 1.2989413 6.089879 16
-0.9266907 1.5415326 6.0374513 15
-0.72435325 1.5014231 6.0926824 10.5
-0.41347358 1.5555853 6.0680599 14.5
-0.2409561 1.4906631 6.0513506 18.5
-1.4756329 1.7984377 6.0326018 21
-1.0768974 1.7470226 6.1052647 16.5
-0.49622327 1.6985036 6.178905 14.25
-1.1948509 1.8537618 6.0457997 13
-0.92342108 1.8514599 6.0627704 14.666667
-0.71301043 1.9061249 6.1111593 14.5
-0.52522522 1.8187853 6.100842 17
-0.25614986 1.814182 6.1524687 12
-0.76811135 2.1083293 6.18327 14
-0.51925075 2.104558 6.109026 13.5
-0.3221553 2.1482589 6.1543713 18.5
-0.043570578 2.1036336 6.1345282 18
3.4137657 2.1839182 6.1446977 20
-0.88930982 2.306529 6.1232018 17
-0.7359525 2.268146 6.0940256 16.5
-0.51843858 2.2910199 6.1599665 15
-0.14126708 2.2745132 6.1654034 17.5
2.2409759 2.2720988 6.0970602 20.5
2.6833119 2.2511349 6.0567789 20.5
-1.0198249 2.575572 6.0304146 22
-0.6598357 2.4493227 6.0891185 16
-0.54362363 2.5044754 6.1111712 18.666666
-0.35234866 2.5066493 6.0305128 17
-0.29196215 -0.28729865 6.2444158 0
-0.39994144 -0.022319045 6.213994 3
-0.0090385377 -0.13874902 6.3681278 3.5
0.30236357 -0.075065404 6.3540125 3.5
-0.24841458 0.10807248 6.3300819 3.6666667
-0.10058708 0.12041223 6.2269821 6.5
0.11365294 0.11653929 6.3030639 3.8333333
0.4303202 0.037815198 6.3601732 6
-0.31115401 0.29892206 6.2393894 5.5
-0.11417332 0.29752749 6.2840099 7
0.0074740946 0.24879476 6.2957811 4
0.37392887 0.25752026 6.3464737 6.5
0.43742436 0.21679793 6.3239365 7
-0.41954869 0.5581851 6.2836838 7
-0.13898852 0.52856588 6.3499928 8.5
0.1171018 0.47207877 6.2764907 8.833333
0.36831111 0.52559447 6.2407284 10
-0.7091558 0.63167107 6.2372746 6.5
-0.51287788 0.78177524 6.2068453 6
-0.34129718 0.68751991 6.24506 7
-0.12780032 0.66941845 6.2912006 6.5
0.10446057 0.69336724 6.2756424 11.5
2.6193335 0.78019506 6.3445272 11
-0.65624285 0.98514664 6.2950354 12.25
-0.27142447 0.93300492 6.3047638 11.25
-0.12522152 0.93778849 6.3022738 7.5
0.10811031 0.91936809 6.2576776 10
-0.67593759 1.090801 6.2936378 13.333333
-0.40918684 1.1014733 6.3423119 8
-0.30422196 1.1060938 6.2859454 14.833333
-0.16357794 1.040451 6.3601551 9
-0.64760625 1.2585012 6.3679438 17
-0.40713167 1.3488531 6.2280893 13
-0.26904246 1.2628824 6.2708931 13.5
0.1240828 1.2196188 6.2949486 12
-1.1183851 1.4163102 6.2070394 18
-0.85748935 1.4818287 6.2530909 12.75
-0.64012122 1.4495337 6.3348894 18
-0.50242001 1.4753435 6.2842984 12.625
-0.2799769 1.4939966 6.3388948 13.5
-0.88120502 1.6916584 6.2626829 16
-0.62657899 1.7398478 6.2361183 11
-0.26106179 1.6639196 6.267642 17.375
-0.12804896 1.7708074 6.374979 17
-1.04994 1.8369279 6.3182211 13.5
-0.55326426 1.8814427 6.2229967 12
-0.38026476 1.8422831 6.3230672 12
-0.10719329 1.9070446 6.3371477 16.75
0.12146157 1.9593471 6.3433628 17
-0.59509492 2.095355 6.2193799 13
-0.35174733 2.0959663 6.3796635 13.75
-0.030856729 2.0076678 6.3531179 18
0.10858887 2.1186504 6.2916808 18.333334
-1.1019995 2.3834767 6.2116108 21
-0.82690996 2.3133061 6.2470269 14
-0.62128091 2.2641888 6.336175 20
-0.53735614 2.3262687 6.2117543 16
-0.30897447 2.3217595 6.312242 15.833333
-0.19983488 2.3166225 6.2871809 20
0.11025661 2.2183509 6.2657623 19
-0.56780732 2.489301 6.313611 21
-0.30388516 2.5004609 6.2502198 19.75
-0.18342897 2.4459569 6.231751 16
0.1817517 2.5036206 6.2301469 18
0.2304426 2.4275544 6.3736744 19.25
0.30284196 -0.34820774 6.4833622 2
0.67201781 -0.27174404 6.5870032 3
0.51903081 -0.097975001 6.4573588 3.25
0.69470567 -0.10721209 6.5437508 4.1666665
0.11604935 0.021693826 6.4255428 6
0.57170886 0.0016755275 6.4817157 4
0.63078225 0.049607947 6.5871534 6
0.8085438 0.10885961 6.5080624 5
-0.35194665 0.25874221 6.4520254 7
0.071473509 0.23841831 6.4917865 6
0.54026484 0.25711915 6.5084167 6.2222219
-0.11964069 0.51512444 6.4879551 5.5
0.13015206 0.52071166 6.4662561 8
0.24079874 0.50596815 6.4988432 5.5
-0.092419662 0.71847218 6.5070958 7.8333335
0.10556424 0.69478083 6.505384 11
0.31288701 0.72741389 6.5776129 12
-0.22353947 0.84883952 6.4263439 14
-0.018068254 0.91731554 6.4352283 11
0.12167849 0.87314701 6.4028635 9
0.24481347 0.90698111 6.4059868 7
0.44575238 0.94374424 6.5991583 11
-0.083537884 1.0974215 6.475214 11.666667
0.10470413 1.0737712 6.4722743 12.5
0.30675381 1.0984641 6.5384102 13.5
-0.42573911 1.3501647 6.4779959 13
-0.15094042 1.2275746 6.400321 18
0.00014967119 1.3927242 6.5738111 9
0.34367275 1.2821743 6.5076575 15.5
0.47705293 1.379132 6.5041819 18.5
-0.031328879 1.4775838 6.588089 10
0.12465163 1.4560932 6.4756937 15
0.31844735 1.5695387 6.4275169 15
-0.083444171 1.6839647 6.5159793 12.666667
0.10485063 1.7223582 6.4657393 14.5
0.22356549 1.6832955 6.4902163 17
0.40255868 1.7346121 6.4649849 16
-0.41172633 1.9699228 6.4748249 14.5
-0.010775228 1.8330059 6.45081 15.333333
0.12719989 1.8489444 6.4080267 23
0.32455558 1.9456681 6.5707912 16.5
0.4177351 1.8667126 6.5162001 17.5
0.93905127 1.8198118 6.5229015 17.5
-0.10122398 2.0741041 6.5079708 15
0.022140115 2.024014 6.4738598 15
2.8391702 2.1982517 6.5216436 17
0.10710272 2.3718076 6.57584 17
0.24321237 2.2822492 6.511693 21.25
0.53652108 2.398057 6.4721699 21.5
0.66450393 2.2248876 6.544652 20
2.7594128 2.2903392 6.4049225 18.5
0.26570755 2.4930215 6.5888758 20.5
0.62872535 2.4749992 6.5731354 23
0.50544739 -0.26150158 6.7013035 3
0.43170553 -0.057761371 6.6988907 4.75
0.8256669 -0.005779285 6.7264805 4
0.49579418 0.18080167 6.7174373 6.6666665
0.72264266 0.032160502 6.6712332 4.5
0.82461047 0.14991638 6.6671352 5.5
0.29474884 0.24484316 6.6467361 4.5
0.46219799 0.30736735 6.7019134 7.3333335
0.70831257 0.37916473 6.6095009 7
0.30046415 0.51855814 6.6991153 6
0.4503929 0.44707647 6.7630043 8
0.70283931 0.51677942 6.6470356 8.25
-0.31166738 0.66075677 6.7414465 12
0.41764092 0.65311837 6.7271299 12
0.72347498 0.73901105 6.6381178 9.75
0.052780159 0.87172472 6.6430521 7
0.46792164 0.86551332 6.6719136 9.666667
