# .PCD v0.7 - Point Cloud Data file format
VERSION 0.7
FIELDS x y z intensity
SIZE 4 4 4 4
TYPE F F F F
COUNT 1 1 1 1
WIDTH 1193
HEIGHT 1
VIEWPOINT 0 0 0 1 0 0 0
POINTS 1193
DATA ascii
0.76438177 0.18979979 -3.490968 2
4.4794264 1.4802462 -3.2977507 11.125
0.64374554 1.7870294 -3.3057415 9.118
4.587976 1.6294491 -3.2301526 10.1295
4.6384392 2.1970465 -3.3876042 14.128
0.71893895 2.6214242 -3.4084573 12.281125
0.89643598 2.7326365 -3.3214006 13.124
1.9134015 2.7943017 -3.4968717 22.465834
2.1579213 2.7527101 -3.3937988 22.131001
2.618135 2.7667124 -3.348953 20.414499
3.0235734 2.7932773 -3.3260777 16.348278
3.4024272 2.7861934 -3.4084165 16.838858
3.7911937 2.7732358 -3.3676417 16.791945
4.2446494 2.7622929 -3.4115365 14.123917
4.6098213 2.7256589 -3.399965 15.760591
5.0793476 2.7091343 -3.5810831 16.127001
0.66315633 2.967953 -3.5295594 14.12875
1.0581064 2.9578209 -3.4642498 13.956082
1.4042253 2.9282575 -3.3258271 13.690786
1.8261102 2.8577583 -3.4130411 17.000031
2.1575925 2.8583043 -3.3229196 16.483427
2.6148 2.8401577 -3.367415 15.527951
2.8962965 2.8321519 -3.4583001 13.62475
3.4173269 2.8617401 -3.4570529 17.461166
4.0310154 2.8013356 -3.3669448 13.125
4.7099233 2.8172238 -3.5327244 16.129
4.8743224 2.9011726 -3.5983758 17.127501
0.2795563 0.20160593 -2.9318516 2
4.5167818 0.26876718 -3.1405454 4
4.5112119 0.64996725 -3.0937448 6
3.8825679 0.95125437 -2.963599 8.1297503
4.3527813 0.9519769 -2.8542666 8.1000004
4.474762 1.1041081 -3.1100211 8.8137493
0.25445423 1.3969198 -2.8514764 7.8196111
4.3542008 1.3789285 -2.8385584 10.396833
4.4853706 1.4800857 -3.0629864 11.374001
0.28135708 1.7457761 -2.8375902 9.5281105
0.47980753 1.8071451 -3.0618451 9.1184998
1.4744139 1.6460488 -2.8368325 9.1254997
4.3246984 1.993925 -2.8137279 14.127
4.4824286 1.8759789 -3.0842016 13.34275
4.3974681 2.3115497 -2.9163234 16
4.4678273 2.2470195 -2.9136384 14.419167
0.33873814 2.6383431 -2.8167872 13.12225
0.57124436 2.5239868 -2.8661382 13.12475
0.86981511 2.4915619 -2.9996591 12.622499
2.5826678 2.7792509 -2.9638667 20.375376
3.002301 2.7794039 -2.9962857 17.681664
3.4105656 2.7709537 -3.0313764 17.588465
3.8506896 2.755795 -3.0280533 15.875312
4.2253046 2.7175436 -2.9864616 16.679314
4.4735155 2.6655748 -3.0395241 16.845875
5.0156999 2.6581144 -3.1504405 12.11725
5.4766788 2.6185656 -3.0735741 11.61625
0.68539941 2.9645541 -3.1441581 14.059
0.85338223 2.9547477 -3.1810265 14.12275
1.8720889 2.8886662 -3.0669312 14.875124
2.2373416 2.8593581 -2.985106 16.804073
2.5968611 2.8370869 -2.9220531 16.551731
3.0099432 2.86167 -3.0073676 18.76573
3.3507533 2.8718889 -2.9005327 19.629168
3.8697104 2.8156524 -2.9465392 19.624376
4.3244486 2.8630741 -2.9449718 17.128599
4.402986 2.8612709 -3.0137627 16.129
-12.255059 3.402971 -2.8471017 9.0179996
-1.732972 0.36788833 -2.7063911 2
-1.8832129 0.45344049 -2.686857 3
4.2142816 0.70955062 -2.6160915 7
4.2088761 0.9720391 -2.5483449 8.5661936
-0.11784658 1.2773373 -2.410301 7.5
0.035704762 1.3019303 -2.6139004 7.4000001
4.2581549 1.4116887 -2.5776432 10.90055
0.15542974 1.7838911 -2.6898165 9.833333
1.2141263 1.6198112 -2.5754786 10.126
4.2482276 1.7830092 -2.5294125 13.250999
-0.004907459 2.3358479 -2.4312909 12.12
0.26820922 2.2254317 -2.7140505 11.7085
4.2718887 2.1794603 -2.5358853 15.707777
4.4230962 2.2107787 -2.7588215 14.814
0.11536522 2.6119881 -2.4816954 13.872875
1.2544391 2.607161 -2.4963393 14.126
2.1734233 2.7929392 -2.5491793 14.113
2.6922734 2.7761877 -2.5730867 16.498749
2.9859123 2.766778 -2.5536554 18.749853
3.3958991 2.7551279 -2.6120043 14.512166
3.8105092 2.7528524 -2.608849 16.595118
4.2435946 2.6537733 -2.5688255 16.052876
4.4311166 2.6678958 -2.5048234 14.1215
-12.084059 3.1393108 -2.6527367 8.0185003
0.20722379 2.9442806 -2.4943259 15.372625
0.59866774 2.9678469 -2.5944245 15.499374
0.99791741 2.9302299 -2.5919368 15.793666
1.3020488 2.8914516 -2.6225941 14.95425
1.7877226 2.8728378 -2.6012785 15.839072
2.2379701 2.8855302 -2.5928664 18.925499
2.5889046 2.8570902 -2.587172 19.476791
2.9706039 2.8523531 -2.5935507 19.628958
3.402173 2.8407896 -2.6433754 19.436077
3.7648551 2.8386467 -2.544786 20.0271
4.2121305 2.8636942 -2.5797958 18.100901
-11.991717 3.3571093 -2.7070968 9.0185003
3.9440224 0.2210907 -2.1736269 4
3.9502494 0.59481835 -2.1466377 6.8333335
3.9454427 0.95208424 -2.1446567 8.7982998
4.0632839 0.98584455 -2.2460957 8.5947495
-0.20368934 1.4149451 -2.0808401 9.1269999
0.36759371 1.2359369 -2.143775 8.1285
3.9340436 1.495893 -2.0672514 12.7485
4.077879 1.4350659 -2.2660728 10.585167
-0.17886695 1.7266666 -2.2689631 10
3.9883442 1.8965164 -2.1889687 15.1195
4.0906501 1.8461746 -2.1886158 13.626249
-0.2030576 2.1771784 -2.1689756 12.080501
3.9342782 2.1521661 -2.0194352 16.123667
4.0625453 2.1658044 -2.1296389 15.969
-0.057381243 2.504478 -2.3433788 13.5
0.80559558 2.4566064 -2.0069475 15.127
1.2165973 2.7799835 -2.3769307 15.126
2.782419 2.753844 -2.0754542 14.117
3.0178468 2.7754095 -2.2637906 19.202385
3.3823795 2.7479668 -2.2139008 17.741293
3.8024459 2.7544227 -2.2216337 16.662348
4.1124949 2.6342103 -2.2530837 17.929564
5.1488733 2.5989995 -2.320323 12.1155
-0.071435541 2.9032586 -2.2444966 15
0.20272565 3.0168121 -2.1238632 16.373001
0.64783102 2.9795768 -2.2129383 16.122402
0.93616134 2.9454842 -2.1852739 15.9213
1.44338 2.899132 -2.220612 16.3232
1.8388764 2.8820908 -2.1608064 16.2925
2.2442007 2.8920527 -2.1315694 21.58559
2.6057527 2.8703694 -2.2762704 20.128912
2.952903 2.8435094 -2.1939728 19.927799
3.4006286 2.8541269 -2.242748 20.30891
3.7207263 2.8269198 -2.1688249 19.852909
4.1043591 2.8471091 -2.1601021 19.105167
3.6768334 -0.10335758 -1.8197695 2
3.8100088 0.17577569 -1.8378081 3.9583333
-1.7919637 0.49607629 -1.7457354 3
3.7743335 0.61338633 -1.7699636 7.0850997
-0.49254492 0.86942929 -1.7905903 6.1111112
3.1501894 0.87091464 -1.6803939 9.1277504
3.8260143 0.98152143 -1.8108549 8.9911509
-0.54197091 1.2758327 -1.7028762 8.53125
-0.27092442 1.4400591 -1.7724074 9.4747229
0.23714381 1.3803124 -1.7951462 9.1287498
0.52144057 1.3894973 -1.8271929 9.4609995
3.1245034 1.2560803 -1.6990942 11.461333
3.7914627 1.4020901 -1.7471403 12.124863
4.0178127 1.4429307 -1.9832511 11.1265
-0.45359239 1.7327449 -1.7690213 10.5
-0.30260551 1.8177227 -1.8402115 11.500601
0.45222276 1.6416579 -1.8063817 11.128
3.8724818 1.7677513 -1.8167 13.387364
4.0359912 1.8026242 -1.9581072 13.1265
-0.32067883 2.3647084 -1.6739087 14.6275
3.8774006 2.1533983 -1.7915809 15.735437
4.0077395 2.0980957 -1.9011742 15.5
0.6187942 2.6596203 -1.7143444 16.122501
2.6185734 2.7837467 -1.8042464 19.125389
3.0025263 2.7578623 -1.7089727 17.50746
3.4175985 2.7472646 -1.8122727 17.720633
3.8315721 2.6214001 -1.7738242 17.979548
4.2986827 2.6776116 -1.6758952 14.116
-12.758482 3.0967183 -1.7823864 8.0205002
-1.4731884 3.0492277 -1.7226574 16.62575
-0.20345493 2.9468138 -1.8101933 16.52335
0.18625024 2.9772496 -1.7805459 16.869312
0.58552969 2.9746959 -1.7866948 16.9216
1.0071142 2.9385962 -1.8384238 17.767748
1.3942379 2.8980317 -1.848029 17.488636
1.8362793 2.8790975 -1.8183186 18.232132
2.2020428 2.8603992 -1.7828809 18.460798
2.5542886 2.8306844 -1.7541329 19.656677
3.0149786 2.8391643 -1.8411837 20.270086
3.3473871 2.8279991 -1.8138198 20.127317
3.752949 2.8366475 -1.8084444 19.625463
4.034596 2.81409 -1.9053291 20.123501
-12.1593 3.4903338 -1.8473918 9.0200005
-11.313333 3.3561838 -1.7328198 9.0200005
3.4191284 -0.025891576 -1.2416093 2
-0.96879447 0.23364872 -1.3181784 2
1.3717813 0.071706958 -1.3663713 4
3.5196955 0.25460318 -1.3700091 4.5
3.6144462 0.070195585 -1.3335265 3
-2.1313753 0.49473447 -1.5179141 3
-0.97478449 0.49806315 -1.3928568 3.5
3.1598716 0.6948595 -1.4464831 8.12675
3.5109243 0.65677285 -1.3688571 7.6507988
3.7102225 0.75314558 -1.462285 8.1219997
-0.94515026 0.89377433 -1.4568279 6
-0.77769578 0.94103223 -1.5920098 6.25
3.5080745 0.94997358 -1.3923249 9.1880836
3.6971908 0.9941839 -1.4680269 10.273911
-0.94003379 1.2342643 -1.3724935 7.8888888
-0.64756435 1.358902 -1.4864563 9.4619999
0.12809414 1.4994403 -1.4618678 11.129
3.1122177 1.5586877 -1.2919192 14.1265
3.508189 1.3181055 -1.2964259 11.929833
3.6793067 1.413232 -1.3980932 13.315872
-0.95970142 1.7134184 -1.2707868 11.37375
-0.65431738 1.7638773 -1.4707336 11.508778
3.5624213 1.8337834 -1.2847474 16.5972
3.6894245 1.7752285 -1.386487 15.570992
-0.86573589 2.3744938 -1.2301548 14.75
-0.56464088 2.2989202 -1.4123373 14.5645
0.24025857 2.3119464 -1.4877009 15.12875
3.7051408 2.1471238 -1.4223642 16.889816
-0.61243033 2.5269105 -1.3871437 15.542999
0.22888809 2.555357 -1.4005611 16.62875
1.5179702 2.7173452 -1.492583 16.114
1.8319974 2.7092805 -1.448715 16.112751
2.31516 2.7655816 -1.2050362 16.117001
2.5919075 2.7917352 -1.2920817 18.1241
3.0414577 2.7631812 -1.3868216 19.458166
3.3993912 2.7221246 -1.3651589 19.393482
3.7130744 2.5855939 -1.4137595 18.861855
4.1992302 2.6913395 -1.4061426 14.115666
-12.620408 3.0982115 -1.4683802 8.0209999
-0.52072561 2.9120173 -1.3234177 17.9259
-0.1612685 2.9557037 -1.2968485 18.528301
0.23739859 2.9318881 -1.33023 19.879749
0.61886686 2.9170051 -1.3844049 19.414951
0.96386856 2.9094141 -1.3807238 18.791515
1.4283285 2.8750892 -1.3664653 18.596294
1.8018587 2.8574076 -1.3303778 19.126999
2.2007792 2.854461 -1.3661875 20.549671
2.5808942 2.850755 -1.3923351 20.288
3.034492 2.8568659 -1.387699 20.461134
3.3932154 2.8441596 -1.3939115 19.855091
3.6523299 2.8675122 -1.4380349 19.7265
-12.277134 3.3990459 -1.5736022 9.0200005
-9.7836523 3.3084543 -1.2722785 10.019
2.9582074 -0.084199443 -0.94807988 1.5
-1.046297 0.21749473 -0.94222236 2
1.1740435 0.077535465 -1.0283613 4
3.176476 0.062186006 -0.82136512 3
3.3569679 0.19162604 -1.0553967 4.416667
-2.259928 0.47916371 -1.1593401 3
2.7853997 0.69414538 -0.90228009 9.1254997
3.3879974 0.67949009 -1.0218951 8.3964062
-0.97739315 0.83670843 -0.81724215 7
-0.30747753 1.0974807 -0.93072987 9.1304998
3.3999121 0.9701888 -0.98107225 10.520514
-1.2135435 1.2070079 -0.87344337 8.625
-1.0363152 1.4372253 -0.98472899 10.526701
-0.30032068 1.2505355 -0.94887924 10.1305
3.0142212 1.4156771 -0.85888577 14.12475
3.4029083 1.3814453 -0.96675324 13.9778
3.6139979 1.2761617 -1.1714035 13.122
-13.227361 1.7276759 -0.97531605 5
-1.2367827 1.8019035 -1.1191123 12.125
-1.0776621 1.7626429 -1.1089393 11.791
3.4322999 1.8395945 -0.94904149 17.352932
3.6358943 1.7408113 -1.0321137 16.120001
-1.0689296 2.2995217 -1.0375372 14.791167
3.4795074 2.2281818 -0.97352749 19.290016
3.6210747 2.2307444 -1.1736683 19.618
-0.82485998 2.5891523 -1.0297368 16.123501
1.5370153 2.7953825 -0.91549051 18.116249
1.836972 2.7927988 -0.93638134 17.918201
2.1669745 2.783257 -0.94699401 18.3218
2.6524279 2.7330565 -1.0264769 18.030136
2.9692297 2.7334075 -0.98060036 18.212547
3.4343565 2.6640937 -0.9662227 20.25128
3.6215792 2.6884131 -1.102556 18.626499
-13.177982 2.9040101 -1.0245795 8.0214996
-1.7531543 2.8773785 -0.97724462 17.127501
-1.0232767 2.9658275 -0.90188837 18.357143
-0.62297958 2.9565675 -1.0558488 18.772917
-0.15414667 2.979321 -0.91332656 19.54871
0.22734031 2.9368408 -0.979074 19.976225
0.6076256 2.911283 -0.96818644 19.527998
0.99353307 2.8947194 -0.93919051 20.318684
1.3680006 2.8634255 -0.91370076 19.373749
1.8456343 2.864903 -0.98341185 21.253407
2.1898031 2.8624651 -1.0010037 21.091185
2.589005 2.860539 -0.95418513 21.778273
2.998894 2.8508186 -0.99494439 20.891853
3.4103653 2.8289518 -1.0011753 20.293293
3.6308115 2.8961523 -1.1629816 20.125999
1.6395569 -0.036891121 -0.57414383 1.5
2.2371781 -0.10587488 -0.65553868 1
3.0684106 -0.025476629 -0.57902342 2
-0.20637986 0.097597994 -0.42433572 2
1.3933163 0.032792259 -0.43587807 3
3.1261985 0.23513742 -0.57347208 4.6190476
3.2292562 0.30212462 -0.71990442 4.375
-0.48098037 0.59690726 -0.52573329 19.783134
-0.3786785 0.47098795 -0.68777132 16.810232
3.124917 0.65178668 -0.6013248 8.5753975
3.2832034 0.68691283 -0.73075914 7.8601112
-1.3783723 0.87473434 -0.58987689 6.8000002
3.1142526 0.99614257 -0.57853132 11.396754
3.2591372 1.0502089 -0.6437062 11.278125
-1.337178 1.252641 -0.59826875 9.2857141
-0.96511233 1.3128886 -0.75282264 10.13025
3.1250942 1.3870941 -0.51519722 14.717064
3.2887182 1.4165659 -0.63936555 14.012938
-1.3647795 1.6140633 -0.47862267 11.96325
3.1388495 1.7464643 -0.49006781 17.645821
3.2842641 1.7962781 -0.61151451 17.318054
-1.3359426 2.2913826 -0.53911835 15.834
-1.1055434 2.3314259 -0.52604795 16.125
3.1541119 2.1911047 -0.51070356 20.931709
3.3316092 2.1942027 -0.64306074 19.762953
-1.2615113 2.7345653 -0.65053463 17.62575
-1.016054 2.4520035 -0.76756787 16.1245
1.8787298 2.7702208 -0.52741992 20.120501
2.2373843 2.7661717 -0.58821684 19.021048
2.6004229 2.7628996 -0.57470638 19.39764
2.9810395 2.7510581 -0.59361917 20.122805
3.3281791 2.6120071 -0.61108565 21.845633
-1.2419304 3.0550139 -0.54640841 20.125834
-0.95116544 3.0354583 -0.58253527 20.377937
-0.59996843 3.0077314 -0.68824953 20.314501
-0.19888639 2.9613335 -0.56934172 20.854225
0.22894208 2.9418943 -0.63326502 21.002562
0.6324892 2.912854 -0.63137478 20.571556
1.0355901 2.8836765 -0.64522088 21.125692
1.365429 2.8754547 -0.62995642 20.625834
1.7512981 2.8701203 -0.64653814 20.376625
2.2015297 2.8280742 -0.65079951 22.017584
2.5904355 2.824208 -0.66763985 21.762545
3.0172889 2.8699646 -0.6300292 21.627062
3.278548 2.8627806 -0.61576009 20.793192
-13.664966 3.3163724 -0.42939854 9.0179996
-10.704327 3.3191369 -0.64558387 10.021
1.504517 -0.0313209 -0.15867011 1.75
1.7438582 -0.042985804 -0.16005737 1.5
2.0960088 -0.045864075 -0.13706301 1.7777778
3.0654662 -0.017976822 -0.24795644 2
-0.65870243 0.36411828 -0.16529955 11.941001
1.1439424 0.037685826 -0.25871372 2
1.3081632 0.037148204 -0.066314697 3
2.955663 0.16461448 -0.22277924 4.5185442
-0.83578372 0.48795363 -0.067440987 9.0092497
-0.65141296 0.62169105 -0.1970381 18.935148
2.7818978 0.62826329 -0.045859993 8.1222496
2.9517043 0.63402611 -0.21557829 8.4811325
-1.8023648 0.85854363 -0.20832038 6.791667
-0.56798214 0.81003398 -0.37903118 23.011999
2.7847538 0.9058494 -0.038800478 10.1175
2.9557376 0.96654373 -0.19456019 11.260049
-1.7527789 1.2206125 -0.2069819 9.416667
2.5197935 1.2987999 -0.005825758 12.12
2.9991508 1.4242979 -0.21892411 15.225935
-1.7600071 1.7597775 -0.088081598 13.31425
-1.4961512 1.6864717 -0.32473385 12.720125
3.0060191 1.7954165 -0.19369712 18.148546
-1.6776806 2.0836651 -0.055780649 16
-1.4717346 2.287683 -0.23253401 16.675499
2.9988039 2.1608982 -0.17326261 21.535931
3.2271051 2.2163832 -0.33184937 20.4545
-1.4534378 2.6607707 -0.14086838 19.301899
-0.91956264 2.7697539 -0.17076015 22.134001
1.8613344 2.7820158 -0.1890285 21.456247
2.1937902 2.7676392 -0.12787414 21.286165
2.6854832 2.7825079 -0.23634002 20.724201
3.0701909 2.6426466 -0.19552886 22.185028
3.2192986 2.5634267 -0.38322949 22.413666
-7.7719913 3.1866241 -0.11083388 13.02
-1.3516921 2.9836981 -0.17161314 21.038849
-0.96721286 2.9264901 -0.17488682 22.131601
-0.60174882 2.926749 -0.23824497 22.331549
-0.20158637 2.9079227 -0.12633991 22.879873
0.28087217 2.8730662 -0.13608463 22.600454
0.57886279 2.8406167 -0.17673303 22.056963
0.98357314 2.8523977 -0.23816881 21.397455
1.3935125 2.8415122 -0.22499983 21.62505
1.8066795 2.8546796 -0.19957766 20.518002
2.225786 2.8351746 -0.1452399 20.454334
2.7041225 2.801652 -0.30870116 23.125999
2.9101937 2.8293197 -0.26022249 20.955875
3.257607 2.8174129 -0.28119445 20.126499
-11.55248 3.4191554 -0.2762084 10.017
-10.822609 3.2349913 -0.37025785 10.021
-8.5599737 3.2238615 -0.20593524 12.02
1.5976096 -0.047963079 0.33446875 2
1.8119942 -0.046307344 0.22760746 1.75
2.0319116 -0.031291299 0.15695237 2
2.587002 -0.059537858 0.23327962 2
2.8935044 -0.049109481 0.10093105 2
-0.90851408 0.33987385 0.28308484 10.48976
-0.77818549 0.37312779 0.14091843 10.76225
1.0238726 0.010064647 0.17898443 3
1.3003732 0.01373296 0.055977464 3
2.7255018 0.17481257 0.22805007 4.5148149
2.8526032 0.18342687 0.14271413 4.662879
-2.0992167 0.51245904 0.035320837 4.2222219
-0.92409718 0.59581488 0.2633301 16.602839
-0.76145399 0.61676466 0.10368577 17.957834
2.7143962 0.61966813 0.27287012 9.0672979
2.8572755 0.6046865 0.11329374 9.04004
-2.0645909 1.0158646 0.017556667 7.75
-0.92339432 0.94574517 0.28754836 20.749046
-0.75976998 0.8834222 0.16579852 22.595728
2.7291868 0.99360299 0.29306436 13.014373
2.8697362 0.99391407 0.19484851 13.39435
-2.0023167 1.4469483 0.027127504 11.13
-1.0116006 1.3934646 0.30017275 23.01075
2.6868091 1.3952531 0.25266948 15.686263
2.8710148 1.3845867 0.19620165 15.529928
-1.6797752 1.987844 0.04482007 15.1285
2.7123449 1.7893803 0.25020212 19.19421
2.8763022 1.7927783 0.15904713 18.525625
2.7414691 2.0722558 0.27380034 22.131552
2.8892357 2.1867242 0.17961296 21.109678
-1.7728188 2.6035392 0.1988503 19.511333
0.99929982 2.7775948 0.23315586 22.120428
1.4464476 2.7864745 0.16911194 21.836142
1.8609731 2.7574642 0.18287447 22.193605
2.2147288 2.7351685 0.18232062 21.850424
2.5915999 2.7423294 0.21693605 21.661249
2.9048512 2.628294 0.17820932 22.309536
-7.6656036 3.1752167 0.19454598 13.02
-6.6492248 3.1635151 0.2976079 15.013
-1.7121578 2.9429233 0.24600065 21.462584
-1.4681919 2.9146667 0.17786331 22.304901
-0.97746015 2.9573503 0.12797344 22.753124
-0.60471344 2.9547484 0.22475237 23.013943
-0.18681256 2.9139626 0.15970066 22.838247
0.21315332 2.9211955 0.1648335 23.02215
0.56925911 2.8465483 0.19715726 22.78879
0.96593392 2.8306975 0.2049361 22.903389
1.4025308 2.8230214 0.059845828 22.725901
1.6565969 2.8173599 0.23397911 23.12525
2.1609633 2.8118696 0.076531649 20.619251
2.5976374 2.8320186 0.23495632 23.126436
-11.424001 3.3306785 0.043231249 10.0175
-9.9339066 3.3455513 0.35174918 11.012
1.4204916 -0.060677379 0.66159391 1.6666666
1.7420053 -0.028752355 0.65359324 2.4444444
2.5952768 -0.028314488 0.57777476 2
-1.0818385 0.33420381 0.60402381 10.135039
-0.39723501 0.13091156 0.43834186 2
0.14000848 0.075054608 0.45204067 2
2.3669329 0.21170932 0.71523786 5.3571429
2.5471258 0.18414094 0.58527452 4.6468253
-1.2309469 0.59488428 0.67043817 12.62971
-1.0778956 0.60846734 0.60530466 17.728464
1.8932277 0.4640255 0.54188025 9.1184998
2.3271194 0.54472524 0.74168944 9.4456167
2.5645797 0.59867162 0.59418297 9.7700825
2.8277075 0.6655094 0.48040733 8.1173334
-1.258006 1.003864 0.72628629 18.420376
-1.0873086 0.94685227 0.59222198 20.705708
2.3522549 1.0099885 0.67717648 14.360563
2.5956388 1.0007733 0.61356831 13.904266
-1.2672944 1.2833215 0.73860717 21.096001
-1.1256893 1.420926 0.61338842 23.011375
2.3853717 1.4099263 0.75229025 17.122
2.6275952 1.3835758 0.6333189 17.261368
2.8217235 1.3568661 0.478497 14.463125
2.6403925 1.8174647 0.60932183 20.492643
2.8190956 1.7185527 0.47170106 17.660084
2.6454673 2.1535332 0.61486173 21.736233
2.8467069 2.2467635 0.45713001 21.122
-10.578169 2.6948197 0.54555249 9.0244999
-6.7028322 2.7924263 0.75595713 14.0145
-5.5423422 2.5167575 0.73441958 15.0195
1.1042106 2.7773998 0.45224345 22.6185
1.4532745 2.7552636 0.60741246 22.83334
1.7934808 2.734911 0.52130425 21.784611
2.1725636 2.7153449 0.58433568 22.495438
2.6298325 2.67748 0.58699274 22.708088
2.867517 2.6119852 0.49910292 22.620876
-13.976021 2.9933012 0.69348621 8.0200005
-6.811255 3.1710787 0.7113719 15.0145
-6.7156167 3.1824942 0.59774226 15.347333
-5.5410423 3.0912149 0.79242945 17.0175
-5.0101495 3.1737907 0.75077391 19.018499
-2.1411169 2.983588 0.67312837 22.465792
-1.8772541 2.9801843 0.50106716 22.297333
0.66393548 2.8540699 0.4211694 23.11825
1.021493 2.8175461 0.50659502 23.1194
1.2615023 2.8021016 0.42081118 23.127001
2.7047973 2.8226328 0.50032687 23.12475
-9.6434479 3.2251744 0.5537169 11.024
-7.568172 3.2399294 0.52162242 14.015
-6.4808502 3.2226114 0.64226496 16.01375
-6.1823301 3.2858875 0.57150459 17.013
0.25981477 -0.0078749666 1.1645038 2
1.0891886 -0.071949795 1.0937765 0.75
1.3784095 -0.066825904 0.9769451 1.6904763
1.6965656 -0.053321522 0.94816661 1.5
2.0604963 -0.054939337 1.0681193 2
2.4416018 -0.064672083 0.8093949 2
-1.3169461 0.34206584 1.0268619 10.110349
-1.1938461 0.32397044 0.8650136 9.5322495
-0.57084548 0.055041291 1.1806684 3
0.054687347 0.025268354 1.0477116 3
0.62460613 0.019066235 1.0965601 3
2.2098684 0.27191094 1.0456426 6.6122327
2.4425936 0.27413288 0.91204828 6.0186667
-1.2913477 0.59723395 1.0095394 16.539051
-1.1674383 0.63946843 0.85641325 18.503111
0.79547745 0.64638954 0.83768582 9.1210003
1.9193386 0.6522451 1.0465243 10.8931
2.2299109 0.59692496 1.0409507 10.286985
2.4572961 0.62479508 0.90604562 10.171378
-1.3310485 0.975568 1.0126487 20.994947
-1.1764867 0.85455793 0.86227107 21.940943
1.9021068 0.97807997 1.0722945 13.058937
2.2864189 0.98238087 1.0527781 14.40898
2.4754577 1.0297499 0.93834609 14.513597
-1.3860402 1.3154773 0.99045438 22.04925
0.54068416 1.4187846 0.97459126 17.122499
0.82093668 1.2547234 0.99853754 14.6205
1.8701919 1.4600086 1.1549449 17.867563
2.3200746 1.3536627 1.0829817 17.798044
2.4828789 1.3693932 0.96602309 17.904924
0.58669585 1.8930755 1.1572111 21.62175
1.8553648 1.6251594 1.0124285 19.1185
2.3505669 1.8211826 1.0891936 21.063589
2.4999866 1.8067015 0.99916583 21.794607
2.3468909 2.0316668 1.1047852 23.118
2.5223327 2.1346011 0.921803 22.453375
-10.55864 2.619513 0.83842731 9.0244999
-6.6211886 2.6637077 1.0992985 14.0155
-5.4394069 2.5019412 1.0461686 15.0195
1.7205179 2.7212856 0.86443722 23.015802
2.1790431 2.7007678 0.94347519 22.617584
2.6206841 2.5028851 0.88197672 22.518999
-9.6262732 3.1538565 0.85313487 11.024
-8.794858 3.1513619 1.149271 12.0235
-7.0915847 3.1946609 1.0774665 15.016
-6.0050445 3.1641786 0.83115268 17.0135
-5.9378147 3.1164267 1.0842983 17.01425
-5.3015027 3.0959892 0.99738193 18.02
-4.9080195 3.1485488 1.1214095 19.681
-4.415493 3.0481105 1.066123 21.018499
-4.2935696 3.0768669 1.0129858 21.01
-3.9719012 3.0344992 1.0924864 22.009251
-2.4005561 3.0336816 0.92705655 23.134501
-2.2855856 3.0246258 0.86225295 22.800417
-9.2606049 3.2185342 1.0674083 12.025
-8.5636749 3.2178938 1.0533733 13.018166
-0.9694494 -0.021118982 1.4948351 1.6
0.69773877 -0.052140187 1.4629251 0
1.005729 -0.061291702 1.4387904 1.2
1.4131843 -0.056526065 1.4438825 1.4772727
1.798559 -0.084881291 1.3787427 2.5
2.0780077 -0.070587851 1.3332531 3
-1.6325241 0.34383884 1.5387154 8.7013569
-1.4786345 0.33298543 1.3644311 9.199852
-0.061578661 0.03928297 1.2776496 3
0.1264573 0.022058826 1.2646067 3
0.48925149 0.019622022 1.3342258 2
1.9094068 0.24776891 1.4246888 6.6543646
2.0795734 0.28893214 1.3284415 7.155344
-2.9905069 0.77159411 1.3900967 9.0124998
-1.7423819 0.60123277 1.4863976 11.72519
-1.474973 0.59187269 1.3837976 15.71429
1.9318925 0.60296661 1.4681503 11.103387
2.1313307 0.62489706 1.3404469 10.636738
-1.7308773 1.0332717 1.5209967 18.604422
-1.4892135 0.93536997 1.3889631 21.38549
1.5773617 0.80948943 1.5769422 16.10775
1.9266809 0.98196775 1.5059606 15.61808
2.1354735 1.0165595 1.3773781 15.169265
-1.7352574 1.3143288 1.5407655 21.7565
-1.5182317 1.3342334 1.3255517 22.568583
1.8962928 1.3326441 1.4898055 17.613518
2.1782303 1.3954139 1.4188966 18.980469
2.4098885 1.2093949 1.2705858 16.116249
-6.0310497 1.9278466 1.3520799 12.0155
1.9367843 1.7488322 1.5117118 20.61775
2.2619798 1.7843639 1.4138595 22.000401
2.423178 1.7581509 1.2699797 22.016144
-2.2701778 2.0692232 1.5847697 23.009501
2.1887131 2.1059442 1.3705925 23.12075
-14.204946 2.7975767 1.5356975 8.0214996
-9.1753006 2.7870317 1.416851 11.0245
-6.6861587 2.6369069 1.3789682 14.0165
-5.8897924 2.4701955 1.4287457 15.0155
2.2957432 2.4469974 1.2036448 22.118999
-9.3406944 3.1517658 1.383613 12.025333
-8.8666611 3.1495667 1.4235409 12.025
-8.6749735 3.1493614 1.5788751 12.0245
-8.3147278 3.1377153 1.431463 13.0235
-7.7427697 3.1278598 1.4098516 14.024834
-6.5095363 3.1116555 1.3884654 16.3545
-6.1383753 3.1093102 1.3597794 17.02375
-5.9136047 3.1121769 1.3790469 17.515249
-5.0462804 3.1201065 1.3800532 19.349001
-4.6463065 3.0135713 1.4328338 19.518
-4.18959 3.0254676 1.4001278 22.123194
-3.4660902 3.0268683 1.2619232 23.01375
-1.0043299 -0.020749664 1.7621692 1.8333333
-0.58511949 -0.024722014 1.7412021 1.5
-0.045007359 -0.049155228 1.7439712 1.3333334
0.23103334 -0.049498305 1.8053592 1.5555555
0.60449499 -0.059409745 1.7688593 1.25
1.0231823 -0.10491123 1.831257 1.0357143
1.3618898 -0.0604642 1.7656544 1.9166666
-8.0934019 0.29774386 1.9930859 2
-2.053628 0.37758976 1.9217548 8.0183754
-1.7346063 0.34871671 1.7943784 8.6223564
-1.5219592 0.20164672 1.672081 6.5219374
-0.92728233 0.054213539 1.711578 2.5
-0.22040951 0.026239613 1.8948649 3.2222223
0.13395901 0.026150879 1.8134201 2.5
0.53149903 0.044097766 1.6110612 2
1.4150889 0.21660781 1.922819 7.5776253
1.7547438 0.27782804 1.8145448 7.3086162
-3.714638 0.79945481 1.8870715 9.0124998
-2.1024582 0.63422394 1.8755404 11.409076
-1.7557436 0.59069675 1.806789 13.33685
-1.5700582 0.63321471 1.6509155 16.277479
0.28563887 0.55946863 1.9297634 11.619625
1.4319859 0.64014846 1.9079136 12.905061
1.7795709 0.58691257 1.8230252 11.265082
2.1322968 0.57289374 1.6571717 9.7814713
-3.6737378 1.1100501 1.7964836 11.51175
-2.0806916 1.0059204 1.8111789 16.853697
-1.7883984 0.98675108 1.8298862 19.925726
-1.5808461 0.88304478 1.6672055 21.095114
0.24224883 0.94986808 1.9785504 17.620001
0.46156126 0.97839314 1.9122727 17.1185
1.4493736 1.0528492 1.8877271 18.777666
1.8333989 0.99581903 1.8031055 16.161133
2.1298945 1.0723307 1.7119249 15.171471
-2.0640693 1.3264673 1.8976589 21.442411
-1.8133287 1.3257526 1.7834146 22.055195
-1.5983673 1.4806411 1.9180288 23.009001
1.8704398 1.3737093 1.8409796 19.946356
2.0780811 1.4114796 1.7032936 19.116154
-2.288667 1.9318156 1.742275 22.0105
1.4588604 1.8654969 1.6680152 22.120501
1.9250852 1.7384003 1.8934239 22.40799
2.0958405 1.7763021 1.7859788 22.161654
-3.0781016 2.2342145 1.8835713 23.009562
-2.3386588 2.0948138 1.6420486 23.01025
1.9658082 2.0205367 1.9577916 23.09
-8.6347046 3.0801344 1.7193766 12.525249
-8.1480207 3.119173 1.78553 13.025332
-7.8087997 3.1087523 1.838811 14.027583
-7.424592 3.0476973 1.7805035 14.427599
-7.1357412 3.1547809 1.8431139 15.01325
-6.5763383 3.0830808 1.8224773 16.027611
-6.1494555 3.0543716 1.7898986 16.8272
-5.2440863 3.0226169 1.8580605 19.02425
-4.9831958 3.0216141 1.864751 20.02475
-4.5819697 3.0126386 1.8411093 21.275126
-4.206974 3.0143681 1.772849 22.513168
-7.9414706 3.2615755 1.8797557 14.024
-1.4382584 -0.011369165 2.1350293 2
-1.0030735 -0.033325624 2.1772027 1.75
-0.58903998 -0.04671802 2.1707096 1.0833334
-0.24697204 -0.034906168 2.2517102 1.5
0.22368114 -0.06509608 2.2253275 1.4
0.59757775 -0.075130045 2.196312 1.4
1.0075076 -0.10518532 2.2032788 1.5555557
1.2889487 -0.068131462 2.2128301 1.9
-7.153585 0.30850747 2.3108258 2
-3.7625163 0.13458118 2.3972535 2
-2.0526166 0.33539879 2.1987484 7.361167
-1.9086484 0.35177672 2.1600082 8.4361153
-1.3434337 0.050167024 2.1993289 2.4000001
-0.99766243 0.099187627 2.2826824 3.25
-0.48292342 0.10243388 2.2011456 5.0244999
-0.016552001 0.024685286 2.2475212 3
0.27074862 0.007632507 2.3039999 3
0.53778183 0.33538887 2.251713 8.9719286
1.1213561 0.12260919 2.364135 6.5584998
1.475155 0.2925905 2.249089 8.3613825
1.6586316 0.29890439 2.1306963 7.8915858
-2.8793762 0.65945649 2.2663186 10.011333
-2.7845507 0.65999442 2.2759883 10.34425
-2.0884759 0.61212313 2.2201643 11.593487
-1.9095849 0.60385299 2.1480796 13.333058
-1.4813545 0.58216751 2.2384772 19.543251
0.62190688 0.64390576 2.343226 13.863501
1.0240041 0.6118772 2.3220065 13.618125
1.4881577 0.59923702 2.2642775 12.54442
1.6658701 0.62480497 2.1302817 11.952849
-3.0498102 0.92583323 2.2467861 12.012
-2.5745506 0.92478079 2.0877042 14.0225
-2.0776765 1.020467 2.2327156 18.114412
-1.8995522 1.0027136 2.1484067 20.153811
0.26551247 1.0728772 2.1809955 20.118465
0.45536503 0.88650393 2.1742342 17.033291
1.1013739 0.89622307 2.2352436 17.1185
1.4955441 1.0132996 2.2704055 18.181158
1.6937808 1.0148499 2.1555631 16.454161
-2.0737898 1.3228077 2.2340209 21.602373
-1.9187812 1.3238903 2.1493201 21.232155
0.24629545 1.2912936 2.1648083 22.618999
1.1873281 1.2342018 2.3749266 23.111
1.5398166 1.3114318 2.3061783 21.377771
1.7246661 1.384478 2.1723995 20.616531
-7.3372426 1.9844465 2.3815484 10.0395
-2.8685164 1.8108586 2.2977695 22.021999
-2.0367956 1.6988636 2.3371561 20.522833
-1.9877108 1.860008 2.2816989 20.5
1.8306749 1.727209 2.1842313 21.99983
2.0316515 1.9228572 2.0839403 23.11375
-4.8872771 2.1580548 2.3979812 17.018
-1.9572564 2.0415206 2.2587662 22
1.8003703 2.0489633 2.2134807 22.921696
-7.3013821 2.6549351 2.3381972 13.028
-8.2081881 3.0629272 2.0794795 13.025333
-7.747395 3.0412867 2.2178638 14.029501
-7.4300303 2.9450519 2.1585021 14.277125
-7.0442853 3.0341463 2.2243528 15.02861
-6.5579066 3.0329726 2.1583912 16.023445
-6.2474093 3.0156536 2.2503326 16.651876
-5.8357568 3.0333791 2.2322102 17.801613
-5.3980598 3.0412865 2.221256 19.025499
-4.9979177 3.0139563 2.2118797 20.20509
-4.652843 3.0126276 2.2421546 21.412924
-4.256372 3.0212986 2.2617457 22.867922
-1.6210794 -0.012681045 2.5965395 1.5833333
-1.4046748 -0.029192243 2.575449 1.5
-1.0398895 -0.052346807 2.6846242 1.5
-0.56695676 -0.065636143 2.5783896 0.95833331
-0.094646312 -0.040972266 2.447998 1.5666666
0.19422984 -0.074401818 2.6467571 1.7428571
0.60758919 -0.099244274 2.6140273 1.6944443
0.99988317 -0.10699194 2.588136 1.9583334
1.3711751 -0.030290414 2.75388 3.5
-7.0132813 0.22864009 2.5564277 2
-6.5628977 0.30203897 2.6049085 2
-4.8791518 0.14644185 2.5165641 2
-4.347682 0.13538823 2.4212883 2
-3.7418718 0.085407093 2.7268367 2
-2.8903487 0.098688155 2.7426696 2
-2.4822159 0.08584331 2.7376735 2.25
-2.1070118 0.12883018 2.5371902 3
-1.8030394 0.073732354 2.5495403 2.1666667
-1.4041874 0.051552843 2.7030911 2.4166667
-0.98587042 0.042378787 2.6882558 2.5
-0.71650463 0.043554947 2.5226951 3
-0.1990205 0.014556183 2.5431399 3
0.078681849 0.2613757 2.6169279 9.6158333
0.60431063 0.34120244 2.6043103 10.1105
1.0907891 0.24045566 2.669759 8.9262285
1.3796464 0.26009387 2.6146357 8.3022652
1.6271572 0.30565429 2.4656792 8.0065832
-6.5492487 0.56207436 2.6885724 3
-2.5790854 0.69008607 2.4239111 11.0465
-2.0531173 0.58852363 2.4481359 11.595583
-1.8730031 0.72352672 2.5635765 17.361332
-1.4298397 0.63750976 2.4690142 22.084417
0.23278332 0.6002087 2.5884027 15.61475
0.62487769 0.61405468 2.6484511 14.8605
1.1072094 0.61688524 2.619246 14.635098
1.394618 0.61139733 2.5997205 13.079194
1.6271471 0.62946612 2.4926572 9.8604012
-2.5506005 0.85486776 2.4253731 13.5345
-2.1270652 0.96354175 2.4457772 17.188673
-1.9226484 0.95410001 2.48932 19.63125
0.6243816 1.0000414 2.646234 20.332918
1.0470695 0.95928055 2.6042299 19.863419
1.4032704 1.0030118 2.6025329 18.367025
1.6541282 0.98689568 2.4935563 14.273425
-7.0352778 1.5373644 2.790978 8.0410004
-6.4868608 1.3609023 2.7347074 8.0295
-2.100198 1.2908767 2.462522 20.808933
-1.9715936 1.2972834 2.4284105 20.720751
0.7039814 1.2514896 2.6604125 23.110001
1.448599 1.3356512 2.6119208 21.388901
1.6653491 1.42866 2.5063131 19.206873
-7.0963678 1.8234622 2.6845279 9.5287495
-6.5755591 1.8946787 2.7462161 10.374167
-2.7712598 1.7916431 2.6172085 22.021999
1.5356432 1.7584323 2.6602321 21.353861
1.6754854 1.729915 2.5295815 21.776619
-7.0741229 2.0861249 2.499922 10.53425
-6.7979107 2.0497079 2.6693769 11.0405
-6.1829777 2.1118026 2.6437321 12.51525
1.4859315 2.0542169 2.6101317 22.441895
1.6232405 2.0344586 2.4762826 22.792751
-7.3731012 2.6587925 2.643425 13.0285
-6.9572968 2.4702811 2.499238 13.0285
-6.5326023 2.5841968 2.7548845 14.028749
-6.1129904 2.5034859 2.734539 15.0155
-4.7909679 2.4656997 2.4380946 19.018
-7.4100595 2.9309566 2.5467658 14.229901
-6.9533005 2.9882483 2.6061101 15.033999
-6.5429058 2.9841006 2.6502123 16.028999
-6.1703887 2.971719 2.5934036 16.870712
-5.8203096 3.0293593 2.5834284 17.845499
-5.3844528 3.0073376 2.622582 19.026222
-4.9916635 3.0161386 2.5789204 20.498869
-4.6034102 3.0059636 2.6061456 21.720453
-4.261529 2.9973936 2.6290874 22.86475
-2.1160872 -0.016909655 3.0808737 1
-1.2857811 -0.074074835 3.1837845 1
-0.95314747 -0.058496889 3.0215333 1.25
-0.59191912 -0.056189679 3.0746312 1.875
-0.19361819 -0.10288816 2.9572213 1
0.16191509 -0.079187319 2.9953344 1.8095237
0.64096624 -0.12950069 3.0421212 1.7083334
1.0331503 -0.12096253 2.9791164 1.8888888
1.2794638 -0.10608143 2.9930272 2.4351852
-6.1680946 0.1898994 2.9450881 2
-5.7991529 0.23119652 3.0267372 2.1666667
-5.521194 0.37548965 3.1650276 3
-2.5212157 0.067932069 3.0293634 1
-2.0946369 0.044114988 2.9521437 2.0666668
-1.8659928 0.04799924 2.9614727 1.65
-1.5126704 0.041170608 3.0527084 2.1500001
-0.58706743 0.01911398 2.9687774 2.6666667
-0.11372716 0.22421162 2.9359963 10.19282
0.1410168 0.28030789 3.0546472 12.210129
0.63482803 0.26782158 3.0229461 11.102676
1.0515392 0.26727617 3.0363579 9.5988798
1.3073845 0.26086313 2.9521177 8.8584948
-6.345171 0.54509896 2.8985865 3.3333333
-4.1831751 0.67412269 2.9556777 8.0205002
-1.2384083 0.57476491 3.1745911 23.0235
-1.186985 0.55261004 3.0228426 23.018999
-0.053278804 0.55234689 3.0021195 19.232716
0.12538196 0.57067424 3.0316923 18.958973
0.65406525 0.65178359 3.0101378 17.252941
1.0610616 0.60254616 3.0608137 15.190917
1.3026499 0.59481972 2.9616294 12.937395
-6.4488273 0.94985723 2.8455601 6
-6.2684631 1.0651474 3.0247047 6.7348976
-5.7981281 1.0957191 3.1131339 8.0284996
-5.5351782 1.1515025 3.0977609 9.0270004
0.14836726 0.82524937 2.9222515 22.77844
0.65481949 0.93812132 2.9670861 21.200548
1.0832075 0.96309131 3.0813496 18.700085
1.295897 0.99607742 2.9631939 18.972412
-6.5050921 1.4221966 3.0684505 8.0422497
-6.2531977 1.4109522 3.0675321 8.7807493
-5.880281 1.3938398 3.0779562 9.5283756
1.1256835 1.3248111 3.1044436 20.833241
1.3313589 1.351504 2.9695575 20.269232
-6.4607406 1.7519981 3.0367298 10.042
-6.2616925 1.8023467 2.9583044 11.031611
-5.916522 1.7485265 3.0785198 11.527143
1.1670854 1.7514802 3.1017084 19.072084
1.3823637 1.8137841 2.9898007 21.735535
-6.609551 2.3484385 3.1003208 13.0295
-6.2114525 2.263263 2.9797409 13.038875
-5.9300056 2.1391013 3.1010048 13.2005
-5.3201089 2.1568749 3.1726837 15.027
1.181578 2.1001832 3.1490402 22.086
1.2759051 2.0892441 2.9881277 22.261751
-6.9486241 2.4070382 2.8134351 13.0285
-6.5199847 2.5901985 3.0354712 15.027
-6.1906729 2.5820277 3.028928 14.853474
-5.9078207 2.4936709 3.1539106 15.51475
-2.5442703 2.7476215 3.1060245 22.390833
-2.3512411 2.7825854 3.142524 23
-8.9070272 3.0978401 2.9596248 13.023
-6.4952064 2.9657469 2.908036 16.028667
-6.1394501 2.9551206 2.9601257 16.882475
-5.8712301 2.9780743 3.0316133 17.723154
-5.4194517 2.9706552 2.9608207 18.887712
-4.9711671 2.9441106 2.9597232 20.236542
-4.5892286 2.9006016 3.0031469 21.352711
-4.2510958 2.9878116 3.033402 22.935461
-2.1521504 2.8188436 3.1470687 23.05825
-5.0704403 -0.021014024 3.5376015 1
-2.2663741 -0.04539622 3.3381398 1.5
-1.7960678 -0.062112182 3.4811828 0.78571427
-1.4033213 -0.062910259 3.4800599 1
-0.58582383 -0.059413079 3.4272397 1.4666667
-0.24494882 -0.092015669 3.4005685 1.5357143
0.12538792 -0.085675634 3.3653698 1.7777777
0.63617074 -0.13643077 3.3639462 1.7666668
0.96101987 -0.1164777 3.4286182 2.5384614
-6.0794916 0.18874705 3.2717226 2
-5.7016978 0.19870536 3.3128684 2
-5.3937316 0.20008239 3.4869392 2
-2.1162708 0.018947592 3.4657567 3
-1.9669259 0.0026571397 3.2522986 2
-1.5024083 0.018233672 3.3843765 3.3333335
-1.134262 0.017240198 3.372318 2
-0.012329519 0.095170133 3.2055402 8.1075001
0.22297165 0.23144266 3.3572733 12.603786
0.62428039 0.22708143 3.4437597 11.760406
0.97237766 0.25568476 3.4095554 9.9061356
1.3059714 0.24358535 3.3440361 9.4982128
1.7778565 0.28226268 3.5755174 9.0895004
2.2709157 0.33022723 3.4058526 8.099
-5.4408436 0.47738135 3.402451 3.5
-4.0298567 0.69007492 3.2720103 8.0225
-3.2249177 0.58868939 3.4847131 9.0122499
-1.6809967 0.57206005 3.4663177 22.77
-1.3378227 0.5265407 3.4214296 22.768623
0.21158676 0.53818446 3.327945 20.553961
0.65244579 0.5799908 3.448612 19.397825
0.98019516 0.5857954 3.412724 14.793092
1.3005794 0.61138034 3.3749068 15.043048
1.7994099 0.57005703 3.4643159 12.6923
2.3250878 0.52389908 3.4729514 9.5739994
2.430197 0.62415344 3.5483704 10.098
-6.1833539 1.113324 3.2771168 8.0305004
-5.7193594 1.1163112 3.4103396 8.0340004
-5.4368811 1.0640495 3.4407623 7.8290505
-5.133976 0.98100454 3.5384154 8.0319996
-4.2737088 0.9284749 3.5538979 10.0245
-3.1187389 1.1483575 3.429317 14.0485
0.59976619 0.84305418 3.5309527 22.724064
1.0312885 0.96347553 3.4047556 18.455799
1.282779 0.93729109 3.3587666 19.828785
1.8360695 1.1420631 3.4273345 17.432833
2.2615905 1.0247339 3.5094948 14.8485
-6.140779 1.3530934 3.3214891 8.678875
-5.7771873 1.433875 3.3875561 9.7872086
-5.4464588 1.2826357 3.5235975 9.1426105
-5.0858569 1.4011672 3.55931 11.032749
-4.0223055 1.3460327 3.2358825 15.022
-3.8336468 1.5963503 3.5356445 18.024
1.0434992 1.3330402 3.4054825 19.810169
1.2723718 1.4206372 3.3161969 19.217806
1.7607167 1.3742659 3.2707677 20.101
2.1330118 1.4043696 3.4432092 18.599251
-6.3163376 1.7938745 3.2370501 11.0365
-5.8393736 1.7557412 3.4107141 11.494385
-5.4492702 1.8206415 3.4336812 12.410407
-3.8502495 1.8372267 3.5503304 19.524
1.0796076 1.7891376 3.4426601 20.3613
1.2779932 1.7577146 3.3471417 22.090162
2.0093489 1.8702806 3.4458909 23.099501
-6.1020126 2.2025821 3.352109 13.368167
-5.8720469 2.1973388 3.320121 13.855591
-5.4631047 2.1509078 3.4651649 14.393216
-5.0218983 2.0473635 3.3062277 16.0275
-4.6392412 2.2788787 3.4348598 18.522751
1.060661 2.1657052 3.4201915 21.675751
-6.1810822 2.5826089 3.3042381 14.893216
-5.7840276 2.6181002 3.4049902 16.20414
-5.4752312 2.5530849 3.4689031 16.538
-5.1471324 2.4248519 3.2980206 17.0275
-4.3838434 2.4697528 3.2580724 20.026751
-3.258764 2.7445288 3.4774964 22.05625
-3.1411462 2.7648573 3.5482395 22.556999
-2.5625472 2.7207584 3.3881927 21.804852
-2.2111967 2.7503026 3.3948357 22.413713
-1.8454485 2.7633319 3.4548817 22.686251
-1.4833014 2.7850645 3.479043 23.06275
1.149663 2.5739665 3.5168808 22.07925
1.2321358 2.4795308 3.275775 23.08025
-6.6928444 3.0602329 3.5638373 17.02775
-6.0128098 2.9196208 3.2993147 17.037251
-5.8323603 2.9154334 3.3785203 17.705725
-5.3853121 2.9280593 3.3593955 18.764408
-5.0514169 2.9059083 3.4108388 19.784166
-4.5491972 2.8782537 3.4017885 21.567726
-4.2264633 2.9314265 3.4042869 22.437197
-3.896631 2.8977392 3.492857 22.550373
-2.5950034 2.829129 3.4465911 23.059999
-2.3531375 2.8093817 3.5878277 23.061501
-2.8546076 -0.22159708 3.9364038 0
-2.6496716 -0.062187251 3.8850181 1
-2.2363803 -0.074828267 3.733638 0.69999999
-1.8652661 -0.076811031 3.8037138 0.875
-1.523939 -0.10341875 3.8517907 1.6071428
-1.1684376 -0.1146426 3.872628 2
-0.66534495 -0.090495788 3.7518318 0
-0.26573986 -0.13163117 3.7782047 1.2
0.1669043 -0.12532136 3.8269634 1.6666667
0.64041024 -0.15895106 3.8210971 1.7666668
1.0196847 -0.12807064 3.7803867 2.9166667
1.449313 -0.18084131 3.9662607 0.66666669
-5.3405304 0.082776211 3.7125857 1.6666666
-4.9951353 0.28732061 3.7919807 2.9000001
-4.6703095 0.19578865 3.9043148 2.7261903
-4.1196632 0.2736764 3.8359432 4
-3.8415732 0.0079967752 3.9103055 2
0.7073487 0.25316373 3.7424088 10.997951
0.95764655 0.24338853 3.7459018 9.8613405
1.3435631 0.24913651 3.8517973 9.9005213
-4.9640331 0.55009043 3.7192786 5
-4.6860685 0.6387189 3.9163201 5.6944447
-4.1074257 0.67863506 3.8672779 7.7715831
-3.8701539 0.66657794 3.9096506 8.2065239
-3.3017285 0.58905166 3.8369102 9.5232916
-3.1001985 0.6244567 3.921675 11.139111
-1.4056402 0.51079267 3.8580768 22.529917
0.71170747 0.59468555 3.7642443 17.136757
0.95271021 0.57506168 3.7379966 14.338363
1.356041 0.6076985 3.847733 15.642217
1.6862313 0.51531595 3.699357 13.0885
2.3281155 0.58455569 3.8306561 10.596
2.9140816 0.56598026 3.7558682 10.420167
-5.7379875 1.1069636 3.7871656 8.5132504
-5.3442979 1.072129 3.7457528 8.5261002
-4.9504251 1.0430758 3.7760997 8.7633848
-4.6587825 1.0036842 3.8837161 8.4631224
-4.0908456 0.99751592 3.8768685 10.851045
-3.8354318 0.96149242 3.9113486 10.91136
-3.3843453 0.98412424 3.8919315 12.894563
-3.0904608 1.1288395 3.8794696 17.527313
0.74862289 0.94526142 3.7990015 16.888506
0.94605678 0.97142959 3.7855251 19.421665
1.3170283 0.93844914 3.8556118 20.822407
1.6972502 0.8264876 3.9397891 17.419334
2.2952287 0.97031546 3.7325459 14.346875
2.8581486 0.87321544 3.6811786 13.0875
-6.3430233 1.4212483 3.9953032 10.0265
-5.6688881 1.2537527 3.6228533 9.0319996
-5.4234829 1.4350212 3.7081513 10.226999
-4.9680586 1.3565972 3.7826207 10.693454
-4.6475263 1.3875984 3.8834064 11.361606
-4.0290079 1.3693615 3.9358764 14.035
-3.860708 1.3626351 3.9257405 14.699166
-3.5310373 1.3117974 3.9588852 13.76225
-3.0584605 1.3345958 3.9447341 19.885036
0.75441265 1.4427958 3.9435208 16.861166
0.92916924 1.3681375 3.7698302 18.80534
2.141854 1.227865 3.6882322 17.09725
-5.6756263 1.7687644 3.6435606 11.859333
-5.4212017 1.8994327 3.7398634 13.038222
-4.9886594 1.7639598 3.8109248 13.141263
-4.6491599 1.7805951 3.8989005 14.071938
-4.3931603 1.6932369 3.9817224 13.0525
-3.7956316 1.7617766 3.6860247 19.525084
-3.0185087 1.6019169 3.965379 23.028
0.97482949 1.7754325 3.7837698 20.594917
-5.6544065 2.1543961 3.6942301 15.0295
-5.3928528 2.1701512 3.776691 14.814499
-5.0176215 2.1985884 3.7707672 15.362618
-4.6181035 2.1232505 3.8995576 16.291624
-4.3466387 2.0739532 3.9635158 18.0345
-3.6186764 2.0993762 3.9939919 22.0315
-3.3643947 2.2338228 3.9297547 22.011625
0.92580098 2.1532216 3.8058319 20.516888
3.3565929 2.376097 3.980557 21.096001
-5.715682 2.6459916 3.6353638 16.24
-5.4567471 2.5524108 3.692847 16.638199
-4.9320207 2.7361612 3.8939407 18.049
-4.6134772 2.7112882 3.9155812 19.436111
-4.1967096 2.7332933 3.8280318 20.541624
-3.8814225 2.7823946 3.6562514 21.052
-3.3747547 2.6912212 3.8649611 21.342144
-2.9405766 2.7068634 3.7927749 21.1766
-2.5988908 2.7041314 3.7908847 21.39369
-2.205992 2.6854303 3.7214568 21.334545
-1.8063464 2.7083952 3.7599065 21.730316
-1.4133364 2.6966953 3.8106291 21.898249
-0.98345423 2.7164764 3.8412819 22.066248
-0.62401694 2.7415075 3.8392363 22.568281
-0.25320482 2.7392285 3.8854792 22.713667
0.25696224 2.7125807 3.8839018 22.5735
0.60248578 2.7234702 3.8516188 22.660164
0.93676698 2.5779352 3.8308458 22.036016
-6.9080839 2.8643875 3.6916633 16.025
-6.523387 3.066901 3.7975688 17.030251
-5.7765236 2.9441614 3.6914659 18.627701
-5.4886155 2.8725426 3.7029049 18.046499
-4.9429641 2.8624783 3.7447007 19.540176
-4.5216451 2.8623135 3.7686136 21.589384
-4.2266569 2.9000096 3.8011675 22.478296
-3.7842951 2.8854718 3.7911134 22.501329
-3.4622538 2.8497229 3.8977261 22.791
-2.9077921 2.8349955 3.9897869 23.058001
-2.6987939 2.8050606 3.8169456 23.059999
-2.1100488 2.8205502 3.8763714 23
-0.89557201 2.803956 3.6617932 23.0665
-6.3768458 3.4229491 3.8940802 18.033501
-4.0591335 -0.092535309 4.1773157 1
-3.7850904 -0.022814877 4.3487258 1.6666666
-3.4655249 -0.16443332 4.3104739 1
-3.0243402 -0.1575864 4.3590965 0.5
-2.5308356 -0.04227626 4.2014794 2
-2.2410967 -0.099408336 4.2494488 1.1428572
-1.8207649 -0.15594368 4.1496768 0.80000001
-1.4251992 -0.19492942 4.297719 0.5625
-1.0086507 -0.203756 4.2482743 0.2
-0.5439254 -0.13601008 4.1852765 1.8
-0.24605955 -0.11686134 4.2265005 2.5555556
0.24640031 -0.16148092 4.2114277 1.5
0.60840088 -0.19410694 4.2937708 1.5
0.94704455 -0.18834607 4.1742659 1
1.433722 -0.24574669 4.2438402 0.86666662
1.7859559 -0.16971473 4.1290808 3.25
-4.5875072 0.20340331 4.1567149 2.5
-4.1040792 0.30219623 4.1667628 3.9166667
-3.7654092 0.22014174 4.2868972 3.7776015
-3.520035 0.15162377 4.3482642 2.9166667
-2.8970056 0.15429053 4.2033715 5.00665
0.7104075 0.038201891 4.0253744 3.5
0.94745272 0.26124388 4.0892467 9.9341068
1.4850013 0.27781469 4.0726647 10.437375
1.6858455 0.26190788 4.2115684 9.589572
2.5896356 0.39040205 4.2853613 9.0974998
-4.1285582 0.68548173 4.2084994 7.508944
-3.8034232 0.7023564 4.1891422 8.3508444
-3.4444685 0.69419616 4.3363867 8.4333544
-2.9597661 0.59958118 4.205194 11.123977
-2.7377985 0.63034141 4.3264995 11.209729
0.73624098 0.79096293 4.0480843 11.0835
0.94655424 0.58615506 4.0865979 12.273692
1.3745444 0.58622688 4.1174388 15.232901
1.6945102 0.56599826 4.2200828 13.923162
2.1879463 0.62047839 4.2193336 11.59525
-6.1039543 1.0810122 4.192862 8.0275002
-4.9015832 1.0424742 4.0850463 9.02425
-4.6214867 1.0398768 4.1287627 9.0892496
-4.1462564 1.0060976 4.1585941 9.6728659
-3.8028505 1.0007895 4.2355175 10.417972
-3.5321994 1.0035243 4.3168025 10.84575
-2.9999695 0.93290681 4.2372141 15.106096
-2.6954837 1.0397727 4.3171706 16.904535
0.75925517 1.0567628 4.0650644 12.583
0.94323146 0.9380666 4.1211209 19.447922
1.3513812 0.99772018 4.1446557 20.58139
1.7176988 1.0006644 4.2308431 18.612432
2.2384694 1.0627183 4.1402116 17.098333
2.5610507 1.0799359 4.2714925 16.092833
2.8242717 1.1429923 4.2577214 16.0835
-6.1734819 1.3968825 4.0866594 10.027
-4.907835 1.4517943 4.0871315 11.870028
-4.621254 1.3744757 4.1260233 11.281667
-4.1731367 1.4045022 4.1959271 12.060811
-3.7957737 1.3883387 4.2553072 13.121165
-3.4540372 1.4463171 4.2724705 15.777654
-2.9058771 1.3707602 4.1259489 21.279999
-2.718817 1.3432674 4.3128238 21.197292
0.87367088 1.4356227 4.138423 18.485901
1.4274626 1.4227918 4.1822643 22.092501
1.7532781 1.3596617 4.2814522 21.446146
-6.1810756 1.9453669 4.3526306 12.014
-4.5860157 1.8219941 4.169601 14.250914
-4.1925917 1.8344024 4.2217975 14.750113
-3.776175 1.8046119 4.2688656 16.11673
-3.4206922 1.7733134 4.2679954 18.917194
-3.1654348 1.9214253 4.2754025 21.519375
0.7508527 1.7535844 4.0381303 19.0835
0.91431564 1.7341582 4.0632601 20.641323
2.5781908 1.8548286 4.3370619 23.083
-5.6661386 2.1450758 4.1017089 15.027
-5.2790136 2.0777006 4.1043215 15.53075
-4.8938537 2.1369522 4.0060368 16.047501
-4.5554705 2.1829183 4.1723528 16.526981
-4.2098823 2.1958151 4.2340021 17.449228
-3.8647413 2.2934341 4.3162742 17.985283
-3.3766243 2.0983362 4.2229085 22.319288
0.81544936 2.1915007 4.0241971 18.5
3.1833875 2.3932648 4.1435199 22.094999
-4.9335713 2.6541703 4.0929475 18.369249
-4.5809608 2.7440548 4.1785111 19.796438
-4.2032342 2.6229527 4.2346907 20.242184
-3.8063102 2.644069 4.2609448 20.340973
-3.4055755 2.6698759 4.2339911 19.842026
-3.0252504 2.69522 4.2226949 19.818556
-2.6135032 2.6847892 4.2238469 21.096399
-2.2499967 2.7029948 4.2226439 21.692532
-1.818177 2.6921375 4.2053585 21.178734
-1.4228482 2.7090318 4.2009935 21.629471
-0.95466655 2.6665518 4.2117281 21.6315
-0.58928168 2.6301296 4.2130051 21.44553
-0.20996906 2.6551132 4.1993709 21.576601
0.22042428 2.6603935 4.2165995 21.925932
0.62923044 2.6380703 4.1924996 21.887468
0.8191672 2.5611322 4.0944257 21.246666
3.0209639 2.4162781 4.353004 22.427
-6.9149399 3.149657 4.1625452 16.0455
-6.4196115 2.8455071 4.1460428 15.046
-4.6107049 2.8266666 4.0817494 20.870081
-4.1962185 2.8750372 4.1650696 22.613724
-3.7888968 2.8620696 4.1454158 22.675625
-3.4346974 2.8680105 4.1904063 22.971586
-3.0452747 2.8348382 4.167069 23.038168
-7.069253 3.2206879 4.3623633 16.046
-6.7943144 3.4609857 4.2996883 17.048
-6.3806548 3.3597095 4.2134042 18.033501
-3.6716337 -0.059925638 4.4643641 1.7
-3.3387463 -0.07935977 4.5621419 1.5833334
-3.0378981 -0.094248421 4.6492081 1.3229167
-2.5849862 -0.09764649 4.6458836 1.2
-2.1242278 -0.12024037 4.5754566 1.3958333
-1.8030291 -0.13575177 4.6561422 1.4166666
-1.3708886 -0.16046678 4.5815701 1.4642857
-1.0142628 -0.17147745 4.6191201 1.7857143
-0.52382421 -0.21159117 4.6934295 1.6666666
-0.1980117 -0.18907207 4.5190415 1.8333334
0.19947799 -0.18181877 4.5196652 1
0.57364899 -0.23409314 4.6225905 0.66666669
1.0680778 -0.25061464 4.596364 1.25
1.4125711 -0.15232645 4.4648438 2.5
1.6015825 -0.28139377 4.6453691 0
2.119189 -0.15494931 4.7614183 3
2.535136 -0.23962101 4.630034 1.7
-3.6932991 0.18466505 4.5563354 3.875
-3.3679099 0.1941362 4.5851383 3.7183938
-2.979167 0.27693617 4.6352577 5.0603633
-2.6037343 0.28128746 4.6266952 7.4098396
-2.3005583 0.24058846 4.6938767 6.5273218
1.5546983 0.23466279 4.4248695 9.5939999
1.878888 0.35557956 4.4537802 10.0805
2.5295105 0.3222146 4.6969633 8.2932501
-4.0920653 0.63224137 4.5427256 7.5463333
-3.7857177 0.63229996 4.5622368 7.8332968
-3.4029179 0.64271814 4.6061292 7.9683642
