# .PCD v0.7 - Point Cloud Data file format
VERSION 0.7
FIELDS x y z intensity
SIZE 4 4 4 4
TYPE F F F F
COUNT 1 1 1 1
WIDTH 175
HEIGHT 1
VIEWPOINT 0 0 0 1 0 0 0
POINTS 175
DATA ascii
-1.4863418 0.58064908 -2.4711301 9
-1.4893314 0.71934044 -2.4025247 10.5
-1.5207506 1.2361052 -2.2696564 16
-1.4901603 1.410459 -2.3576016 18
-1.5094827 0.3329837 -2.1479135 7
-1.4915632 0.76318729 -2.1267419 12
-1.507409 1.3467996 -2.1951761 17.5
-1.4940587 1.4767249 -2.1750903 19
-1.5360497 0.18112768 -1.8468518 5
-1.4891533 0.32183421 -1.8076475 8
-1.5081891 0.51466042 -1.9671937 9
-1.5144011 0.7385931 -1.9231987 12
-1.5161113 0.1991002 -1.7992443 5
-1.5004559 0.31440464 -1.7231554 7.5
-1.5250777 0.51411885 -1.7258804 9.5
-1.5004232 0.63535666 -1.704298 11
1.1243649 0.66383857 -1.6477458 14
-1.5230663 0.81465995 -1.7258781 14
1.1181716 0.8119325 -1.7234244 16
-1.5081716 1.0900159 -1.7244871 17.5
-1.5108442 1.2718039 -1.713868 19
-1.5051929 0.3204776 -1.4463603 8
-1.5158589 0.50757861 -1.5172809 10.75
-1.5381175 0.70322287 -1.5698882 12.5
-1.5324084 1.1456774 -1.4963851 19
-1.5152037 1.2760649 -1.4567549 20
-1.5269721 0.11866972 -1.3134763 4.5
-1.4975693 0.31542709 -1.2956892 7.5
-1.5126858 0.4789463 -1.2877184 10.333333
-1.519811 0.67119402 -1.3042337 13
-1.513694 0.95284522 -1.354138 18
-1.515615 1.0370245 -1.3266877 18
-1.5512483 0.18484999 -1.1579427 6
1.0728559 0.26504135 -1.084573 9
-1.4866903 0.50631869 -1.1114278 11.75
1.0899314 0.47713679 -1.0421096 12.5
-1.4846159 0.69058663 -1.0665305 15.5
1.0900019 0.85979581 -1.0838861 20
-1.5183833 1.0967348 -1.1583987 19.75
-1.5074328 0.14215109 -0.9518736 5.5
-1.4757618 0.26713449 -0.95062685 8
-1.5131675 0.50822824 -0.92404348 13
1.0857934 0.46310973 -0.96522033 13
-1.4963117 0.631239 -0.85975212 14
-1.5085853 0.88939393 -0.97012454 17.5
-1.5172204 1.0016263 -0.86313564 20
-1.5245146 0.14407226 -0.68275237 5.5
-1.4823714 0.24092603 -0.72146106 7.5
1.0646796 0.29301658 -0.75627345 9.833333
-1.5271215 0.53671527 -0.70208907 14
1.0654694 0.50140369 -0.73823041 15.166667
-1.497448 0.68965632 -0.67735481 16.75
-1.4914005 0.8232823 -0.68439722 18.5
-1.5033091 0.28208828 -0.59006679 8.666667
1.0788321 0.33429015 -0.51654714 11.464286
-1.4833547 0.54820335 -0.46723327 14
1.0732977 0.45483613 -0.54257298 14.266666
-1.5052376 0.89542902 -0.53424346 19.200001
-1.5288839 0.1714697 -0.39771399 6.5
1.0578935 0.16638921 -0.31749994 7.3333335
-1.508276 0.29715455 -0.30595884 9.5
1.0667889 0.29163104 -0.3624486 10.25
-1.5156233 0.5715372 -0.25202769 15
1.082116 0.49955767 -0.3729246 15.5
-1.4919845 0.6434679 -0.29172924 16.833332
-1.5073594 0.86907423 -0.3341172 19.5
-1.5350119 0.098351218 -0.15139145 4.75
1.0437411 0.10214242 -0.017561866 6
1.091229 0.48717552 -0.13905247 15.2
1.0575638 0.60002381 -0.12766922 18
-1.4907945 0.83239347 -0.018340677 20
1.0480431 0.1158185 0.057627674 6
-1.5017765 0.314574 0.017512649 9.5
-1.5111505 0.53388 0.081313863 13.75
1.0614904 0.53939128 0.078085274 18
-1.5444782 0.68034643 0.11985983 16.25
-1.5214955 0.90408468 0.10789648 20
-1.5239402 1.0130447 0.14269756 22
-1.546983 0.07352756 0.34213117 4
1.0455292 0.16038793 0.27794904 7
1.0437814 0.30421567 0.33358073 11.5
1.0596786 0.52249885 0.3047373 15.833333
-1.5425184 0.69961208 0.27427414 16.333334
1.0425898 0.16046363 0.56518203 7
1.0464051 0.32709149 0.49844074 11.333333
-1.5219092 0.53309703 0.44345737 12.75
-1.5315903 0.70242578 0.44275662 16
-1.5668249 1.0267149 0.54107153 20.5
-1.601468 0.084291488 0.78021419 4
-1.5902536 0.063475698 0.72837847 4
1.0299367 0.16817744 0.71377844 7
-1.5277467 0.26881316 0.68873459 7.1666665
1.0368108 0.26802662 0.65504318 9.3999996
-1.5438406 0.56222862 0.63791817 13.5
1.053839 0.44757026 0.61689091 14
-1.5669243 0.73958904 0.68122637 16
-1.554745 1.118454 0.73334044 21.25
-1.5908141 0.09417969 0.9864924 4
1.229444 0.15494128 0.9060356 5.5
-1.5181954 0.21724522 0.895904 6
1.0277263 0.38756248 0.97470224 11
-1.5608778 0.53348309 0.9024927 11.666667
1.0286213 0.53702939 0.88084763 14.5
-1.5643492 0.69410062 0.95145988 14.5
1.0356863 0.70572048 0.95025653 17.75
-1.6197944 0.99857306 0.95302218 18
-1.548551 0.83543324 0.86207694 17
-1.5902865 1.0906971 0.91871661 19.5
-1.5689392 0.30493516 1.1447226 7.416667
1.0104589 0.32340339 1.121616 9
-1.5256758 0.53987938 1.0913894 11.166667
1.0277709 0.47449294 1.1633987 12
-1.5131619 0.66651648 1.1217674 13
-1.5775605 0.86440182 1.138204 16.5
1.0477045 0.84461004 1.1203134 18.666666
-1.5843554 1.0479856 1.1252763 18.6
-1.5625367 1.2285496 1.0850923 21
-1.572615 0.54114562 1.2611167 11
-1.5608275 0.72890073 1.2347722 14
1.053251 0.6500597 1.3644314 14
-1.5747322 0.14190608 1.4308895 4.5
-1.5675249 0.31516236 1.4176219 7
-1.523286 0.57202649 1.4994726 10
1.0494583 0.57644629 1.4594737 12.5
-1.5061861 0.67054552 1.482049 11.5
1.0502135 0.71005392 1.5197114 14.25
1.2018223 0.74912095 1.4190435 13
1.1052732 0.81512922 1.4656893 15.25
-1.6172199 0.8417635 1.7428904 14
-1.6274663 1.0994496 1.7339507 16.5
-1.6338186 1.2779088 1.7080654 17.5
-1.6304781 0.1813841 1.896772 5
-1.6068077 0.34565377 1.8434539 7
1.0463157 0.54671502 1.8591014 11
1.0326906 0.74012631 1.8193216 13.5
-1.6295788 0.80493754 1.8895847 13
-1.6216164 1.0852265 1.8828084 15.5
-1.6009868 1.2754657 1.8390843 18
-1.6135041 0.5740273 2.0517867 9
-1.5980424 0.65811473 2.0353966 10.5
-1.6298764 1.1503999 2.2139001 15
-1.6231622 1.2613374 2.3700039 16
-1.5985968 1.3082833 2.3065913 17
-1.5714583 1.4359734 2.244694 18
-1.6099076 1.4048969 2.8195961 16
1.0024136 0.4882659 4.7724566 6
0.99368632 1.1263323 4.7609854 10
1.0220355 1.2937717 4.7898731 11
0.98377705 0.69273758 4.800169 7
1.0021865 0.90910232 4.809876 8.5
-0.098730847 2.7533879 5.315392 17.5
-0.099382319 2.6130729 5.4169831 16
-1.695138 0.31369931 6.7516165 4
-2.2269666 0.79291278 6.723618 5.5
-1.7200198 0.87202072 6.7307105 6
-2.2342703 0.45560935 9.2533388 4
-1.8106517 0.55013895 9.2975807 4
-2.3290088 0.70729685 9.3321199 5
-1.8390304 0.65222406 9.297286 5
-1.8933218 0.95375049 9.3281317 6
-2.2575219 1.0221288 9.2853794 6
-1.833164 1.2867819 9.3625355 7
-2.4510863 1.7948282 9.3487053 8
-1.9458482 1.6999366 9.3763103 8
-2.4491401 1.9007144 9.3467693 9
-2.0111699 1.922137 9.3412285 9
-2.4425204 2.1588199 9.3851423 10
-2.0273659 2.4873965 9.2425165 11
-2.4064951 1.4750998 9.405344 7
-1.7825881 2.0920024 9.4547768 9
-1.7666515 2.2758548 9.419528 10
0.26018786 -0.80996525 17.556679 0
0.45280117 0.27217078 17.916628 2
-0.11944859 1.78635 20.389874 5
-0.24170521 0.34291798 20.584072 2
