# .PCD v0.7 - Point Cloud Data file format
VERSION 0.7
FIELDS x y z intensity
SIZE 4 4 4 4
TYPE F F F F
COUNT 1 1 1 1
WIDTH 876
HEIGHT 1
VIEWPOINT 0 0 0 1 0 0 0
POINTS 876
DATA ascii
-1.331979 2.8343129 -4.5427933 21.00675
-1.3320035 2.9005585 -4.3056998 21.340332
-1.1576982 2.8375957 -4.114171 23.0065
-1.1165819 2.8913236 -4.0918832 22.00625
-1.346892 2.8653548 -3.9933975 23.00775
-1.2161045 2.8655472 -3.8015971 22.50725
-1.0745883 2.8612196 -3.7737255 23.0065
-1.4511149 0.6117326 -3.4026737 8.0094995
-1.5029385 2.3922353 -3.3871043 23.01
-1.501248 2.3295054 -3.2299674 23.0105
-1.415905 0.86737698 -3.1611006 11.01
-1.4664083 0.59781981 -2.9734969 9.0108995
-1.4683453 0.71588153 -2.973973 9.3439999
-1.4687581 0.953237 -2.9866495 12.260792
-1.456929 1.7520844 -2.9498439 20.011
-1.4771889 1.4338434 -2.8020012 17.678331
-1.4885831 0.61235404 -2.6938291 9.0117502
-1.4822339 1.0443493 -2.6637533 13.345166
-1.4704417 1.4167839 -2.6660595 17.011749
-1.4732552 1.7278183 -2.6077991 19.812
1.169809 1.8728187 -2.6937807 22.632999
-1.4954726 0.52413321 -2.5333908 9.1795006
-1.5144931 0.88729012 -2.5574131 13.2129
-1.4546679 1.7507433 -2.570632 22.012501
-1.4863418 0.58064908 -2.4711301 9
-1.5020095 0.61098266 -2.4379821 9.5
-1.4893314 0.71934044 -2.4025247 10.5
-1.4806314 1.3838749 -2.4667394 18.782347
1.1483475 1.7061864 -2.4891055 22.13225
-1.4926095 0.38791585 -2.385808 8.0135002
-1.4901603 1.410459 -2.3576016 18
1.0985922 1.6726569 -2.3450248 23.132
-1.4724562 1.7827564 -2.3139408 21.346502
-1.5054243 0.65592438 -2.2167599 10.222222
-1.4987392 0.81690246 -2.2342756 12
-1.5126083 0.94915444 -2.2027204 13.585427
-1.5207506 1.2361052 -2.2696564 16
-1.5031769 1.3533962 -2.2616503 17.530666
-1.4813492 1.6448535 -2.2428844 22.51425
1.1216978 1.7351136 -2.221159 22.633251
-1.5094827 0.3329837 -2.1479135 7
-1.509418 0.57154977 -2.1717362 9.9311457
-1.4915632 0.76318729 -2.1267419 12
-1.5111443 1.0261525 -2.1368759 16.106001
-1.507409 1.3467996 -2.1951761 17.5
-1.497048 1.3690612 -2.1105239 20.245924
-1.4940587 1.4767249 -2.1750903 19
1.1416254 1.5966738 -2.1800961 23.130751
-1.5025436 0.34641713 -2.0002694 8.0157499
1.1152724 0.61581933 -2.0393512 12.130084
1.1460174 1.3942411 -2.0629497 21.415714
1.1057757 1.5954914 -2.0290809 22.1325
-1.5081891 0.51466042 -1.9671937 9
-1.5144011 0.7385931 -1.9231987 12
1.1374272 0.97744501 -1.9909661 16.879625
-1.5360497 0.18112768 -1.8468518 5
-1.5198964 0.34917623 -1.8340759 7.4246664
-1.4891533 0.32183421 -1.8076475 8
-1.5148433 0.55813682 -1.8164968 10.016213
-1.52097 0.62709367 -1.8049217 11
-1.5209926 0.96383637 -1.8066418 15.144522
-1.5125904 1.3495609 -1.8370438 19.486618
-1.4978598 1.6506577 -1.8258812 22.516001
-1.5161113 0.1991002 -1.7992443 5
-1.5055655 0.24582262 -1.719372 6.5
-1.5133324 0.30931729 -1.7642314 7
-1.4844968 0.39810616 -1.7423186 9
-1.5250777 0.51411885 -1.7258804 9.5
1.1115032 0.534531 -1.7008212 10.797333
-1.5004232 0.63535666 -1.704298 11
1.1330013 0.78975213 -1.7100055 15.666667
-1.5230663 0.81465995 -1.7258781 14
1.1181716 0.8119325 -1.7234244 16
-1.5081716 1.0900159 -1.7244871 17.5
-1.5110222 1.2791452 -1.7173094 19.857815
1.120593 1.4282084 -1.7073246 22.7306
-1.5035386 0.23579051 -1.6629157 6.5
1.0914968 0.3433466 -1.6487952 8.1304998
1.1147436 0.3103289 -1.6366949 8.4604998
-1.4772081 0.41723949 -1.6626859 9
-1.5161808 0.5887658 -1.6897798 12.018212
1.1121238 0.56631029 -1.6299987 12.682695
1.1234822 0.66781259 -1.6649921 14
1.123898 0.8868897 -1.6535473 16.130249
-1.4959801 1.0299324 -1.6623263 18.393311
1.1341255 1.2802199 -1.6693401 22.4
-1.5044616 0.31630009 -1.5894635 8.2189007
-1.5473928 0.56684065 -1.5681536 11
-1.5381175 0.70322287 -1.5698882 12.5
1.135468 0.97319913 -1.5855987 18.959875
-1.5108066 0.24085283 -1.4076091 6.25
-1.505149 0.31638435 -1.4275758 8
-1.4990957 0.37061694 -1.4064922 8.5190001
-1.4843249 0.44831651 -1.4664083 10.5
-1.5164826 0.55453593 -1.4454894 11
1.1071588 0.62299007 -1.4098223 13.590115
1.1237125 1.0263579 -1.4018145 19.628363
-1.5324084 1.1456774 -1.4963851 19
-1.5197692 1.2641665 -1.4629852 20
1.1336467 1.3246648 -1.4043504 23.1283
-1.5218501 1.4017682 -1.478792 21.606852
-1.5269721 0.11866972 -1.3134763 4.5
1.0993955 0.33074009 -1.3782302 8.628417
-1.5166626 0.56153655 -1.3851914 11.305071
-1.519811 0.67119402 -1.3042337 13
-1.5287389 0.96227247 -1.3698895 16.981888
-1.4899859 0.95929074 -1.3680209 19
-1.5236157 1.0529783 -1.3462812 18.125
-1.5130247 1.2299277 -1.3909957 22.576555
1.048622 0.26512206 -1.2481083 8.8381433
-1.4963212 0.31276959 -1.2918196 7.9275627
1.0850898 0.34300017 -1.2511162 10.123601
-1.5126858 0.4789463 -1.2877184 10.333333
-1.4978713 0.46647578 -1.2922339 11.166667
-1.5016471 0.56313688 -1.2937589 12.878983
1.0953306 0.59213006 -1.2845104 14.504833
1.1155421 0.97906148 -1.2776396 20.930079
-1.4977309 1.0264301 -1.2840848 20.379124
-1.5512483 0.18484999 -1.1579427 6
-1.4954603 0.32397112 -1.1947049 8.354167
-1.4822878 0.49633902 -1.1394998 12
1.0600827 0.58392173 -1.1860659 14.956416
1.092952 0.85781312 -1.1035202 20
1.0567882 0.97513705 -1.118881 22.12225
-1.5183833 1.0967348 -1.1583987 19.75
-1.5346297 1.3495241 -1.1747864 22.354666
-1.5072972 0.2408002 -1.0058645 6.8461537
1.0737613 0.26565677 -1.0823978 9
1.0899314 0.47713679 -1.0421096 12.5
-1.512749 0.57761747 -1.0408435 12.578112
-1.4910927 0.51629841 -1.0833559 11.5
1.0929598 0.55768496 -1.0459582 14
-1.4938136 0.60447991 -1.0422492 13
-1.4754182 0.77669334 -1.0908117 18
1.0756676 0.87642658 -1.0712762 20.5
1.0951355 0.97126842 -1.005198 21.643293
-1.513468 1.0031325 -1.0009407 19.022964
-1.5218691 0.10333268 -0.92891872 4.5
-1.4929966 0.18096949 -0.97482848 6.5
-1.4757618 0.26713449 -0.95062685 8
1.0549877 0.28736681 -0.97029537 10
1.0724548 0.31025708 -0.96453422 9.5982103
-1.5217645 0.48942003 -0.96925342 12.5
1.0857934 0.46310973 -0.96522033 13
-1.5053056 0.54872 -0.9478693 12.916666
1.080917 0.57798958 -0.99357402 14.858134
-1.4981211 0.61915243 -0.91341889 15.20835
-1.5085853 0.88939393 -0.97012454 17.5
1.0904856 0.8839609 -0.9015969 21.668901
-1.5141288 0.99880803 -0.98030841 19.125
-1.497669 0.95189869 -0.92464226 20.972393
-1.4933569 0.2491703 -0.85938269 7.8884845
1.0799991 0.29615915 -0.82921535 10.117929
1.0520508 0.30088738 -0.86387551 10.045555
1.0860935 0.44641197 -0.87037617 13
-1.4959736 0.54584467 -0.83362377 14
1.0641651 0.54484695 -0.84324884 15.628821
-1.4963117 0.631239 -0.85975212 14
1.0504131 0.91246033 -0.8588661 22.57309
-1.5172204 1.0016263 -0.86313564 20
-1.5268497 0.13899514 -0.72229385 5.5
-1.4823714 0.24092603 -0.72146106 7.5
1.074506 0.27784973 -0.76476467 9.25
1.0450268 0.32335025 -0.73929089 11
1.0866741 0.47178429 -0.7948699 14
-1.5271215 0.53671527 -0.70208907 14
1.058678 0.51323414 -0.77737343 15.5
-1.4735073 0.63049054 -0.7903707 16
-1.501578 0.80751038 -0.74962556 17
-1.5198441 0.1542265 -0.6036694 5.5
-1.5152136 0.2169604 -0.61980557 6.7222223
-1.4933935 0.31600544 -0.6318084 8.9161119
-1.5079179 0.56740999 -0.63414752 13.39844
1.0510563 0.51919264 -0.64244765 16
-1.4884527 0.67007303 -0.64113319 16
-1.5393792 0.78798872 -0.63678217 19
-1.4777961 0.83768743 -0.6194452 20
1.0743015 0.86947042 -0.62012184 22.619659
-1.5094986 0.91476148 -0.607328 19.142857
-1.5195168 1.002381 -0.63733488 20.397707
-1.5084176 0.24117181 -0.56628197 7.7833338
1.0658807 0.3201265 -0.54764014 11.069408
1.0732977 0.45483613 -0.54257298 14.266666
1.0684617 0.5883131 -0.59684366 17.252623
-1.4967446 0.65201336 -0.50792289 16.700001
-1.5052376 0.89542902 -0.53424346 19.200001
1.0517071 0.8631224 -0.59992528 23.11425
-1.5077883 0.90430927 -0.51390743 21.258518
1.0363376 0.26763684 -0.48890755 10.012276
-1.5160432 0.30882668 -0.47870362 9.4617853
1.0833654 0.32797357 -0.46832633 11.364456
1.0750856 0.46705583 -0.44745547 14.75
-1.4833547 0.54820335 -0.46723327 14
1.0576628 0.53345615 -0.4373267 16.31065
-1.500134 0.60365403 -0.49894515 15.823212
1.0980792 0.85329312 -0.46696872 22.459454
-1.5288839 0.1714697 -0.39771399 6.5
1.0578935 0.16638921 -0.31749994 7.3333335
-1.5266275 0.22887789 -0.39687458 8
1.0576649 0.27466139 -0.36822966 10
1.0782192 0.3158119 -0.37371236 10.875
-1.4987231 0.43368351 -0.36358732 11.5
1.082116 0.49955767 -0.3729246 15.5
-1.4801363 0.65475678 -0.34238613 17
-1.5047777 0.88122451 -0.35040647 19.5
-1.1417099 0.051973771 -0.26400527 3.6666667
-1.4874921 0.20165834 -0.20529914 6.7777777
1.0613456 0.27262115 -0.20961544 10.411997
-1.5006989 0.33952627 -0.24466589 9.7169724
-1.4899243 0.36543119 -0.21504311 11
-1.5114965 0.58260226 -0.23661926 14.821445
-1.5038327 0.63217908 -0.24107237 16.666666
1.0681031 0.61872029 -0.21450385 19.255009
1.0825393 0.82849628 -0.28822216 23.1136
-1.5160258 0.98838431 -0.23340496 21.185141
-1.5350119 0.098351218 -0.15139145 4.75
-1.501549 0.33321893 -0.10485657 10.039431
1.0782745 0.46882382 -0.15609869 15.242857
1.0838567 0.50145996 -0.17158839 15.5
-1.5151393 0.62532848 -0.14142406 16.179176
1.0575638 0.60002381 -0.12766922 18
-1.5155529 0.91075307 -0.10390426 21.406136
1.0437411 0.10214242 -0.017561866 6
1.0247436 0.2920934 -0.090256497 10.754625
-1.5045425 0.31908917 -0.071914151 9.75
1.0765059 0.32496774 -0.09720023 11.247787
1.0544162 0.56729305 -0.075994223 16.99119
-1.5205503 0.64850962 -0.054571196 16.428572
-1.4886832 0.8324033 -0.022252098 20
1.0256994 0.85448539 -0.035786122 22.936834
1.1001197 0.89853567 -0.065858319 22.831591
1.0480431 0.1158185 0.057627674 6
-1.5077573 0.31982428 0.04811535 9.4355001
-1.5091975 0.53683209 0.05413878 14
1.0614904 0.53939128 0.078085274 18
-1.5824556 0.68277091 0.047694921 16
-1.5128294 0.80599165 0.031764716 19
-1.528071 0.21704234 0.191624 7
1.0491848 0.254958 0.17978802 10.021425
1.0596552 0.49001068 0.16866729 16.222221
-1.5131035 0.5309279 0.10848895 13.5
-1.5316238 0.63358551 0.13178024 15.384292
1.059399 0.62251186 0.19339472 19.41313
-1.5306878 0.75015485 0.18440498 17.75
-1.5240293 0.95701456 0.13854526 20.666666
-1.5256605 1.0108041 0.14982729 21.820379
-1.535439 0.068322241 0.29757604 4
1.0455292 0.16038793 0.27794904 7
1.0777154 0.28954148 0.28260648 9.6985006
-1.5221924 0.31679547 0.27921218 9.1008329
-1.5182482 0.53957099 0.20024915 13.4
1.0713719 0.55988985 0.29317737 15.706954
-1.5195649 0.64890879 0.26606157 15.61473
1.043316 0.6206392 0.29917783 17
-1.5119888 0.83774555 0.20261163 19
-1.5585271 0.078732878 0.3866863 4
-1.0302013 0.026978988 0.30593783 3
1.0228692 0.32337722 0.33131436 11.354139
1.0583282 0.49502572 0.30885977 16.166666
1.0476977 0.561055 0.31462437 15.744988
-1.5737859 0.74764949 0.31561494 17
1.036764 0.85579413 0.35562122 22.398575
-1.5361106 0.99004161 0.30074531 21.139296
1.090234 0.95960343 0.34830493 22.383181
1.0464051 0.32709149 0.49844074 11.333333
-1.5219092 0.53309703 0.44345737 12.75
-1.5315903 0.70242578 0.44275662 16
-1.5569594 1.2059101 0.49416256 23.043499
-1.0107239 0.014959577 0.52514362 3
-0.88362741 0.021914065 0.53419352 3
0.62261093 0.0031176396 0.57800215 2
1.0425898 0.16046363 0.56518203 7
-1.5439742 0.21445417 0.56537032 6.7222223
1.0395989 0.25763208 0.57696438 9.3999996
-1.5392621 0.34934509 0.56567436 9.2667227
1.0328393 0.30543411 0.5637098 10.728038
1.0427066 0.59921688 0.54633468 17.684151
-1.5423249 0.60265267 0.5464316 14.035675
-1.5587599 1.0176973 0.54446673 20.449524
-1.4181796 0.0073332544 0.62295425 2
-1.5127563 0.20864749 0.63832122 6
-1.4852374 0.23995124 0.63183612 7
1.0368108 0.26802662 0.65504318 9.3999996
-1.5738094 0.36804461 0.68549764 9.1333742
0.9799968 0.31793231 0.67845899 9.7171879
1.1007209 0.31986099 0.6852476 9.4266672
1.053839 0.44757026 0.61689091 14
-1.5438406 0.56222862 0.63791817 13.5
1.044349 0.51748651 0.60986805 15.285714
-1.5318495 0.60063493 0.67513728 13.407393
1.0017099 0.63522488 0.68027186 15.865067
-1.5669243 0.73958904 0.68122637 16
1.0444872 0.8643533 0.60976607 22.658314
-1.5554632 0.9694798 0.61104071 19.727272
1.0097222 0.93015468 0.6944378 20.758917
-1.5732256 1.0287549 0.67737341 19.777252
-1.5498631 1.1640745 0.67651802 22
-1.601468 0.084291488 0.78021419 4
-1.5902536 0.063475698 0.72837847 4
-0.4069283 0.022126827 0.7404266 3
1.0299367 0.16817744 0.71377844 7
-1.5454911 0.22505863 0.73627681 6.2222223
-1.5852462 0.35784078 0.79604644 8.5
1.149141 0.66546047 0.72952682 15.4932
-1.5596267 1.0728334 0.79016286 20.5
1.1719995 1.0253621 0.76485831 20.426277
-1.5437644 1.2698056 0.76860899 22.8512
1.2310873 1.2874041 0.79163021 23.093
-0.94306076 0.015319914 0.87388331 2.5
1.221258 0.11332123 0.89600462 5
-1.5181954 0.21724522 0.895904 6
1.0286213 0.53702939 0.88084763 14.5
-1.548551 0.83543324 0.86207694 17
-1.5908141 0.09417969 0.9864924 4
-1.4942467 0.0065429285 0.99493593 2
-0.60562074 0.037414484 0.90134299 3.4000001
-0.30966651 0.029733628 0.94173628 3
0.37926084 0.022129118 0.90140706 2
1.0281717 0.10859253 0.9300105 5
1.2284067 0.15549803 0.90891916 5.5
-1.571636 0.22567248 0.9445715 6.4666667
1.0221518 0.35182554 0.97137332 10.345316
-1.5654505 0.57360429 0.93190122 12.386537
1.0307165 0.5717234 0.97740328 14.818182
-1.5675104 0.66053528 0.99644828 14
1.0278722 0.64808154 0.94872785 16.537697
-1.5611879 0.72766602 0.90647155 15
1.0428814 0.72349107 0.98536801 18
-1.6197944 0.99857306 0.95302218 18
-1.5708456 0.95740217 0.97707552 18
1.0471164 0.95671529 0.98568249 21.507416
-1.6007172 1.059726 0.92918915 19
-1.5794146 1.0622001 0.93808764 19.361435
0.56287903 -0.024608465 1.0694594 1
-0.70497096 0.00071154907 1.0073555 2
0.98206854 0.14428836 1.0481901 5
-1.5160655 0.26428837 1.0744057 7
1.0190576 0.33414829 1.0457271 9.5
-1.5474286 0.42928454 1.0304406 10
-1.5209838 0.59389949 1.0576007 12
0.99743307 0.59689337 1.0620306 13.199611
-1.5328084 0.64214844 1.0638834 12.580572
-1.5772336 1.0674684 1.0585134 18.785862
-1.5606316 1.2360587 1.0414224 21.3915
-1.5402578 1.3609514 1.0716577 22.054039
-1.3128827 -0.0027805753 1.1227355 2
-1.0454346 -0.01616475 1.1281695 2
-0.32920516 0.0018661846 1.1569226 1.6666666
1.1962041 0.1528981 1.1788611 5.3333335
-1.5753562 0.28165105 1.1128975 7.3333335
-1.5669804 0.36134955 1.1508881 8.1302853
1.0104589 0.32340339 1.121616 9
1.1602468 0.32576048 1.1497166 8.0893755
1.0277709 0.47449294 1.1633987 12
-1.508615 0.59645408 1.1861269 11.5
-1.5129051 0.6369589 1.1596032 12.571428
1.1824814 0.61982518 1.1447005 12.739551
-1.5775605 0.86440182 1.138204 16.5
1.0333762 0.85784435 1.1314696 18.175737
-1.5928744 1.0146606 1.1808428 18
1.1779343 1.0100242 1.1338394 18.222868
1.2035177 1.3648936 1.1116335 22.589874
-0.081769213 -0.0027729049 1.298718 1
0.98159289 0.30422509 1.2055848 8.0872498
-1.572615 0.54114562 1.2611167 11
-1.584272 0.60977894 1.2881718 12
-1.5608275 0.72890073 1.2347722 14
-0.2608102 -0.0036569135 1.3401234 2
-1.1435444 0.014719158 1.3769281 2
-0.88300812 0.0017059376 1.3788559 2
-1.6278502 0.28692436 1.3828664 6
-1.570596 0.22324443 1.3468248 5.9166665
-1.5725662 0.35583147 1.3355473 8.0524998
1.0405277 0.5593881 1.3821807 12.608629
-1.5788889 0.64942449 1.3771048 12.234591
1.053251 0.6500597 1.3644314 14
0.97211206 0.92941236 1.3927536 17.085751
-1.5810946 1.0083634 1.3579437 17.170265
1.0592467 1.0005715 1.3718367 19.434978
1.0547918 1.2778847 1.3977317 22.8869
-1.5776604 1.3841531 1.3181431 21.802313
0.99209249 1.4635593 1.373306 23.086
0.70558566 -0.038946941 1.4522774 1
-1.5747322 0.14190608 1.4308895 4.5
-1.5675249 0.31516236 1.4176219 7
1.0294507 0.33861986 1.4001373 8.8366251
-1.5567169 0.40437901 1.4967027 8.0570002
-1.523286 0.57202649 1.4994726 10
0.94776154 0.53206021 1.488436 11.085
1.0494583 0.57644629 1.4594737 12.5
-1.5196052 0.64564341 1.4747458 11.280857
1.050146 0.63953543 1.4372072 13.454545
1.1970592 0.74921888 1.429822 13
1.2018223 0.74912095 1.4190435 13
1.179202 0.81353962 1.4048663 14.5
-1.5937668 1.0769589 1.4667087 16.627964
-1.6368325 1.4908223 1.4570701 22.052999
-1.3019238 -0.018966496 1.5096846 2
-0.47438827 -0.0039935261 1.5111949 2
-0.35854587 -0.0013647676 1.5398641 2
-0.021111742 -0.0092218481 1.5343194 1
0.75389314 -0.032187432 1.5457354 1
-1.4500639 0.00071489066 1.518229 2
1.1114576 0.60503167 1.5337198 11.252918
1.0502135 0.71005392 1.5197114 14.25
1.0347369 0.81350434 1.5169744 16
1.1663932 1.0343782 1.5424643 16.632046
-1.584691 1.3615282 1.5285251 19.473665
1.1421481 1.3666503 1.5771604 20.086166
-1.5430245 1.6725012 1.5568533 23.057501
1.0458909 1.624449 1.5449116 23.085501
-0.61893791 -0.0011520684 1.6527176 2
0.69388652 -0.039518654 1.6498497 1
1.0362601 1.0299624 1.699304 17.811953
-1.6182787 1.3499377 1.6799351 18.25
-1.595462 0.23023126 1.7625364 5.6153846
1.0151309 0.34008628 1.7811409 8.0839996
1.0309203 0.54468983 1.7582695 10.88425
-1.6228155 0.68307549 1.7989832 11.5555
-1.5989714 0.64857715 1.7355843 11.18025
1.0394982 0.62673479 1.7847887 12
-1.6172199 0.8417635 1.7428904 14
-1.6100891 0.98295295 1.772974 14.927719
-1.6286104 1.0635253 1.7505581 16.027626
-1.6401364 1.2369121 1.721016 17.166666
-1.598923 1.2525355 1.7770241 18
1.0334077 1.3797992 1.795222 21.4841
-1.6225351 1.4036386 1.7952013 20.0555
-1.5951647 1.4074305 1.7438786 19.944223
-1.5859532 1.6957464 1.7607317 22.8055
-0.23164472 -0.0028238818 1.8943717 2
-1.6304781 0.1813841 1.896772 5
-1.6068077 0.34565377 1.8434539 7
1.0704179 0.38838166 1.8035998 8.0845003
1.0101013 0.49749166 1.8012321 9.0839996
1.0463157 0.54671502 1.8591014 11
-1.6249303 0.62865174 1.8433185 10.390362
1.0326906 0.74012631 1.8193216 13.5
1.1286871 0.71549898 1.8914232 11.751166
-1.6295788 0.80493754 1.8895847 13
-1.6236535 1.0506358 1.8591125 15.35
-1.5851945 1.0941631 1.8643396 15.058834
-1.6009868 1.2754657 1.8390843 18
-1.6138345 1.3265806 1.8537359 17.858601
-1.648851 1.7270224 1.8588436 21.725
1.1062195 0.028656587 1.9708927 2
-1.6004968 0.39995146 1.9392544 8.0565004
-1.628279 0.69044787 1.9011445 11
1.0824045 0.94514894 1.9183128 14.250667
1.1660877 1.3881389 1.9231775 18.8846
1.1004633 1.7125899 1.9402454 22.084
-1.5758588 0.090213597 2.0104575 4
-1.6189795 0.57489777 2.0532589 9.2222223
-1.5980424 0.65811473 2.0353966 10.5
-1.6339941 1.0440243 2.0743964 15.057
1.0069413 1.1872523 2.0078988 17.083
-1.5671402 1.8405561 2.0604367 22.6574
-0.43980151 -0.013895333 2.1286047 2
1.0293949 0.98720193 2.1150644 15.5825
-1.6321909 1.1569967 2.1608081 15.666667
-1.6290542 1.2315516 2.1166391 16.557251
-1.5974665 1.3147172 2.1162322 17.285715
-1.6122798 0.58755261 2.2449009 9.3913336
-1.6349123 0.60123181 2.2364907 9.3911667
0.99750876 0.68978232 2.2783661 10.582
1.0184305 0.62018776 2.2234128 10.582001
-1.6209459 1.1405174 2.2162325 15.019333
-1.6309787 1.2744458 2.2737951 16.5
-1.6054513 1.4582758 2.238852 17.282555
-1.5755334 1.4608827 2.2229691 18.362335
1.0547752 1.4157386 2.2485731 18.644814
-1.6137707 1.7615066 2.2943931 19.810501
1.1024522 1.7835935 2.2491963 21.08275
1.0146377 1.8080301 2.2158768 23.082001
-0.98226511 -0.035140857 2.3147919 2
-1.5542821 0.67215776 2.3078995 9.3943338
1.0898372 1.0818561 2.3175361 14.082501
-1.5275962 1.1596725 2.3294039 14.56125
-1.6231622 1.2613374 2.3700039 16
-1.5985968 1.3082833 2.3065913 17
-1.5805452 2.0076075 2.3082545 23.0585
1.1024703 2.1193087 2.3157237 23.082499
-0.22048011 -0.015514776 2.4702868 2
1.0605209 0.69838518 2.4169993 10.082001
1.0055162 0.93124443 2.4496486 12.0815
1.0078915 1.7152205 2.488884 21.080999
0.99648082 2.1228962 2.4620893 23.081249
-0.96768427 -0.045518786 2.5901148 2
0.90739751 0.01858536 2.5821028 1
-1.6406559 0.68167305 2.5140116 10.059
-1.5952576 0.60745531 2.5168247 9.0593328
0.96653605 0.70372021 2.5928776 9.7475004
-1.6116282 1.0103796 2.5811043 13.0595
-1.545935 1.0353758 2.5900297 12.562
-1.62904 1.1069224 2.5510252 14.05925
1.0215858 1.1263655 2.5438943 15.080875
-1.6011645 1.4073836 2.5460525 16.559416
-1.5687827 1.5114455 2.5913765 16.7285
-1.5797383 1.6274378 2.5212686 19.0595
1.032964 2.0037019 2.5340831 23.080999
-1.6009516 2.1256115 2.5680549 22.726166
-0.15177333 -0.033683427 2.6656487 1.5
-1.5901945 0.15795171 2.6952174 4
1.0101441 0.63529873 2.6081123 9.6806002
0.98126769 1.0802888 2.6459637 13.08075
0.98716253 1.3705224 2.7107105 16.746834
-1.5850855 1.6269073 2.7882078 18
-1.6377774 1.7108725 2.7813241 17.395334
0.98496449 2.0961857 2.7135904 21.413834
-1.5898756 0.20169964 2.8191683 4.5
-1.6008197 0.54212636 2.8483756 8.0605001
-1.6058489 1.1308855 2.8548617 13.0605
-1.6146057 1.3909277 2.8230972 16
-1.611125 1.4223772 2.8356521 15.78025
-0.55748791 -0.063037604 2.9299221 1
1.1168702 1.2908432 2.9123397 14.081
-1.5832211 1.6824064 2.9504945 18.061001
0.97086716 1.6638423 2.9109738 17.08
-1.5995659 2.3416672 2.9227931 22.560749
-1.7241446 0.75236106 3.040488 8.5622501
0.94330668 0.77088779 3.0969992 9.0795002
-1.6447434 1.158883 3.0885084 13.061
-1.645913 1.5796618 3.06235 16.061001
0.70072234 -0.16482028 3.1053305 0
-1.6221564 0.58603871 3.1927643 8.0614996
-1.5866867 1.4939849 3.1083736 15.063167
0.95316696 1.4219112 3.1281364 14.5795
1.088994 2.4429812 3.116019 22.08025
-1.2112262 2.7564609 3.1866937 23.0655
0.40489012 -0.083100528 3.2118661 0
-1.6402677 1.4322205 3.2398503 15.0615
-1.5101599 1.8541629 3.295208 17.063999
0.99919343 2.260572 3.2236695 20.0795
0.79868025 2.5840762 3.2625532 22.578251
-0.8922134 2.7396541 3.247267 23.067499
-0.41534168 2.7045732 3.2747276 23.070499
-1.6195149 1.503113 3.3792152 14.562
-1.6262704 1.6073873 3.3947024 16.062
0.88302648 2.2748437 3.3972342 19.578501
-1.1459954 2.7266018 3.3924551 22.637644
-0.88338631 -0.058474958 3.4780009 2
-0.62558508 -0.061539292 3.4415886 2
-1.6415459 1.1782601 3.4244003 12.062
-1.6320919 1.9271507 3.4103272 18.062
-1.6376401 2.3204751 3.41855 19.81275
-1.6386195 2.5605803 3.4295738 22.062
-1.5653081 2.747009 3.445008 21.897333
-1.3798573 2.7335188 3.4362872 23.063499
-0.78341848 2.727432 3.4732409 22.639858
-0.43843848 2.7160044 3.4838631 22.570499
-1.6247625 2.0378993 3.5949259 18.0625
-1.8973475 2.6673567 3.543848 21.0625
0.33825606 2.6927183 3.5217826 22.408499
0.7986328 2.6912372 3.521425 22.077751
-1.0210496 2.7137668 3.5243986 23.06575
-2.0528653 2.9711099 3.5577269 22.06175
-2.2488713 3.1067145 3.5160136 22.560749
0.1131653 2.6878166 3.639508 22.07375
1.0425111 2.672075 3.6516695 21.079
-0.30924845 2.7081795 3.6173306 23.07025
-1.5867416 -0.096564054 3.7357721 2
-1.6257492 1.4918859 3.7996643 14.063
-1.6372628 1.7065434 3.7390101 15.06275
-1.4053755 2.7185643 3.7562053 21.813999
-0.60937297 2.7066007 3.7308795 22.8685
0.20332882 2.7174029 3.7692192 22.8734
-0.86867338 -0.090062685 3.896076 1
-1.6340348 2.6875107 3.8448477 21.063
-0.42030007 2.6932991 3.8168323 21.070751
0.7840724 2.6739953 3.8738625 20.877298
1.0916971 2.6114783 3.8414085 21.078501
-1.0225985 2.7136319 3.8530831 22.06625
-0.78801572 2.7010109 3.8813632 21.268803
-1.6711969 1.2074697 3.9156947 11.063
-1.7444715 2.3442163 3.9227374 18.063999
-1.5576792 2.6984372 3.9767807 20.065001
-1.2594665 2.6846666 3.9938648 20.0665
0.42103547 2.6854353 3.9460549 21.374973
-0.054432794 2.7004848 3.905812 21.07275
0.16334389 -0.10117628 4.03724 0
-1.6055382 0.94021785 4.0141273 9.0635004
0.93362838 2.6682742 4.1388154 21.07725
-1.7635896 1.8035816 4.2552996 14.0645
-0.060437649 2.6679986 4.2792244 19.644144
0.57450992 2.6610579 4.2536941 20.575249
0.78725302 2.6346431 4.2433171 19.36264
-1.5980178 2.7069578 4.2628193 19.06525
-1.4961569 2.7220163 4.2659435 20.064501
-1.4540217 2.1499565 4.399354 16.464901
-0.38447481 2.6623774 4.300519 19.4711
0.20354144 2.6565146 4.3180223 20.57325
-1.2034262 2.678489 4.4291749 19.067249
-0.66712832 2.6668744 4.4104204 19.06975
0.31077915 2.6728263 4.4417882 19.074499
-1.1843177 2.673399 4.5720663 18.067499
0.0054781884 2.6868751 4.5572662 19.073
0.13096802 2.6648717 4.566783 19.7395
-1.4895527 2.6987145 4.6755157 19.065168
-0.93302304 2.6739945 4.6249676 18.735334
-0.57808352 2.6534288 4.6089811 19.402666
-0.21795399 2.6594677 4.6453447 19.571125
0.41909432 2.6328111 4.6625261 18.274899
0.65180337 2.6107836 4.6143403 18.076
1.0024136 0.4882659 4.7724566 6
1.030206 0.66224134 4.7840743 7
1.0534054 0.98771471 4.7995491 9
1.0287106 1.0355135 4.7672949 9.5
0.99368632 1.1263323 4.7609854 10
1.0220355 1.2937717 4.7898731 11
-1.8707131 2.6616888 4.7566018 17.064751
-1.6307616 2.6784604 4.7018242 17.8657
-0.98293328 2.6492281 4.7470217 19.067499
0.98377705 0.69273758 4.800169 7
1.0021865 0.90910232 4.809876 8.5
1.0412128 1.4263647 4.8136182 11.5
1.0420729 1.7564962 4.8432102 14.077
0.93733084 2.1140287 4.8907442 15.5765
-0.44278473 2.6252968 4.8010211 18.070999
-0.35014239 2.6419928 4.8480988 19.070499
0.94800174 0.97199053 4.9315214 9.0764999
0.94948596 1.4948702 4.9050722 12.0765
0.6659804 2.1075549 4.9339218 15.575251
0.95293838 2.5676122 4.9540644 17.8265
-1.5429181 2.6523616 4.9983978 17.732
-1.1044701 2.6629372 4.9703488 18.067167
-0.60816979 2.6393194 4.9710755 18.2694
-0.80726689 2.6634977 5.0700741 17.4695
0.71759963 2.6276748 5.0155683 17.076
1.2008749 2.7055526 5.0264201 18.077499
1.3146636 2.8116064 5.0655231 19.077999
-1.6191812 2.6101975 5.1384778 16.399584
-1.3998591 2.6411927 5.1839018 17.3995
-1.2365271 2.6498563 5.1031418 17.067749
-0.48628759 2.6943307 5.1525979 17.570875
0.75085914 2.637929 5.1548271 18.0755
0.07467182 2.710819 5.1704369 17.57325
-2.0263574 2.6354868 5.2027617 16.064751
-1.0408783 2.6302044 5.2363248 17.267698
0.39089614 2.6117084 5.2987814 17.074499
1.121931 2.6031353 5.2061152 16.077499
-0.12047125 2.7973213 5.2750707 17.5
-0.080700159 2.7986579 5.2791057 18
-1.7353158 1.3907325 5.3037643 10.065
-0.24372809 2.5875187 5.3457408 16
0.32139248 2.5980301 5.3937716 17.0735
-1.2128861 2.6438153 5.306118 16.068001
-0.84250474 2.6135476 5.355154 16.0695
-0.62964934 2.6525519 5.3941131 17.0695
-0.20154172 2.6594603 5.3774738 16.5
0.5682621 2.6027067 5.3324342 17.074598
-0.11676154 2.7081182 5.3516784 17
0.65641642 -0.18666063 5.4686537 0
-0.44563186 2.6563292 5.435997 16.321125
-0.28234616 2.640142 5.4802904 17.070999
-0.099382319 2.6130729 5.4169831 16
0.79170012 2.60799 5.4600797 16.076
0.86323559 2.617219 5.4567657 17.07575
0.41746479 2.6601255 5.5480962 16.474499
1.0561066 2.6103115 5.5160208 15.577
0.97185278 2.5861657 5.7497368 15.0765
-0.015016526 2.6041515 5.7650061 15.739499
0.15687078 2.6916299 5.7067156 16.6728
-1.6111697 -0.11795044 5.8802705 2
-1.8297135 2.5569506 5.8520393 15.06525
-1.089463 2.5991337 5.8935304 16.068001
-0.56928933 2.5931594 5.8702488 15.07075
0.71859515 2.5762384 5.8499217 15.0755
-2.0350864 2.6218295 5.8449216 15.065501
-0.68308735 2.620023 5.8130221 16.0695
0.46739522 2.6079845 5.8371434 16.073999
-1.6652925 2.2730045 5.9725299 14.066
-1.4993769 2.5873022 5.9110298 15.733167
0.31893325 2.5695715 5.9857821 15.074
-1.771647 2.6312976 5.9778762 15.0665
-0.84855968 2.6063042 5.968317 15.06975
-0.30304885 2.6083643 5.9053831 16.070999
-1.6733208 1.8617988 6.0720639 12.066
-0.78241289 2.5549293 6.0963931 15.06925
-1.0705853 2.6134315 6.0345359 15.069
-1.711071 1.4951282 6.1300931 10.066
0.33545136 2.4185982 6.1814632 14.074
0.61282909 2.4140058 6.1507039 14.075
-1.423997 2.5483818 6.1882906 15.067
-1.0602663 2.5379195 6.1071644 15.06825
0.090701684 2.5914927 6.1659446 15.5725
-1.6216849 2.6145489 6.1563764 14.733833
-0.37657905 2.5904064 6.2291117 15.0715
-0.097306393 2.5571983 6.2355289 14.405833
-1.2556522 2.6139622 6.2862616 14.318501
0.77281833 2.5764811 6.3005037 14.0755
-2.0411108 2.6040127 6.3530917 14.065999
-1.589324 2.5908227 6.4723525 14.0675
0.50353318 2.5637078 6.5643559 14.6739
-2.319644 0.29390329 6.6992059 3
-0.90077293 2.5880222 6.661015 13.819875
0.048722327 2.5584342 6.6418152 14.073
0.82463962 2.5490801 6.6765666 14.075
-1.6985782 0.026125744 6.7001019 2
-2.0717103 0.29879242 6.7181907 3
-1.6944854 0.27451336 6.7081499 3.5
-1.695138 0.31369931 6.7516165 4
-2.2269666 0.79291278 6.723618 5.5
-2.0772984 0.74888849 6.7396069 5.3333335
-1.7137353 0.72882509 6.7184763 5.5
-1.7551076 0.8754974 6.7301388 6
-2.2630577 0.99036288 6.7128701 7
-2.3268001 1.7037407 6.781477 9.5655003
-1.6688023 1.7914592 6.7902541 10.0675
-1.7178015 2.5748594 6.7471066 14.0665
-0.55704212 2.5909994 6.7961559 14.071
0.24951261 2.5093741 6.7417841 14.073
-2.0805278 1.75346 6.8117118 10.06625
-2.4164104 2.3744445 6.8181 12.06525
-2.0846298 2.4004731 6.8002868 12.56625
-1.7548621 2.4505095 6.8302822 13.06725
0.57541502 -0.30440831 6.9791832 0
-2.2238071 0.32884562 6.9862542 4
-1.5195224 2.5747886 6.9333458 14.06725
-1.2918024 2.5589869 6.9528041 13.06875
-0.40311575 2.5998909 6.9168162 14.0715
-0.073163711 2.5499291 6.9684381 13.572249
0.31711793 2.5666406 7.0545425 13.07375
0.72195017 2.5629299 7.0938563 13.075
-2.6281109 0.36396348 7.1165352 4
-2.4356761 1.3896402 7.1230469 8.0654993
-2.0103672 1.4559929 7.1306772 8.0667496
-1.9906331 2.3125539 7.1283698 12.06675
-2.5161355 2.5748384 7.1035008 13.06525
-1.1452638 2.529973 7.1590924 13.0685
-0.29342848 2.5177889 7.1283698 13.57125
1.0705068 2.5787339 7.1806078 13.076
-2.478852 0.77489883 7.2723007 5
-0.90833771 2.5481112 7.2384362 13.07
-0.055421527 2.5009723 7.2952876 13.072
-0.21960226 2.4742012 7.3487 13.0715
-0.95104325 2.5299931 7.3707051 13.06925
-0.7539342 2.5409112 7.4148307 13.0705
-1.4934154 2.5208988 7.6440563 13.06775
-0.52961385 2.5090075 7.6063414 12.07125
-1.8783826 2.5092368 7.832715 12.06675
-0.68495053 2.525203 7.8107328 12.736833
-0.27349058 2.5079041 7.9790373 12.072
-1.1155386 2.4839628 8.0336123 12.069
1.0268302 2.484889 8.0782337 12.0755
-0.31798473 2.5208774 8.0915031 12.07125
-1.4190347 2.4778275 8.1936131 12.06825
1.0103019 2.4826648 8.1849308 11.0755
-1.7785097 2.5166314 8.1969128 11.068
-0.088590592 2.5052295 8.1958828 12.0725
0.84496087 2.4844995 8.2282763 12.0745
-1.7346698 2.4720249 8.3542376 12.0675
0.66968149 2.4756291 8.3469095 12.074
0.75434804 2.4795661 8.3380613 11.07475
0.49174646 2.4680769 8.4993124 12.0735
-2.1440659 2.4650152 8.5375624 11.0665
0.13147162 2.4651954 8.5390711 11.5725
-1.01466 2.4799285 8.6232433 12.0695
0.41193217 2.4727893 8.6436806 11.07375
-1.3014905 2.4732201 8.8938198 11.0695
-0.065573551 2.4323146 8.8443928 11.072
0.53202629 2.467186 8.9506998 11.0735
-0.47024804 2.4013093 9.0516644 11.071
-0.26706636 2.4253566 9.0032749 11.0715
-0.099436924 2.4636214 9.006319 11.0725
0.12375899 2.5024214 9.0185547 11.073
-1.7445524 2.4837081 9.1415262 10.0685
0.74616092 2.4348931 9.1192875 11.074
-1.699437 -0.24942726 9.2832918 2
-2.2139914 0.092427284 9.2781944 3
-1.8921002 0.17121953 9.2908278 3
-2.2342703 0.45560935 9.2533388 4
-1.8106517 0.55013895 9.2975807 4
-1.8390304 0.65222406 9.297286 5
-2.2575219 1.0221288 9.2853794 6
0.33892226 2.3710575 9.2549753 10.0735
-2.0273659 2.4873965 9.2425165 11
-0.67534429 2.4488511 9.2932301 11.0705
-0.4948318 2.4644766 9.2668629 10.0715
-0.29612833 2.4766965 9.2305861 10.572
-2.2306728 0.57486415 9.306181 4.5
-1.8974634 0.62371612 9.3407478 4.75
-2.3290088 0.70729685 9.3321199 5
-1.8933618 0.95376098 9.3274927 6
-2.2106853 1.0130546 9.3292875 6
-2.2689726 1.2327961 9.3580418 6.8000002
-1.907885 1.2796794 9.3650341 7
-1.833164 1.2867819 9.3625355 7
-1.9458482 1.6999366 9.3763103 8
-2.4510863 1.7948282 9.3487053 8
-2.2443142 1.8459179 9.3728418 8.5714283
-2.4491401 1.9007144 9.3467693 9
-2.0111699 1.922137 9.3412285 9
-2.4425204 2.1588199 9.3851423 10
-1.9129254 2.1711926 9.3840427 9.5
-2.2579393 2.2607224 9.3727551 10
0.12798671 2.3456144 9.316432 10.073
-1.9040397 2.4557705 9.3446999 11
-1.5603442 2.4327874 9.3429613 10.069
-2.4064951 1.4750998 9.405344 7
-1.9574162 1.7489403 9.4005909 8.25
-1.7459836 1.9773607 9.4099541 9.0679998
-1.7825881 2.0920024 9.4547768 9
-1.7666515 2.2758548 9.419528 10
-0.98919529 2.4054816 9.4364281 10.56975
-0.82860219 2.4522066 9.4341412 10.07075
-0.099708185 2.370609 9.5915222 10.0725
0.56357551 2.3800514 9.5127506 10.0735
-1.7689821 2.4309564 9.5038691 10.068
-0.93458289 2.395767 9.6383867 10.07
-1.4109539 2.405746 9.629529 10.0695
-1.4605511 2.3927641 9.7357912 10.06875
0.35926735 2.3856018 9.7023916 10.073
0.16202785 2.3766675 9.8595114 10.0725
0.59066641 2.3270943 9.8288927 10.074
0.35613352 2.313447 9.9750757 9.0734997
-1.2351903 2.395524 10.071379 10.07
-0.76316983 2.3456004 10.176624 9.0710001
-0.29848033 2.3457351 10.109219 10.0715
0.13393073 2.3226745 10.202481 9.073
-0.74089301 2.3571391 10.456913 10.0705
-0.31920058 2.3004439 10.433179 9.0719995
0.61081755 1.9502943 10.570467 8.0734997
-0.077034526 2.4280393 10.593232 10.072
-0.56464583 2.2837667 10.614083 9.0714998
-1.5555961 2.3229759 10.869473 9.0695
-0.79059166 2.3496273 10.885576 9.0705004
-1.044271 2.2906768 10.968396 9.0705004
0.16432661 2.3817973 10.947242 9.0725002
-1.3200204 2.2894721 11.198832 9.0699997
-1.8442441 2.3081121 11.108458 9.0690002
-1.4452902 2.3432469 11.272381 9.0692501
-1.0760469 2.313216 11.377034 9.0699997
-0.081957385 2.3086274 11.344415 9.0719995
-1.6333207 2.2781513 11.484787 8.0695
0.56616288 2.2929368 11.653033 9.0732498
-0.34870899 2.2938697 11.873892 9.0714998
-0.61069417 2.327858 11.841885 9.0710001
-0.34658223 2.3189769 11.975344 8.0719995
-0.33667573 2.231061 12.080147 8.0714998
-0.073778868 2.2726943 12.267961 8.0725002
0.44873673 2.2876279 12.589622 8.073
-1.5334381 1.7646482 13.073822 7
0.20197684 2.1870379 13.332137 8.0725002
-1.1217495 2.252286 13.383921 8.0702496
-0.097558387 2.1742523 13.725352 8.0719995
-0.69265157 2.239682 13.799055 8.0710001
-1.0671984 2.1264 15.0749 7
-0.060958907 2.1546574 15.364904 7
-1.9273428 1.8854091 16.689043 6
0.26018786 -0.80996525 17.556679 0
-0.8714447 -0.70030195 17.567572 1
0.27427644 -0.79535758 17.542608 0
0.40277135 -0.75590479 17.548885 0
-0.50349408 -0.61434817 17.700392 1
0.30335164 0.087101772 17.769884 1
0.41783023 0.065274186 17.762856 1
-0.49357307 0.67107546 17.782949 3
-2.1062481 -0.70186269 17.890867 1
0.27701563 0.30240804 17.836092 2
-1.297063 -0.80877554 17.981693 1
0.56466794 -0.50096607 17.922323 0
0.45280117 0.27217078 17.916628 2
-1.7133279 -0.77061701 18.068647 1
-1.6328392 0.95249921 18.005299 4
-0.017361388 1.9524696 18.376568 6
-1.3638099 1.958441 19.327219 6
-1.0278991 -0.50347877 20.391163 2
-0.11944859 1.78635 20.389874 5
-0.31279153 1.8298216 20.333782 5
-0.29038015 -0.32840824 20.486191 1.6666666
-0.11954916 -0.28331077 20.407442 2
-0.18471862 0.37505421 20.443344 3
-0.18464039 1.8056309 20.442228 5
-0.24170521 0.34291798 20.584072 2
-0.36491916 0.41027081 20.5392 3
-0.12090754 0.35866272 20.644766 3
