# .PCD v0.7 - Point Cloud Data file format
VERSION 0.7
FIELDS x y z intensity
SIZE 4 4 4 4
TYPE F F F F
COUNT 1 1 1 1
WIDTH 406
HEIGHT 1
VIEWPOINT 0 0 0 1 0 0 0
POINTS 406
DATA ascii
-1.331979 2.8343129 -4.5427933 21.00675
-1.3320035 2.9005585 -4.3056998 21.340332
-1.13714 2.8644595 -4.1030273 22.506374
-1.2814982 2.8654509 -3.8974972 22.7575
-1.0745883 2.8612196 -3.7737255 23.0065
-1.4511149 0.6117326 -3.4026737 8.0094995
-1.5020933 2.3608704 -3.3085358 23.01025
-1.4673767 0.6568507 -2.9737349 9.1774502
-1.4511404 0.92461699 -3.0447998 11.843862
-1.4771889 1.4338434 -2.8020012 17.678331
-1.456929 1.7520844 -2.9498439 20.011
-1.495355 0.58248997 -2.5550673 9.2304163
-1.4983635 0.96581972 -2.6105833 13.279034
-1.4755366 1.4003294 -2.5663996 17.897049
-1.4639616 1.7392807 -2.5892155 20.912251
1.1590782 1.7895026 -2.5914431 22.382626
-1.4975765 0.36716649 -2.1930387 8.0146255
-1.5080868 0.59967464 -2.186744 10.028172
1.1152724 0.61581933 -2.0393512 12.130084
-1.5074972 0.93073648 -2.1912906 13.897143
-1.501134 1.3586179 -2.2112749 18.435753
1.1311396 1.528802 -2.090709 22.22632
-1.4769027 1.713805 -2.2784126 21.930376
1.110145 1.7038853 -2.283092 22.882626
-1.5151194 0.31472501 -1.7958412 7.1164441
1.1031202 0.32683775 -1.642745 8.2954998
-1.5073006 0.54780895 -1.743471 10.508606
1.119807 0.64059496 -1.680766 13.286674
-1.5126551 0.98586839 -1.7585367 16.227451
1.1306627 0.93216735 -1.8222567 16.504936
-1.5116043 1.3050642 -1.758368 20.020021
1.1273592 1.3542142 -1.6883323 22.5653
-1.4978598 1.6506577 -1.8258812 22.516001
-1.5029085 0.3100346 -1.4200613 7.8686051
1.0777025 0.3129541 -1.2924849 9.1967201
-1.508166 0.53642124 -1.3541684 11.587681
1.1012447 0.60756004 -1.3471663 14.047474
-1.5098522 1.0081996 -1.3543761 18.648224
1.1249075 0.99287289 -1.4216843 19.839439
-1.5197364 1.2946547 -1.4463344 21.394468
1.1336467 1.3246648 -1.4043504 23.1283
-1.4973677 0.26577801 -0.97983372 7.7443223
1.0643682 0.29363832 -0.92866975 9.8012075
-1.5053704 0.57355249 -0.96250027 13.404948
1.0732212 0.54293555 -0.94653159 14.81443
-1.5084219 0.98461312 -0.96863049 19.706785
1.0745181 0.91561621 -1.0077881 21.501257
-1.5346297 1.3495241 -1.1747864 22.354666
-1.509544 0.26051196 -0.56820369 8.0000296
1.0607616 0.30384576 -0.50884664 10.755211
-1.5031786 0.59762186 -0.56879079 14.830023
1.0652703 0.52046555 -0.46728912 15.947429
-1.5027932 0.91444314 -0.59457296 20.19977
1.0746959 0.86196202 -0.56233859 22.731119
-1.4985707 0.29837319 -0.15668394 9.0710449
-1.1417099 0.051973771 -0.26400527 3.6666667
1.0608933 0.29706532 -0.19948897 10.81528
-1.5104456 0.57529724 -0.19519836 14.68766
1.0652224 0.54104769 -0.14224513 16.804621
-1.5050867 0.90623128 -0.18254212 20.52282
1.0694528 0.86050582 -0.12995553 22.960676
-1.5213338 0.28630412 0.18318474 8.4906111
-1.0302013 0.026978988 0.30593783 3
1.0445105 0.28549907 0.24280763 10.237407
-1.5267292 0.63706642 0.20796131 15.403917
1.0526344 0.57104081 0.26627925 16.679544
-1.5244077 0.94972277 0.19778866 20.650108
1.0545874 0.89039725 0.35318246 22.393442
-1.5241432 0.23284717 0.6351546 6.6689081
-0.94717568 0.018436821 0.52966857 3
-0.4069283 0.022126827 0.7404266 3
0.62261093 0.0031176396 0.57800215 2
1.038289 0.30021489 0.62609518 9.8179741
-1.5388331 0.60198009 0.58933347 13.826248
1.0594766 0.60434723 0.64150035 16.082033
-1.5597945 1.0023049 0.61209202 19.967857
1.075403 0.93995667 0.68968743 21.281168
-1.5503619 1.2378578 0.6313858 22.94735
1.2310873 1.2874041 0.79163021 23.093
-1.3128827 -0.0027805753 1.1227355 2
-1.0454346 -0.01616475 1.1281695 2
0.56287903 -0.024608465 1.0694594 1
-1.5440733 0.25046664 1.0580059 6.4715042
-0.94306076 0.015319914 0.87388331 2.5
-0.65529585 0.019063016 0.95434922 2.7
-0.31943583 0.015799906 1.0493294 2.3333333
0.37926084 0.022129118 0.90140706 2
1.0670544 0.23029606 1.053425 7.1022239
1.2191833 0.11443473 0.90177172 5
-1.5501442 0.6031279 1.0241623 12.449236
1.0594711 0.59916377 1.0416112 14.083184
-1.6007172 1.059726 0.92918915 19
-1.572673 1.0149106 0.99395037 18.531532
1.0693688 0.92391551 1.0984044 18.897707
-1.5532054 1.2801926 1.0369442 21.742846
1.2035177 1.3648936 1.1116335 22.589874
-1.3019238 -0.018966496 1.5096846 2
-0.47438827 -0.0039935261 1.5111949 2
-0.18055925 -0.0042541083 1.4282562 1.5
0.72973943 -0.035567187 1.4990064 1
-1.6278502 0.28692436 1.3828664 6
-1.5310755 0.19326361 1.4002004 5.3230553
-1.0132763 0.0082125477 1.377892 2
1.0055218 0.32142246 1.302861 8.461937
-1.5545014 0.58599341 1.4208335 10.926832
1.0693905 0.61704689 1.4542732 12.280218
-1.5874307 1.0426612 1.4123261 16.899115
1.0830166 0.9176383 1.4438715 16.730555
-1.6368325 1.4908223 1.4570701 22.052999
-1.5811758 1.3728406 1.4233341 20.637989
1.0630108 1.3693647 1.4493994 22.01969
-1.5430245 1.6725012 1.5568533 23.057501
1.0458909 1.624449 1.5449116 23.085501
-0.61893791 -0.0011520684 1.6527176 2
-0.23164472 -0.0028238818 1.8943717 2
0.69388652 -0.039518654 1.6498497 1
-1.6004968 0.39995146 1.9392544 8.0565004
-1.595462 0.23023126 1.7625364 5.6153846
1.0639228 0.25237486 1.8518778 6.0561662
-1.6252387 0.65770668 1.8466911 10.834056
-1.5989714 0.64857715 1.7355843 11.18025
1.0523018 0.59610379 1.8089284 10.929853
-1.6189058 1.002388 1.7871326 15.152672
-1.5851945 1.0941631 1.8643396 15.058834
1.0593324 0.98755568 1.8088083 16.031309
-1.6251398 1.3170025 1.751145 18.182819
-1.5970438 1.329983 1.7604513 18.972111
1.0997477 1.3839691 1.8591998 20.184349
-1.648851 1.7270224 1.8588436 21.725
-1.5859532 1.6957464 1.7607317 22.8055
1.1004633 1.7125899 1.9402454 22.084
-0.98226511 -0.035140857 2.3147919 2
-0.43980151 -0.013895333 2.1286047 2
-1.5758588 0.090213597 2.0104575 4
-1.6226566 0.58486259 2.1473455 9.3622923
-1.5542821 0.67215776 2.3078995 9.3943338
1.0079696 0.65498507 2.2508893 10.582001
-1.6247866 1.1180433 2.1675005 15.195416
-1.5275962 1.1596725 2.3294039 14.56125
1.0420579 1.0854367 2.1468332 15.582667
-1.6218281 1.3214244 2.2097621 16.779936
-1.5885375 1.4002545 2.1587381 18.005192
1.0547752 1.4157386 2.2485731 18.644814
-1.6137707 1.7615066 2.2943931 19.810501
-1.5671402 1.8405561 2.0604367 22.6574
1.0585449 1.7958119 2.2325366 22.082375
-1.5805452 2.0076075 2.3082545 23.0585
1.1024703 2.1193087 2.3157237 23.082499
-0.96768427 -0.045518786 2.5901148 2
-0.18612672 -0.024599101 2.5679679 1.75
-1.5901945 0.15795171 2.6952174 4
0.90739751 0.01858536 2.5821028 1
-1.6406559 0.68167305 2.5140116 10.059
-1.5952576 0.60745531 2.5168247 9.0593328
1.0124003 0.67913467 2.5393298 9.8367004
-1.6203341 1.058651 2.5660648 13.559375
-1.545935 1.0353758 2.5900297 12.562
1.0027899 1.0459663 2.5465024 13.414375
-1.6011645 1.4073836 2.5460525 16.559416
-1.5687827 1.5114455 2.5913765 16.7285
0.98716253 1.3705224 2.7107105 16.746834
-1.6377774 1.7108725 2.7813241 17.395334
-1.5824119 1.6271726 2.6547382 18.529751
1.0078915 1.7152205 2.488884 21.080999
-1.6009516 2.1256115 2.5680549 22.726166
1.0048031 2.0742614 2.5699208 22.52536
-0.55748791 -0.063037604 2.9299221 1
0.70072234 -0.16482028 3.1053305 0
-1.5898756 0.20169964 2.8191683 4.5
-1.6490402 0.62684202 3.0272093 8.2280836
0.94330668 0.77088779 3.0969992 9.0795002
-1.6252961 1.1448842 2.9716849 13.06075
-1.624287 1.470149 2.9123852 15.873833
-1.5866867 1.4939849 3.1083736 15.063167
1.0350186 1.3563772 3.0202379 14.33025
-1.5832211 1.6824064 2.9504945 18.061001
0.97086716 1.6638423 2.9109738 17.08
-1.5995659 2.3416672 2.9227931 22.560749
-1.2112262 2.7564609 3.1866937 23.0655
1.088994 2.4429812 3.116019 22.08025
-0.88338631 -0.058474958 3.4780009 2
-0.62558508 -0.061539292 3.4415886 2
0.40489012 -0.083100528 3.2118661 0
-1.6415459 1.1782601 3.4244003 12.062
-1.6298914 1.4676667 3.3095326 14.81175
-1.6291811 1.767269 3.4025149 17.062
-1.5101599 1.8541629 3.295208 17.063999
-1.6333476 2.2262831 3.4773419 19.229334
0.94110996 2.2677078 3.310452 19.829
-1.7679834 2.6139684 3.486711 21.56225
-1.4725827 2.7402639 3.4406476 22.480415
-1.0197529 2.7266743 3.3880403 22.92363
-0.54573292 2.7160032 3.4106104 22.760284
0.33825606 2.6927183 3.5217826 22.408499
0.79865652 2.6376567 3.3919892 22.328001
-2.1508684 3.0389123 3.5368702 22.311249
-1.5867416 -0.096564054 3.7357721 2
-0.86867338 -0.090062685 3.896076 1
-1.648473 1.3496778 3.8576794 12.563
-1.6372628 1.7065434 3.7390101 15.06275
-1.7444715 2.3442163 3.9227374 18.063999
-1.6340348 2.6875107 3.8448477 21.063
-1.4075071 2.700556 3.9089501 20.6485
-1.0225985 2.7136319 3.8530831 22.06625
-0.60589629 2.7003033 3.8096917 21.736017
-0.18184063 2.7043321 3.7615714 22.071499
0.15824705 2.7026098 3.7043636 22.473576
0.5420478 2.6816218 3.9219906 21.209082
1.0671041 2.6417766 3.7465391 21.078751
0.16334389 -0.10117628 4.03724 0
-1.6055382 0.94021785 4.0141273 9.0635004
-1.7635896 1.8035816 4.2552996 14.0645
-1.4540217 2.1499565 4.399354 16.464901
-1.5470874 2.7144871 4.2643814 19.564877
-0.22245623 2.6651878 4.2898717 19.557621
0.20354144 2.6565146 4.3180223 20.57325
0.6808815 2.6478505 4.2485056 19.968945
0.93362838 2.6682742 4.1388154 21.07725
1.030206 0.66224134 4.7840743 7
1.0410581 1.0116141 4.783422 9.25
-1.7507374 2.6700745 4.7292128 17.465225
-1.3464894 2.6886017 4.5523453 19.066208
-1.0334247 2.6655405 4.6480184 18.623444
-0.62260592 2.6601515 4.5097008 19.236208
-0.21795399 2.6594677 4.6453447 19.571125
0.14907514 2.6748579 4.521946 19.295668
0.53544885 2.6217973 4.6384335 18.175449
0.94800174 0.97199053 4.9315214 9.0764999
0.99534941 1.4606174 4.8593454 11.78825
1.0420729 1.7564962 4.8432102 14.077
0.6659804 2.1075549 4.9339218 15.575251
0.93733084 2.1140287 4.8907442 15.5765
-1.6191812 2.6101975 5.1384778 16.399584
-1.3931013 2.6478035 5.0951471 17.39975
-0.95586848 2.6632175 5.0202112 17.768333
-0.51241404 2.6529825 4.9748979 17.970425
-0.35014239 2.6419928 4.8480988 19.070499
0.07467182 2.710819 5.1704369 17.57325
0.73422939 2.632802 5.0851974 17.57575
0.95293838 2.5676122 4.9540644 17.8265
1.2008749 2.7055526 5.0264201 18.077499
1.3146636 2.8116064 5.0655231 19.077999
0.65641642 -0.18666063 5.4686537 0
-1.7353158 1.3907325 5.3037643 10.065
-2.0263574 2.6354868 5.2027617 16.064751
-1.2128861 2.6438153 5.306118 16.068001
-0.94169152 2.621876 5.2957392 16.668598
-0.53764057 2.6544404 5.4150553 16.695312
-0.2120218 2.6711106 5.3696437 16.76775
0.35614431 2.6048694 5.3462763 17.073999
0.59247565 2.6236074 5.4468703 16.5417
1.0137577 2.6102219 5.3929672 16.243416
-1.6111697 -0.11795044 5.8802705 2
-1.6652925 2.2730045 5.9725299 14.066
-2.0350864 2.6218295 5.8449216 15.065501
-1.8006802 2.5941241 5.914958 15.065875
-1.4993769 2.5873022 5.9110298 15.733167
-0.96901131 2.6027188 5.9309235 15.568875
-0.62618834 2.6065912 5.8416357 15.570126
-0.15903269 2.6062579 5.8351946 15.905249
0.23790202 2.6306007 5.8462486 15.8734
0.59299517 2.5921116 5.8435326 15.57475
0.97185278 2.5861657 5.7497368 15.0765
-1.711071 1.4951282 6.1300931 10.066
-1.6733208 1.8617988 6.0720639 12.066
-2.0411108 2.6040127 6.3530917 14.065999
-1.6216849 2.6145489 6.1563764 14.733833
-1.3398247 2.581172 6.2372761 14.692751
-1.0654258 2.5756755 6.0708504 15.068624
-0.78241289 2.5549293 6.0963931 15.06925
-0.23694272 2.5738025 6.2323203 14.738667
0.21307653 2.5050454 6.1737041 14.82325
0.69282371 2.4952435 6.2256041 14.07525
-2.1956773 0.29634786 6.7086983 3
-1.6965318 0.15031955 6.7041259 2.75
-2.0772984 0.74888849 6.7396069 5.3333335
-1.7137353 0.72882509 6.7184763 5.5
-2.2630577 0.99036288 6.7128701 7
-1.7901953 0.87897408 6.7295666 6
-2.3268001 1.7037407 6.781477 9.5655003
-1.6688023 1.7914592 6.7902541 10.0675
-1.7178015 2.5748594 6.7471066 14.0665
-1.589324 2.5908227 6.4723525 14.0675
-0.90077293 2.5880222 6.661015 13.819875
-0.55704212 2.5909994 6.7961559 14.071
0.14911747 2.5339041 6.6917996 14.073
0.50353318 2.5637078 6.5643559 14.6739
0.82463962 2.5490801 6.6765666 14.075
0.57541502 -0.30440831 6.9791832 0
-2.6281109 0.36396348 7.1165352 4
-2.2238071 0.32884562 6.9862542 4
-2.4356761 1.3896402 7.1230469 8.0654993
-2.0103672 1.4559929 7.1306772 8.0667496
-2.0805278 1.75346 6.8117118 10.06625
-2.4164104 2.3744445 6.8181 12.06525
-1.9906331 2.3125539 7.1283698 12.06675
-2.5161355 2.5748384 7.1035008 13.06525
-2.0846298 2.4004731 6.8002868 12.56625
-1.7548621 2.4505095 6.8302822 13.06725
-1.4056624 2.5668879 6.9430752 13.568001
-1.1452638 2.529973 7.1590924 13.0685
-0.40311575 2.5998909 6.9168162 14.0715
-0.1465853 2.5392158 7.021749 13.571916
0.31711793 2.5666406 7.0545425 13.07375
0.72195017 2.5629299 7.0938563 13.075
1.0705068 2.5787339 7.1806078 13.076
-2.478852 0.77489883 7.2723007 5
-0.92969048 2.539052 7.3045707 13.069625
-0.7539342 2.5409112 7.4148307 13.0705
-0.13751189 2.4875867 7.3219938 13.07175
-1.8783826 2.5092368 7.832715 12.06675
-1.4934154 2.5208988 7.6440563 13.06775
-0.60728216 2.5171051 7.7085371 12.404041
-0.27349058 2.5079041 7.9790373 12.072
-1.7565898 2.494328 8.2755756 11.56775
-1.4190347 2.4778275 8.1936131 12.06825
-1.1155386 2.4839628 8.0336123 12.069
-0.20328766 2.5130534 8.143693 12.071875
0.71201479 2.4775977 8.3424854 11.574375
0.96069765 2.4840176 8.1638136 11.741833
-2.1440659 2.4650152 8.5375624 11.0665
-1.01466 2.4799285 8.6232433 12.0695
0.13147162 2.4651954 8.5390711 11.5725
0.45183933 2.4704332 8.571497 11.573625
-1.7445524 2.4837081 9.1415262 10.0685
-1.3014905 2.4732201 8.8938198 11.0695
-0.47024804 2.4013093 9.0516644 11.071
-0.14402561 2.4404309 8.9513292 11.072
0.12375899 2.5024214 9.0185547 11.073
0.63909364 2.4510396 9.0349941 11.07375
-1.699437 -0.24942726 9.2832918 2
-2.2139914 0.092427284 9.2781944 3
-1.8921002 0.17121953 9.2908278 3
-2.2306728 0.57486415 9.306181 4.5
-1.8974634 0.62371612 9.3407478 4.75
-2.2106853 1.0130546 9.3292875 6
-1.8934017 0.95377147 9.3268538 6
-2.2689726 1.2327961 9.3580418 6.8000002
-1.907885 1.2796794 9.3650341 7
-2.2443142 1.8459179 9.3728418 8.5714283
-1.8516998 1.8631506 9.4052725 8.6590004
-2.2579393 2.2607224 9.3727551 10
-1.9129254 2.1711926 9.3840427 9.5
-0.099708185 2.370609 9.5915222 10.0725
0.2334545 2.358336 9.2857037 10.07325
0.56357551 2.3800514 9.5127506 10.0735
-1.8365109 2.4433634 9.424284 10.534
-1.5603442 2.4327874 9.3429613 10.069
-0.90889871 2.428844 9.4352846 10.32025
-0.58508801 2.4566638 9.2800465 10.571
-0.29612833 2.4766965 9.2305861 10.572
-1.4605511 2.3927641 9.7357912 10.06875
-0.93458289 2.395767 9.6383867 10.07
0.29247624 2.3585722 9.8456602 9.7396669
0.59066641 2.3270943 9.8288927 10.074
-1.4109539 2.405746 9.629529 10.0695
-1.2351903 2.395524 10.071379 10.07
-0.76316983 2.3456004 10.176624 9.0710001
-0.29848033 2.3457351 10.109219 10.0715
0.13393073 2.3226745 10.202481 9.073
0.61081755 1.9502943 10.570467 8.0734997
-0.65276945 2.3204529 10.535498 9.5710001
-0.31920058 2.3004439 10.433179 9.0719995
-0.077034526 2.4280393 10.593232 10.072
-1.8442441 2.3081121 11.108458 9.0690002
-1.4378083 2.3062239 11.034153 9.0697498
-1.044271 2.2906768 10.968396 9.0705004
-0.79059166 2.3496273 10.885576 9.0705004
0.16432661 2.3817973 10.947242 9.0725002
-1.6333207 2.2781513 11.484787 8.0695
-1.4452902 2.3432469 11.272381 9.0692501
-1.0760469 2.313216 11.377034 9.0699997
-0.081957385 2.3086274 11.344415 9.0719995
-0.61069417 2.327858 11.841885 9.0710001
-0.34764561 2.3064232 11.924618 8.5717497
0.56616288 2.2929368 11.653033 9.0732498
-0.2052273 2.2518778 12.174053 8.0720005
0.44873673 2.2876279 12.589622 8.073
-1.5334381 1.7646482 13.073822 7
-1.1217495 2.252286 13.383921 8.0702496
0.20197684 2.1870379 13.332137 8.0725002
-0.69265157 2.239682 13.799055 8.0710001
-0.097558387 2.1742523 13.725352 8.0719995
-1.0671984 2.1264 15.0749 7
-0.060958907 2.1546574 15.364904 7
-1.9273428 1.8854091 16.689043 6
-0.8714447 -0.70030195 17.567572 1
0.27427644 -0.79535758 17.542608 0
0.40277135 -0.75590479 17.548885 0
-1.297063 -0.80877554 17.981693 1
-2.1062481 -0.70186269 17.890867 1
-0.50349408 -0.61434817 17.700392 1
0.56466794 -0.50096607 17.922323 0
0.29018363 0.1947549 17.802988 1.5
0.41783023 0.065274186 17.762856 1
-0.49357307 0.67107546 17.782949 3
-1.7133279 -0.77061701 18.068647 1
-1.6328392 0.95249921 18.005299 4
-0.017361388 1.9524696 18.376568 6
-1.3638099 1.958441 19.327219 6
-1.0278991 -0.50347877 20.391163 2
-0.31279153 1.8298216 20.333782 5
-0.20496465 -0.30585951 20.446815 1.8333333
-0.15281308 0.36685848 20.544056 3
-0.36491916 0.41027081 20.5392 3
-0.18464039 1.8056309 20.442228 5
