# .PCD v0.7 - Point Cloud Data file format
VERSION 0.7
FIELDS x y z intensity
SIZE 4 4 4 4
TYPE F F F F
COUNT 1 1 1 1
WIDTH 1038
HEIGHT 1
VIEWPOINT 0 0 0 1 0 0 0
POINTS 1038
DATA ascii
-1.8217224 2.9777322 -5.3563013 19.011
-1.6442232 2.9508574 -4.952961 20.0105
-1.2724205 2.9782143 -4.9175701 20.383751
-1.4337873 2.9153774 -4.5179343 21.009201
-1.0670593 2.9136393 -4.6847744 20.608349
-0.75979424 2.9242454 -4.5290346 21.6068
-1.9281442 1.6053311 -4.0788116 14.3465
-1.7387128 2.9384303 -4.1475153 22.177334
-1.4095219 2.9268799 -4.1630349 22.24291
-0.96465695 2.9224949 -4.2334452 22.570595
-0.56637949 2.9003401 -4.2256584 22.561556
-1.829906 0.69295895 -3.6059215 8.0135002
-1.3663912 0.68963647 -3.8004084 8.0107498
-1.7750932 1.5643638 -3.7840676 14.51325
-1.7009075 1.8852612 -3.7084413 17.512751
-1.8809547 2.3897159 -3.6123266 21.014166
-1.7920151 2.6237516 -3.6601381 21.762001
-1.4826099 2.4381869 -3.6864696 21.611549
-1.396693 2.9072864 -3.8270187 23.011332
-1.1115333 2.9116261 -3.9724064 22.50625
-1.7724972 0.67466938 -3.4129229 8.0137501
-1.8789835 0.88064402 -3.4771225 9.6809168
-1.8607655 1.3229536 -3.4433994 13.68
-1.8519421 1.8810672 -3.3525193 18.348
-1.4843442 1.7966582 -3.4128456 17.262375
-1.7144904 2.2997236 -3.3802748 20.262375
-1.477015 2.3736784 -3.4504528 21.212399
-1.1846741 2.3875663 -3.3669806 22.01075
-1.7306484 2.5375013 -3.421895 22.262249
-1.5235531 2.539526 -3.3262467 22.679667
-1.7629064 0.69814658 -2.9735963 8.9863882
-1.7451472 1.0104842 -2.9853148 12.180958
-1.5054936 1.0061529 -3.0499988 11.636875
-1.6778249 1.4743755 -2.8935976 16.011999
-1.4408734 1.413848 -2.9099808 16.51325
-1.8116266 1.78027 -3.0391722 18.792166
-1.5662203 1.856141 -3.0521564 19.347166
-1.7736437 2.2177637 -2.9518616 21.764
-1.5661644 2.20802 -2.9295783 22.51425
-1.6795278 2.4689753 -3.0606475 22.511499
-1.7227644 0.65174419 -2.5238123 9.3933668
-1.670648 0.93888658 -2.5546663 12.346583
-1.5727584 1.0108901 -2.6559927 13.01225
-1.7307926 1.4313877 -2.5855908 17.302584
-1.5526733 1.228274 -2.5793986 16.014999
-1.7542419 1.8813454 -2.5661964 21.515375
-1.5392458 1.6558379 -2.7333131 19.0145
-1.708308 2.1270103 -2.6425576 22.139687
-1.6834289 0.26441479 -2.0807648 5.5
-1.7183374 0.56305557 -2.147706 9.2078047
-1.5857497 0.72108763 -2.2202621 11.01425
-1.6866491 1.0274221 -2.1618567 14.373642
-1.5936651 0.9899745 -2.2735913 13.514
-1.7113304 1.3417592 -2.1923702 18.061312
-1.6557149 1.7756488 -2.1261041 22.183193
1.1040874 1.6167217 -2.0753174 22.13275
-1.6810398 2.0305653 -2.291991 23.0145
-14.26678 3.1691408 -2.0088902 8.0375004
-9.5162067 3.0772283 -2.0020647 12.036
-2.1761479 0.34356648 -1.8620443 6
-1.7852517 0.32695279 -1.8220563 6.5
0.91809881 0.32542619 -1.7382261 8.1315002
-3.6345983 0.76907557 -1.7398701 8.3643332
-3.4044538 0.71312159 -1.7255598 8.0305004
-2.9597528 0.63029224 -1.8028216 8.0500002
-2.5514464 0.7584005 -1.8277855 10.646917
-2.1871424 0.6862058 -1.8465523 10.681313
-1.7436719 0.52506554 -1.8000501 9.4696455
0.9788931 0.54151869 -1.7703967 11.231143
1.2944002 0.70489454 -1.8132132 12.62975
-4.403686 0.93043721 -1.6869646 8.033
-3.1002645 0.86253965 -1.8011103 10.029
-2.5935192 1.1165302 -1.8073159 14.869625
-2.0232315 0.9857415 -1.8526927 15.523
-1.7236339 1.0602429 -1.8096118 16.333973
1.3738126 1.1528769 -1.7139794 18.1285
-4.8405175 1.341524 -1.6243038 11.034
-4.2405443 1.2642496 -1.6734879 11.03275
-3.5159988 1.3462573 -1.7358893 13.53075
-3.0327263 1.3878 -1.7628009 15.76475
-2.5561342 1.4391881 -1.8011557 18.162027
-2.1471462 1.3739613 -1.8372122 19.430742
-1.730342 1.3542782 -1.7764673 19.982773
1.0177274 1.4963846 -1.8138454 23.049042
1.2346174 1.5836444 -1.7580904 23.129999
-4.3430443 1.8521514 -1.6645151 15.533001
-3.8397701 1.8468992 -1.7025017 16.587334
-3.3096037 1.9065382 -1.7251253 19.030251
-3.1175458 1.6905891 -1.739956 18.176554
-2.6984744 1.8722416 -1.7700924 21.527626
-2.396548 1.8430518 -1.8065885 22.359167
-1.6529312 1.7266388 -1.8876727 22.795612
-4.9193707 2.0086875 -1.6395013 15.034
-4.3234587 2.2130144 -1.6571659 18.033001
-3.6142819 2.378655 -1.6910979 21.364668
-3.3696649 2.2078161 -1.7146205 21.0305
-12.406612 3.1044841 -1.6308234 9.0377502
-8.9289513 3.0553689 -1.6686306 12.0365
-7.7666922 3.0981913 -1.6962113 14.036
-14.585018 3.2024252 -1.7758027 8.0380001
-1.6958561 0.3971265 -1.4092703 8.5107498
-0.64338279 0.37470415 -1.331153 13.0085
0.92519778 0.3345083 -1.5082999 8.9465122
-3.291996 0.69033301 -1.4816071 8.0305004
-3.0433276 0.77997953 -1.5315028 9.6960001
-2.709075 0.64154249 -1.5443727 9.0278883
-2.2818048 0.68665284 -1.543227 10.555176
-1.7460194 0.61092573 -1.4368637 11.365772
-0.6610325 0.5765444 -1.2211063 20.50975
0.94273859 0.57203138 -1.4364512 13.158344
-4.2907243 0.91229528 -1.4602772 8.033
-3.3706105 1.1795101 -1.5308567 12.0305
-3.0650845 1.1874082 -1.4879701 13.52975
-2.7034388 1.0335047 -1.3777428 13.3625
-2.3438942 0.96500415 -1.541782 14.026166
-1.7338339 1.0065424 -1.4146283 16.956139
0.95893091 1.0048264 -1.3497504 20.12612
-3.5628116 1.3232203 -1.445979 13.0315
-2.5641575 1.5152391 -1.5095856 18.5142
-2.318794 1.465672 -1.537608 19.326153
-1.7558575 1.323472 -1.4571284 20.479471
1.0048095 1.2359431 -1.3626989 22.961779
-3.5026138 1.8242352 -1.46617 17.53125
-2.4270952 1.7161152 -1.5110817 21.027
-1.6537864 1.622375 -1.4501548 23.019501
-10.498463 3.0851164 -1.4390635 11.03775
-10.366343 3.1091177 -1.2609557 11.038
-9.23524 3.0574012 -1.5297959 12.037
-8.5533552 3.0860057 -1.2763402 13.03775
-8.0976467 3.0795043 -1.5593071 13.53675
-7.976572 3.0783615 -1.4072617 13.53675
-7.4644537 3.0148952 -1.3741738 14.037
-6.9163442 3.0617313 -1.309076 15.0365
-6.6266613 2.9883122 -1.4402715 15.536125
-6.1416574 2.9952166 -1.3437352 16.702667
-5.4816813 3.007174 -1.4326829 19.0355
-4.8585854 2.9486246 -1.4931762 20.334576
-4.5629706 2.9832046 -1.3233395 21.221907
-4.2748184 2.9891014 -1.4251505 22.284187
-20.960012 3.2670796 -1.5334707 6
-3.5077033 0.15393841 -0.95844668 3
-1.7483392 0.25611281 -1.0118665 6.3765612
0.88348293 0.29216668 -1.0155469 9.4990664
-1.7257819 0.67281276 -1.0490288 13.32903
0.9120512 0.5856306 -1.0187675 15.132028
-2.3347847 0.93595123 -1.1881276 14.528999
-1.8047507 0.99297923 -1.0366142 17.950378
0.95126367 0.95461845 -1.0094205 21.31847
-2.4231279 1.4697981 -1.1915638 20.029499
-1.7301764 1.2864192 -1.0541937 21.94422
-13.784884 3.0322855 -0.84958279 9.0395002
-12.435322 3.0148048 -1.0427964 9.0389996
-12.204731 3.0564499 -1.0883704 9.5387497
-10.814583 3.1104162 -1.1917371 11.0385
-10.670282 3.0695214 -0.95020229 11.038875
-9.2815323 3.0500121 -0.98986435 12.0385
-8.9960594 3.0539708 -1.0235121 12.288375
-8.447196 3.0679536 -1.1261528 13.03775
-8.1624746 3.0142038 -0.93881387 13.593999
-7.3231215 3.059185 -0.9677186 14.954625
-6.9926901 3.0466866 -1.1692019 15.037
-6.5045061 2.9714105 -0.85785109 16.038124
-6.2619948 3.0091553 -0.99408889 16.6625
-5.9219303 2.9796753 -1.160054 17.536667
-5.3774037 2.9877856 -0.97884196 19.037195
-4.9334288 2.9912932 -0.95378041 20.4373
-4.5553045 2.974915 -1.0276623 21.254875
-4.1856585 2.9760451 -1.0129597 23.036335
-15.546276 3.2031484 -0.86419189 8.0395002
-5.617661 0.18629538 -0.71323407 2
-4.7636704 0.1499943 -0.50868952 2
-2.1655474 0.13031088 -0.60225385 3
-1.7555149 0.17628784 -0.62577409 4.931457
-1.5377774 0.075003527 -0.53851795 3.75
-1.1063287 0.059222907 -0.43118376 4
0.87616807 0.2812801 -0.61775875 10.176596
-19.935518 0.70575672 -0.62248409 2
-1.7526472 0.64407647 -0.58453894 13.457108
0.89746577 0.58824384 -0.64353126 16.695024
-1.746954 1.0014913 -0.61486053 18.580978
0.94349068 0.86430341 -0.64806098 21.805031
-1.7160802 1.247004 -0.66892421 22.014252
-20.005051 2.211062 -0.6398977 5
-20.000149 3.1371245 -0.64636385 6
-18.827438 3.1764047 -0.58550584 7
-14.853358 3.0289042 -0.58435524 8.04
-14.746733 3.0650303 -0.53692853 8.04
-11.832927 3.0831175 -0.67826867 10.0395
-11.43238 3.0317981 -0.40936005 10.04
-10.024392 3.0617139 -0.79270983 11.039
-9.8321991 3.059804 -0.56541646 11.0395
-9.0441284 3.0255175 -0.57870936 12.0395
-8.4002476 3.027668 -0.4569405 13.04
-8.1550083 3.0124404 -0.56835949 13.039249
-7.6201358 3.0385747 -0.45592105 14.0395
-7.373579 3.0135283 -0.67290026 14.539
-7.1232977 2.9711549 -0.51832235 15.03975
-6.2547364 2.9888771 -0.54287815 16.622458
-5.7655549 2.9913311 -0.77842307 18.0385
-5.455688 2.9866951 -0.59654671 18.705332
-4.9926562 2.9656062 -0.50844723 20.289501
-4.5624695 2.9742632 -0.62176323 21.5383
-4.3175244 2.9644589 -0.46840099 22.789625
-24.397696 0.39818022 -0.29754841 2
-2.1434424 0.11367061 -0.1363982 3
-1.7849702 0.18565649 -0.20001467 5.3638377
-1.2598677 0.047938824 -0.19516027 4
-1.0675218 0.057397008 -0.15390329 4
0.74845457 0.2143558 -0.020254552 10.069604
0.93396187 0.31265807 -0.21182804 12.014813
-1.7223246 0.61163968 -0.20565102 13.43662
0.77955693 0.68500608 -0.093026042 21.142921
0.9340145 0.53931284 -0.24256861 16.87718
-1.7402071 0.96472013 -0.18611529 18.961193
0.957757 0.86520243 -0.23819646 21.714134
-1.7342956 1.2663972 -0.3220135 22.831799
-15.312266 3.0596888 -0.18365705 8.0404997
-12.838783 2.9887815 -0.26256976 9.0404997
-12.639859 3.0079544 -0.16243422 9.0404997
-11.295457 3.0515423 -0.1068719 10.040751
-10.304529 3.0456328 -0.31423956 11.04025
-9.9058275 3.0912683 -0.1641736 11.0405
-9.2109585 3.0413456 -0.17079292 12.040625
-8.6516876 3.0272968 -0.11113068 13.041
-8.3073568 3.0068777 -0.22229779 13.04025
-7.828836 3.003134 -0.24190845 14.0405
-6.9858546 2.9658389 -0.15557262 15.041
-6.6134944 3.0064411 -0.09104082 16.04125
-6.1711082 2.9680877 -0.16488574 16.790688
-5.920115 2.9697299 -0.23400837 17.040001
-5.3547974 2.9636114 -0.26424199 18.94025
-5.1291151 2.9813488 -0.11906402 19.832603
-4.5969644 2.9612205 -0.21250241 21.374001
-4.2734408 2.9498358 -0.16026279 22.59045
-1.6688373 -0.01166445 0.11170929 2
-1.512736 -0.0082977414 0.20239048 2
-4.0429802 0.12927225 0.20575964 2
-3.5224228 0.12793285 0.18018655 2
-1.8080231 0.17672078 0.24372837 5.2425079
-1.3775768 0.053088903 0.23655842 3.3333333
-1.0330213 0.04131509 0.22721097 3.6666667
0.65083212 0.14753968 0.32704929 8.4455719
0.91949654 0.29225209 0.24070098 10.845653
-1.718962 0.5890379 0.19733295 13.066555
0.71318567 0.59978563 0.30803734 19.5165
0.95955938 0.56059331 0.22970049 16.772017
-1.7314142 0.99410069 0.18335077 19.421841
0.98311675 0.89482367 0.091836497 20.696381
-1.7251875 1.2560556 0.28256661 22.664688
-15.000163 3.0844724 0.099148154 8.0410004
-12.444947 3.0142152 0.11119378 9.0410004
-12.387202 2.9699121 0.019123942 9.0410004
-11.763192 2.9815347 0.23060742 9.5415001
-10.546955 3.0606015 0.30333745 11.0415
-9.8199329 3.002444 0.18195561 11.541625
-8.987484 3.0412359 0.14210024 12.541625
-8.337266 3.0383241 0.12406206 13.04125
-7.7085323 2.994545 0.14808348 14.041625
-7.3116722 2.9490733 0.31005099 15.0425
-6.7922053 2.9741306 0.23194626 15.792375
-6.1162109 2.9438002 0.24620801 16.717325
-5.7631068 2.9620926 0.11839294 18.0415
-5.4715576 2.9421802 0.2412823 18.5425
-5.0550804 2.9426684 0.21153636 19.942551
-4.564785 2.9408922 0.29512212 21.710478
-4.2839928 2.9793377 0.2534917 22.442549
-1.6716418 -0.0016894341 0.56924522 2
-0.17077683 -0.0072640916 0.71761292 2
0.63336182 -0.050304394 0.74959052 1
-5.2864723 0.12417538 0.61053967 2
-3.6843402 0.11146747 0.50940573 2
-2.2545321 0.090281606 0.78193384 3
-1.7884262 0.11443052 0.65093786 3.738277
-1.2920344 0.054835077 0.55172575 3.125
-0.89098048 0.045650408 0.63200629 3.5
-0.47797072 0.020652749 0.74622953 2
0.70043629 0.2442496 0.67400503 9.8236876
0.95067513 0.28823832 0.54300559 9.73032
-1.707334 0.60694253 0.59645337 13.021883
-1.5420624 0.52342308 0.71777868 12.046
0.67002672 0.65110695 0.68146151 18.990963
0.95008671 0.59616613 0.5616706 15.829605
-1.7275567 0.99987209 0.56877387 18.946663
-1.5905492 0.87407935 0.78742224 17.046499
0.98010719 0.96444279 0.61505824 21.133039
-1.7111338 1.2961723 0.59104258 22.686428
1.0722295 1.203074 0.54312384 22.699902
-15.815117 3.0489359 0.46440232 8.0415001
-12.530554 3.0446033 0.51401901 9.0418749
-11.683389 2.9781902 0.60301125 10.04225
-11.136963 3.0601728 0.4230026 10.04175
-10.668839 2.9994917 0.73827261 10.542624
-9.4188223 2.9913142 0.6113838 12.042749
-8.8475227 3.0245183 0.6021446 12.0425
-8.7942944 3.0367229 0.47729635 12.708833
-8.2304773 2.9629755 0.68761712 13.043167
-7.7512383 2.9808972 0.55671459 14.042875
-7.4020634 2.9544802 0.64735049 14.209834
-7.0661111 2.9586544 0.56384856 15.154334
-6.460227 2.9362059 0.76998913 16.0445
-6.1382647 2.953918 0.58639854 16.543251
-5.7228184 2.9782243 0.51772958 18.043999
-5.4555936 2.9369364 0.72740769 18.461168
-4.8072386 2.9376926 0.58078289 20.311184
-4.6144252 2.9523373 0.57982731 21.169689
-4.2255325 2.9381175 0.64061993 22.546124
-0.56163305 -0.002251199 1.1841078 1.75
-0.15243511 -0.017096739 1.1390903 1
0.20991912 -0.057846904 1.1036575 1
0.69743836 -0.053018391 0.98941135 1
0.98608184 -0.051128309 0.92670953 1
-5.3357244 0.13060242 0.85040152 2
-5.1928434 0.12777038 0.82684726 2
-4.0585699 0.099232107 0.86631382 2
-3.7890015 0.1112991 1.0479311 2
-2.0128291 0.052644685 1.115867 2
-1.7942896 0.10811181 0.99306023 3.4093003
-1.4032739 0.011178027 1.0188459 2.1666667
-0.96235925 0.009687976 1.0126337 2.1666667
-0.64204961 0.024837336 0.99938226 2.5
0.52881289 0.13578342 0.92764699 7
0.990973 0.29876414 0.9592914 8.969285
0.55700374 0.54134935 1.1630071 14.535777
0.96954364 0.51398909 0.93861622 12.945252
-1.7026609 1.0452192 0.81709564 19.046249
0.96875876 1.0443128 0.98322582 20.35911
1.0770663 1.2736412 0.96115911 21.629169
-15.269787 2.9725695 1.1021398 8.0424995
-13.093239 3.0861959 0.8901093 9.0424995
-12.400207 2.9892526 1.1905743 9.0432501
-11.065408 2.9612019 1.154626 10.0435
-10.574984 3.0143397 0.85605812 11.042749
-10.297992 2.9629412 1.1368245 11.04375
-9.238575 3.0080948 0.89409697 12.0435
-9.0284777 3.0118592 0.985089 12.043583
-8.0557785 2.9654694 0.87590551 13.0435
-7.6164632 2.933183 1.1601002 14.045
-7.2726474 2.9458978 0.95277452 14.044
-6.9292917 2.9594827 0.95312577 15.0445
-6.1145697 2.9501281 0.98789501 16.795563
-5.9036651 2.817615 0.99902713 16.045
-5.3775191 2.9311745 1.0476888 18.357061
-4.9712143 2.9730043 1.0348723 20.046499
-4.6158338 2.9356225 0.95386767 20.90941
-4.1654406 2.9156404 1.1614629 22.049002
-3.9520342 2.9396403 0.93954992 23.04825
-2.1322389 -0.0076192319 1.456007 2
-1.3085431 -0.018405342 1.5159906 2
-1.0348222 -0.0086114453 1.2643452 2
-0.52451915 -0.010539427 1.3508314 1.3333334
-0.14563251 -0.023828186 1.3613786 1.5
0.52324283 -0.021708529 1.4908909 2
-4.6290302 0.052410755 1.3812884 2
-4.3653708 0.085270271 1.4187392 2
-3.0331354 0.14083841 1.3192755 2.5
-2.5889511 0.16564083 1.3047848 3.5
-2.2275219 0.19168152 1.3839264 4.1666665
-1.7902465 0.19259737 1.3738446 4.6861253
-1.472469 0.10193264 1.3523983 3.5
-0.89864129 0.0053046118 1.3748833 1.6666666
-0.69073713 0.012423892 1.2946461 2
0.63112944 0.025891082 1.4334569 3
1.0033348 0.28289348 1.3400406 8.0887947
-3.0382497 0.7633239 1.4184637 9.3604584
-2.5619359 0.69196278 1.3857291 9.6779499
-2.1406987 0.66074353 1.3533765 10.329407
-1.7122985 0.6430133 1.3983936 11.689685
-1.5706578 0.66699564 1.3609517 12.131624
0.58911669 0.54465789 1.5314007 12.672272
1.0355014 0.54283863 1.3384469 11.73587
-4.2723103 0.90946853 1.4466621 8.5504999
-3.870096 0.96046329 1.4868811 9.0517502
-3.3982613 1.0582728 1.4475492 11.303
-3.0330431 1.0313455 1.4256747 11.87705
-2.5614166 1.060864 1.4031903 13.611444
-2.1289189 1.0438713 1.36588 15.11596
-1.7897714 1.0911736 1.3610529 17.075026
-1.5609883 0.95998025 1.3660878 16.28175
0.67208171 0.94403529 1.3187294 19.618986
1.0678698 1.057012 1.4426666 18.345531
-4.174119 1.4903638 1.4201299 13.0505
-3.7749083 1.4432321 1.4942416 13.052
-3.4163961 1.4642504 1.4829843 14.386375
-3.0321736 1.3789014 1.4529536 15.387668
-2.5188353 1.5257604 1.4434724 18.278156
-2.1045325 1.3872308 1.370347 18.904438
-1.7972183 1.473786 1.4145062 20.986187
-1.5464485 1.2550551 1.3680704 20.06325
1.0751936 1.3342205 1.3958572 21.966125
-3.9501491 1.9988863 1.5382406 16.801624
-3.3778117 1.891771 1.5091462 17.803249
-2.9141622 1.8420298 1.4477793 19.402437
-2.5718694 1.8038293 1.4222503 20.6562
-2.1461413 1.7913361 1.3988074 22.558584
-1.8521307 1.6535597 1.3671486 23.060499
0.78592813 1.6075461 1.5988884 23.089001
1.0918323 1.6039672 1.4115543 22.759165
-8.8540535 2.0661893 1.3689691 9.0445004
-8.6090431 2.0907917 1.4589717 9.21175
-4.2256718 2.2031088 1.5708131 17.051001
-3.3262784 2.2862206 1.493829 21.276749
-3.0347183 2.2805116 1.4770912 22.054251
-7.2755666 2.4603214 1.4994552 12.04575
-3.7451041 2.5543888 1.5160583 21.052
-3.5878985 2.6292779 1.5291908 22.0525
-15.475957 2.9633865 1.4149526 8.0430002
-14.111303 2.9651573 1.569487 8.0434999
-13.441691 3.0975459 1.2516543 9.0430002
-13.045501 3.0715392 1.5029489 9.0434999
-10.599723 2.9431007 1.5202456 10.0445
-10.14218 2.9742627 1.3446679 11.044125
-9.7993774 3.0211284 1.4154516 11.54425
-8.6724787 2.9515865 1.3726939 12.045
-8.1060553 2.9691775 1.3261185 13.04475
-7.4499106 2.9575894 1.3955389 14.045499
-7.0173354 2.9480031 1.4034334 14.879166
-6.5748391 2.9155986 1.3829962 15.712998
-6.2461338 2.9321756 1.5582289 16.047501
-5.7599411 2.9033623 1.4864434 16.880917
-5.227828 2.9323204 1.3251593 18.880833
-4.9447079 2.9181504 1.3506923 19.381292
-4.4541154 2.9196789 1.3051983 20.881332
-4.2308254 2.8875792 1.402988 21.506458
-3.7972915 2.9045322 1.4250807 23.050835
-2.3118908 -0.015084565 1.7016562 2
-1.301445 -0.074945658 1.9969243 1
-1.0105827 -0.018014127 1.6571846 2
-0.59135008 -0.0082163364 1.7958307 2
-0.17839733 -0.032903008 1.7638155 1.5
0.84698892 -0.096885577 1.7147013 1
-5.1819844 0.13010827 1.7342886 2
-4.7833757 0.11897811 1.8220321 2
-4.0533614 0.3738932 1.7900854 4
-3.6454937 0.061736356 1.7771031 2
-3.4179063 0.14904323 1.7303162 3
-3.0543573 0.2468033 1.7605758 3.75
-2.7141621 0.097354025 1.9032569 2.5
-2.2137735 0.19683591 1.7965816 4.3333335
-1.4200611 0.03598959 1.8116275 3
-0.74103987 0.013045812 1.7408121 3
0.73204511 0.31201896 1.7673403 8.2140627
0.95815903 0.12562953 1.7676454 4.2500558
-2.4964521 0.75227273 1.6554756 10.2564
-2.1547382 0.71311808 1.6456673 10.683313
-1.8532021 0.55900657 1.7783663 9.2700005
-1.5362241 0.60190916 1.7451859 10.38205
0.3530722 0.54397911 1.8814647 11.58475
1.0520895 0.56565583 1.7761689 10.960041
-8.3454914 0.97071105 1.8461286 5
-5.1222844 1.1742617 1.8362805 9.0495005
-4.602107 1.0740041 1.9051863 9.0507498
-4.296442 0.97069997 1.7712061 8.5507507
-3.8752329 0.97223485 1.924336 9.3025627
-3.3479962 1.1010499 1.6974958 11.386333
-2.9120166 0.82094091 1.6731979 10.0545
-2.4607728 1.1506379 1.6985277 14.7282
-2.1030777 1.1508822 1.7104014 16.058939
-1.7872876 1.1083739 1.6699048 16.816395
-1.5073919 1.0575036 1.7509785 16.764372
0.60041034 1.0415375 1.7457303 18.462626
1.0841424 1.0275338 1.7679188 16.225079
-8.3240004 1.3514782 1.8473269 6.5
-5.3036733 1.2072922 1.800974 9.0489998
-4.9355798 1.4444829 1.8859578 11.05
-4.1063251 1.5372553 1.8085777 13.051333
-3.848242 1.5273002 1.768535 13.55175
-3.3756244 1.4193796 1.7678988 13.928187
-2.9529707 1.391089 1.7850438 14.992978
-2.4939399 1.5624604 1.7428082 18.428333
-2.1379764 1.4901865 1.7268008 19.18372
-1.7954216 1.4008355 1.6772 19.872845
-1.5012728 1.3472313 1.7314348 20.203144
1.0563557 1.414317 1.8784368 19.589478
-8.3291521 1.7322922 1.8614317 8
-4.8408518 1.7465606 1.7471893 13.0495
-4.5907621 1.8114325 1.839205 13.550375
-4.0589671 1.9134989 1.7213173 16.051001
-3.8375936 1.9915932 1.8147713 16.909143
-3.342273 1.8544142 1.810653 17.1535
-2.9665539 1.796343 1.8061932 18.31439
-2.5257013 1.7459145 1.6834204 20.277874
-2.0610962 1.9247953 1.8735524 22.726667
-1.7486421 1.7363482 1.7808146 22.479313
-1.5252895 1.7259554 1.8392354 22.065624
1.1619573 1.7381282 1.89281 21.507042
-8.2941923 2.2423921 1.8719852 10.25
-5.3656025 2.1812563 1.7675525 14.54875
-4.6267886 2.2774434 1.8971391 16.050501
-4.1575007 2.2105525 1.7895347 17.051001
-3.9268658 2.1305552 1.9651216 17.0525
-3.2742054 2.3966229 1.7026485 22.052999
-3.0270905 2.1937783 1.7122122 21.054001
-2.4157751 2.1491532 1.9120663 23.058001
-2.3284597 2.0694842 1.9069257 23.0585
-6.0487552 2.7188296 1.6340508 16.042
-5.9179716 2.7088518 1.8022037 16.042749
-3.2577426 2.7824795 1.9370347 23.04825
-14.200247 3.084625 1.9772426 8.0439997
-12.84119 2.9883053 1.9645134 9.0445004
-12.770393 2.9988983 1.6683379 9.0439997
-10.704531 2.9926183 1.7808293 10.045
-10.275279 2.9347472 1.8099998 11.04525
-9.7807579 2.9698756 1.8321757 11.04525
-7.3489962 2.9728067 1.7310334 14.047
-6.8300962 2.9592154 1.736117 15.0475
-6.5627227 2.9204335 1.6963408 15.047
-6.2849598 2.9330075 1.7734808 16.047501
-5.7344923 2.8224325 1.7914082 16.04825
-4.873096 2.8986027 1.6640521 19.049
-4.5360684 2.8884723 1.7144271 19.849798
-4.1566548 2.8905752 1.7983353 21.176001
-5.45362 -0.10363668 2.1267424 2
-2.001687 -0.16225076 2.3935537 1
-1.6057792 -0.14507169 2.1964614 1
-0.49139538 -0.025736272 2.0028255 2
-0.34314057 -0.028843017 2.1341686 1.3333334
-2.6921909 0.28367835 2.0406661 5
-3.0666037 0.79077005 2.0735879 8.8061247
-2.5471761 0.67273957 2.0411053 9.0583754
-2.2968209 0.69858426 2.1272893 9.3459291
-1.7746851 0.56174302 2.2636471 8.7309999
-1.5190297 0.54269481 2.1918592 8.5888186
0.66359293 0.63779587 2.3040173 11.083542
1.0456197 0.62586427 2.1299419 10.637251
-3.3921568 0.96049345 2.0440745 9.8547001
-3.0742476 1.1016141 2.0653634 11.889333
-2.4874303 0.96221203 2.2095299 12.0595
-2.3684118 0.9706068 2.2283864 12.06025
-1.4894884 1.0526552 2.1950033 14.442438
0.56227016 1.1978239 2.0114026 19.085999
1.074864 0.94289923 2.1843281 13.737263
-2.4906113 1.377565 2.0104613 15.808376
-2.3291678 1.4368042 2.0594263 17.0595
-1.490751 1.4330509 2.2257779 18.125257
1.0624273 1.3419644 2.1475813 18.036366
-1.7201152 1.8017321 2.3147035 20.81525
-1.4801809 1.6989588 2.1428058 21.377083
1.187198 1.7570348 2.1968205 20.089167
1.2224212 1.7282526 2.22119 21.34025
-2.9747498 2.3713393 2.0596466 21.770428
-2.5976791 2.1578429 2.0435348 21.682814
-2.3434443 2.2096884 2.1159172 22.5595
1.097996 2.117135 2.2039692 23.088499
-11.256548 2.6115935 2.1305654 9.0454998
-5.5936489 2.7033737 2.1919558 16.0445
-4.1105218 2.7151799 2.3790908 19.048
-3.7798882 2.7392647 2.1114695 20.829332
-3.3313475 2.7116232 2.0799513 22.651775
-3.0652022 2.7127519 2.1848638 23.053249
-14.108504 2.9581978 2.0088086 8.0442505
-13.933905 2.9953229 2.2346106 8.0445004
-1.0650071 -0.037637938 2.4593816 1.6666666
-0.64412433 -0.062481795 2.6445553 1.3333334
-0.35526881 -0.061317831 2.7140937 2
-1.8809659 0.17762294 2.573524 4
-1.9221904 0.75775397 2.7008657 10.065
0.29453 0.60036439 2.7189264 10.082
0.69496346 0.51241934 2.7135367 9.085
1.1763644 0.62040657 2.4971495 10.089
1.0549397 0.92861879 2.6024637 12.750916
-1.7696199 1.4686685 2.4790459 17.065001
0.67824721 1.3109182 2.430799 17.585499
0.83343196 1.3324958 2.6504226 17.086
1.2981262 1.4048283 2.7143314 15.088
-1.5625532 1.7437639 2.5909691 20.06675
1.267076 1.7803111 2.5841632 19.588625
-1.455798 2.0824251 2.5896068 22.068501
1.1598977 2.0873821 2.5076232 23.088499
-5.6480875 2.6940353 2.7099705 16.046249
-5.4339027 2.6922355 2.4627278 16.54575
-5.0824671 2.7094595 2.6454861 17.047001
-4.6670699 2.6764383 2.6998682 17.714666
-3.8150854 2.6998608 2.5535054 20.049501
-3.3702173 2.7281697 2.5777373 21.175936
-2.9945188 2.7265067 2.6896224 22.05275
-2.5897081 2.7276115 2.7714558 23.05475
-11.682227 -0.063989669 2.8664656 2
-1.5261955 -0.18603438 3.1080978 1
-0.70867968 -0.069122672 2.894043 1
5.22763e-07 -0.082920134 2.9893146 1
-1.9983764 0.70743603 2.848979 9.0649996
0.85063261 0.62555259 3.0492866 8.5782499
1.2758975 0.55467635 3.0754771 8.0869999
-1.9025941 1.1108497 3.0133948 12.066
0.92389435 0.89289725 3.1516893 11.0785
1.2172511 0.80182523 3.1170228 10.0865
1.0511589 1.3895825 2.9153917 15.086
1.3191317 1.5789335 2.976397 17.087999
-1.3919032 1.9851395 2.8435674 20.0695
1.3281851 1.8567047 3.0298388 18.087208
-1.4043063 2.0860956 2.8521428 22.068501
0.55249584 2.1855044 3.0900044 22.08275
0.80919981 2.183542 2.8452959 23.084999
-6.5581303 2.7052193 3.0572648 14.046
-6.2519283 2.6610017 3.0888033 14.046499
-5.7126255 2.6910477 3.060992 15.04725
-5.3668075 2.6660175 2.9425461 16.047501
-4.9790015 2.6542432 3.0571902 16.6486
-4.4677043 2.6876531 2.8587224 18.049
-4.1705713 2.6674838 2.9912453 18.050251
-3.8906598 2.6601913 3.1294875 19.0515
-3.3141859 2.7178454 2.992733 20.452801
-2.9937823 2.7062588 3.0660048 21.054251
-2.7734456 2.7020233 3.1621914 21.0555
-2.1654875 2.7674131 3.0828886 23.061127
-1.9784696 2.7238431 3.1101689 23.059
1.1669352 2.5852334 3.1198869 22.585999
-2.2702458 2.801708 3.1410775 23.063999
-1.1143241 -0.14594159 3.4858341 1
-0.21192212 -0.13048668 3.2847664 0.33333334
0.10924664 -0.15446775 3.3446443 0.5
-3.3416176 0.73304993 3.3394432 7
0.78838378 0.68740678 3.2031302 9.0775003
1.2835886 0.67434323 3.4119494 9.08675
-5.5471954 1.0559053 3.5498502 8.0489998
0.786044 0.86647511 3.202955 11.0775
0.91615391 1.0207291 3.4024048 12.078
1.2634046 1.1045226 3.4430809 12.086
1.0941807 1.3850279 3.2223663 15.086
1.3739996 1.7739606 3.4321122 17.087
1.3495977 2.0360222 3.3428907 18.0865
-6.5554643 2.6181962 3.5116653 13.54725
-5.7880583 2.6914885 3.4355552 15.04825
-5.4237456 2.6531057 3.5379415 15.04925
-4.823844 2.6527646 3.2322245 16.0495
-4.6066003 2.6387041 3.4321249 16.479216
-4.1401281 2.6740839 3.4457812 17.442417
-3.6924191 2.6648042 3.3427553 18.7195
-3.4001853 2.6549547 3.335125 19.053749
-3.0028 2.6522095 3.4599164 19.8556
-2.5985599 2.694062 3.3182971 21.056749
-2.1588156 2.7202144 3.3529797 22.201715
-1.6989968 2.7282505 3.4499798 22.648022
-1.2886639 2.7482271 3.4261525 22.737585
-0.99105233 2.7190213 3.4801722 22.944187
-0.5031575 2.6894121 3.558249 22.794445
-0.28457555 2.7102208 3.5545015 23.0735
0.19732144 2.6983771 3.4624546 23.078501
0.67728019 2.6649029 3.526696 23.080582
0.84131229 2.6408541 3.3108912 22.58375
1.3427886 2.5306311 3.4676797 21.19739
-5.0544486 2.8142951 3.3940849 17.0495
-5.1063108 -0.12268579 3.932822 2
-4.0696135 -0.14668828 3.9244611 2
-2.9971395 -0.10668029 3.9016089 1.5
-2.5551634 -0.11175181 3.8745742 1
-2.2227213 -0.062897608 3.9721749 2
-1.9092083 -0.099933252 3.9402735 2
-1.3060541 -0.097451732 3.9528534 2
1.2037649 -0.14248765 3.6901753 1
-7.0032349 0.37718892 3.9568 4
-6.2141819 0.13510922 3.9385481 3
-5.9496098 0.11390245 3.9851313 3
-5.5586829 0.18915087 3.9382465 3.5
-4.6240306 0.38286269 3.9584329 4.3333335
-4.1337347 0.26049617 3.969733 4
-3.8717582 0.18266366 3.9661176 3.5999999
-3.3383391 0.18477769 3.9636042 3.3333333
-3.0805638 0.12310724 3.9328864 3
-2.5150256 0.21225722 3.9649317 4
-2.2032042 0.13391957 3.9626884 3.4285715
-1.9047519 0.14921814 3.9483647 3.5
1.2418382 0.068427458 3.7026403 3
-6.482645 0.43291289 3.9531851 4
-5.9708576 0.68452245 3.9615169 5.75
-5.4421477 0.52064186 3.9604411 5
-4.9980607 0.61952883 3.9603958 5.5
-4.5763059 0.62707388 3.9804411 5.8000002
-4.232564 0.63445908 3.9892597 6.1428571
-3.7840335 0.66841429 3.9842455 6.3333335
-3.4455128 0.63500971 3.9910421 6.4000001
-3.0079675 0.46387997 3.9910669 5.5
-2.551899 0.58282393 3.9855433 6.3333335
-2.1424007 0.55449289 3.9768717 6.5
-1.8679947 0.58941072 3.974333 6.6666665
1.2892634 0.53614426 3.7564185 7
-8.4874382 1.0602627 3.9811077 6
-6.6089368 0.93715292 3.9614246 6.5
-6.0844736 0.92988235 3.9766679 7
-5.7763934 1.0935574 3.9474821 7.7750001
-5.3906584 1.025797 3.9508033 7.4252501
-4.9993467 1.0515963 3.971684 7.6257501
-4.5552874 1.0776827 3.8018007 8.5257502
-4.1102052 1.0201004 3.9247994 8.5266247
-3.8226752 1.0622783 3.8904648 8.7769165
-3.3634894 1.0575423 3.9051542 9.0279169
-2.9803774 0.95014346 3.9470532 8.5
-2.6354103 1.0586485 3.9414756 9.5958338
-2.2459912 1.0301844 3.8817329 9.5802002
-1.8575771 0.91792989 3.887188 9.5808506
1.2980402 1.0312343 3.7739098 10.792875
-6.8392448 1.3030093 3.9488356 8.0480003
-6.5396237 1.2481805 3.9558866 8.02425
-4.5816708 1.4287584 3.8378367 10.192417
-4.3231072 1.5772736 3.7976081 11.0525
-3.8491488 1.3947041 3.9100833 10.693583
-3.3690493 1.466442 3.9417634 11.778
-3.0477858 1.2639282 3.8128057 10.828
-2.5876093 1.2217782 3.9305854 11.02925
-2.1558135 1.2295619 3.9350107 11.0605
-1.8270391 1.2471009 3.9306872 11.728667
1.168448 1.3812419 3.945224 13.0845
1.2881153 1.2498379 3.8189991 12.08525
-5.9545493 1.7818758 3.6336942 11.0485
-5.4819341 1.6227338 3.6508236 10.0495
-4.9922395 1.7676692 3.8991218 11.3845
-4.6690259 1.7967167 3.918014 12.052
-4.2349858 1.8225311 3.9394679 12.3865
-3.8152606 1.7288699 3.9471781 12.527
-3.5941751 1.6248102 3.9596012 12
1.3592572 1.8227056 3.7878253 15.918917
-7.400712 2.2093239 3.9669752 11.04725
-6.4116049 2.2590413 3.9044378 12.0485
-6.0779471 2.1296387 3.8896828 12.049
-5.76052 2.1272509 3.9135666 12.52475
-5.0369864 2.2926033 3.9502969 14.025499
-4.6936178 2.141674 3.9542391 13.052
1.3847954 2.1773453 3.8101261 18
-7.6565895 2.6179349 3.9894044 12.047
-6.9071646 2.6723669 3.7856071 13.0475
-6.5133028 2.6357005 3.85922 13.04825
-6.2290769 2.5511448 3.8936138 13.524375
-5.8412805 2.6374102 3.8274977 14.04925
-5.4485264 2.5683658 3.8619745 14.349999
-5.1620026 2.6843834 3.8743572 15.05075
-4.2243967 2.5548584 3.6993935 16.151001
-3.7977331 2.6191225 3.8109674 17.27725
-3.3258674 2.6525922 3.8004811 18.3055
-3.0275128 2.6700361 3.8865039 18.8615
-2.6173472 2.663389 3.8273387 19.529062
-2.2252982 2.7104104 3.7842214 20.473455
-1.7549505 2.6849828 3.816637 21.06525
-1.3589348 2.7142386 3.7992251 21.756533
-0.95357388 2.6971486 3.7496464 22.200356
-0.56372643 2.6864376 3.7837207 22.571812
-0.14665821 2.6906023 3.8378646 22.624275
0.27084458 2.6628008 3.7786369 22.034973
0.61467195 2.6419649 3.8463151 21.385214
0.96187329 2.6594064 3.7030444 21.858471
1.3084396 2.5800447 3.8408773 20.306749
1.8895767 2.9556875 3.9058058 21.0875
-0.76006371 -0.15903491 4.3591895 1
0.76029849 -0.043068141 4.1431837 2
-6.2565651 0.014813274 4.0571055 2
-5.7833567 0.075082064 4.0440116 3
-4.5994077 0.18524143 4.0484123 3
-3.3683569 0.29551205 4.0319872 4.5
-2.9979899 0.24917211 4.0472908 4
-2.5427244 0.29930508 4.0406857 4.3333335
-2.222842 0.28350031 4.0173469 4.5
-1.907734 0.26823795 4.0059543 4
-1.3665268 0.267111 4.3065248 4
0.52337658 0.046983834 4.3657575 2
-4.2354336 0.57831329 4.0102162 5.6666665
-3.7387798 0.65102768 4.0066338 6.25
-3.4124045 0.63077915 4.0088749 6.4000001
-3.0427637 0.56542414 4.0131435 6
-2.6382279 0.70418155 4.0171499 7.4578218
-2.2221253 0.58278668 4.0120959 6.5
-1.8521458 0.52760679 4.0278587 6.4000001
-1.3486868 0.66908312 4.2916164 7
1.3213168 0.62340635 4.0938663 8.0854998
-4.8370385 0.87634391 4.0037384 7
-3.3514481 1.057284 4.0144911 9
-2.99843 0.96551883 4.0279188 8.75
-2.7631376 0.90425617 4.027555 8
-2.1971409 0.80818158 4.0305262 8.0301247
-1.8343084 0.85199261 4.196075 8.3648338
-1.3327581 0.9681977 4.2666545 9.5
1.2616587 1.0325996 4.1649604 10.585
-5.4308362 1.5556915 4.0021648 10.0505
-4.7290611 1.3916702 4.0121918 10.026
-4.3736119 1.3125788 4.0077791 10.053
-3.771558 1.2487614 4.015059 10
-3.3599808 1.285208 4.0180893 10
-2.5867867 1.5195549 4.0430312 12.279563
-2.2442374 1.3892434 4.0503368 12.310375
-1.8819035 1.2668533 4.0514288 11.395333
-1.2885518 1.553719 4.1497245 13.072
1.1954663 1.3845277 4.2539291 13.0845
-6.9435649 1.870563 4.0238118 10.048
-6.4037113 1.763098 4.0177712 10
-6.2922859 1.7405264 4.0172434 10.049
-5.7362571 1.7457908 4.0148802 10.525
-5.4483581 1.9693267 4.0144997 12.0505
-5.0978713 1.9485689 4.0314636 12
-4.4986196 1.904213 4.0310125 12.05275
-3.809561 1.8617967 4.0467243 13
-3.4465575 1.8674812 4.0438919 13.47775
-2.9167781 1.6962588 4.0485268 13.329
-2.6026721 1.7031875 4.0568199 13.5295
-2.193532 1.9115331 4.0686064 15.32198
-1.7881405 1.9311509 4.0747318 16.0625
-1.2984997 1.7948697 4.2486954 14.572
1.1186106 1.708397 4.3012018 15.084
1.3608567 1.6531135 4.0976429 15.0855
-6.9112597 2.2415195 4.0148478 11.048
-6.4362612 2.0585797 4.0220923 11
-6.3758817 2.1856663 4.0089126 12
-5.8252573 2.0964091 4.0226932 11.666667
-4.9579568 2.2978277 4.038496 13.776
-4.4926109 2.1988521 4.0333734 14.05275
-4.1345325 2.257179 4.0503979 14.55375
-3.79953 2.1649175 4.0488448 14.5
-3.4135346 2.2157607 4.0532322 15.36125
-3.0049517 2.158869 4.0743523 15.833333
-2.589751 2.2100046 4.0682178 16.386642
-2.2871895 2.1646562 4.0729408 16.613333
-1.8414518 2.1291039 4.0608587 17
-1.2941167 2.1518092 4.2953377 16.572001
1.4019504 2.3262308 4.1233516 19.085501
-5.7094808 2.4627278 4.034687 13.275
-5.4804153 2.5300868 4.0230551 14.0505
-5.020083 2.6190352 4.039464 15.025875
-4.6164851 2.4350536 4.0456262 15.0525
-3.6896448 2.5646725 4.0521865 16.444084
-3.4547372 2.5665288 4.0645933 16.778126
-2.9697757 2.5406742 4.0595584 17.803688
-2.5888548 2.6220551 4.0312548 18.862957
-2.1860285 2.596735 4.0578785 19.397083
-1.7976015 2.6591287 4.2141018 19.615791
-1.4187344 2.655339 4.2411661 20.207428
-1.0222238 2.6785724 4.1749916 20.589315
-0.61760867 2.6789072 4.1832376 20.55262
-0.21126229 2.6533422 4.1815829 20.567253
0.17248738 2.6323204 4.2154374 20.302565
0.67945468 2.6468997 4.1684284 20.828751
0.95931751 2.614017 4.1772761 20.047783
1.2437601 2.5893986 4.0591917 19.084499
1.8695147 2.8219037 4.2462096 19.58675
-0.91393912 -0.16086562 4.4572287 0
0.66885626 0.74738449 4.7675738 8.0815001
0.80374193 1.9543371 4.6189184 15.082
-1.2687895 2.1555264 4.5572014 16.572001
1.3750237 2.1928735 4.7509713 15.584
-1.7281275 2.6781616 4.7183743 18.57
-1.4227653 2.6875641 4.4832749 19.443001
-1.0170225 2.6549923 4.6092658 19.037849
-0.64797878 2.646343 4.6405821 19.206289
-0.26194373 2.6294625 4.6041579 19.265274
0.13283485 2.6145835 4.6266246 19.475676
0.61240578 2.6054225 4.5865812 19.092024
0.81722087 2.6007757 4.5624895 18.77895
1.2529994 2.5606894 4.6548414 18.58375
1.8448999 2.7473583 4.5858164 19.0865
1.4688005 2.885668 4.5220141 20.084999
0.62986267 1.9751208 5.1437297 14.07475
-1.3284581 2.0765858 4.8290315 15.072
-1.0115948 2.091181 5.0341806 14.82375
0.80487818 2.0338292 5.1436973 15.0755
-2.3491063 2.5812671 5.1872802 16.318127
-1.7616678 2.6037219 5.1154337 17.179472
-1.4770503 2.647043 4.9705491 17.84725
-1.0152788 2.637171 4.9342675 17.921953
-0.69970602 2.6456161 4.9038477 18.571751
-0.16300531 2.6010215 5.0626159 17.853027
0.1575954 2.5960014 4.9571676 17.993855
0.61567932 2.5511036 5.0504661 17.717512
0.88453579 2.5447638 4.9724736 17.456812
1.2422228 2.5325222 5.0048456 17.383251
-1.5763007 -0.19677579 5.3536897 0.5
-1.1290523 2.1150179 5.3315091 14.57325
0.0027932227 2.0234342 5.2744851 15.078
0.64796591 2.2471547 5.5656662 15.0805
-1.7231061 2.5974784 5.4926834 16.192938
-1.2878097 2.6119225 5.4161925 16.570625
-1.0125346 2.6241071 5.4069104 16.871717
-0.5638569 2.6120503 5.4443202 16.986568
-0.18065092 2.5904479 5.4174042 16.825645
0.30254909 2.5569289 5.4600329 16.771584
0.58866763 2.5942881 5.3178172 17.407833
0.85471922 2.5557885 5.3775945 16.828499
1.3252084 2.5181093 5.4485588 16.383049
-1.3128735 -0.02258224 5.8587718 1
-0.70905787 -0.25133994 5.8491077 1
-1.2445346 0.29371271 5.9372425 4
-1.2528152 0.67679012 5.9177194 5.75
-1.2494451 0.94050658 5.9478407 7.5
-1.2176285 1.3246971 5.9453826 9
-1.1983578 1.881362 5.9319034 12.0735
-2.3973839 2.1592886 5.9216738 13.069
-1.179826 2.2573373 5.9058428 14.0735
-2.0698659 2.6171792 5.848877 15.07
-1.7001617 2.5687056 5.8742957 15.0655
-1.4381869 2.5804873 5.8924155 15.5695
-0.96856368 2.6205106 5.8564076 16.072624
-0.54647672 2.5837688 5.8411789 16.07275
-0.14577581 2.586344 5.7378435 16.324312
0.29616404 2.5446897 5.8504205 15.632527
0.67003316 2.5349648 5.880209 15.891342
1.0720508 2.4804468 5.7111492 15.581875
-1.4236293 0.11152716 6.1068664 2
-1.2061993 1.7386624 6.0346236 11.0735
-1.602051 2.5869017 6.0191503 15.066
-1.3611323 2.5917277 6.1393757 15.319875
-1.0022259 2.5831118 6.1682649 15.06825
-0.46994504 2.5830302 6.2586484 15.076
-0.19573018 2.5315795 6.1930885 15.077
0.24340895 2.5114791 6.2706332 15.0785
0.62601876 2.5297167 6.0601368 15.577125
1.326422 2.4454753 6.1334724 14.332251
-2.9378128 0.21330981 6.7893629 3
0.90608883 1.1080374 6.7413745 8.0749998
-2.0534112 1.4742134 6.6754007 9.0710001
0.95295542 1.34602 6.6720934 9.0752497
-1.7526053 2.535574 6.7019463 14.069916
-1.2745063 2.5564106 6.4013062 15.0675
-1.0711408 2.5545928 6.5591755 14.404458
-0.59494007 2.5268912 6.5907235 14.199219
-0.27218029 2.5034366 6.4276814 14.07675
0.12060717 2.4885392 6.5784879 14.36973
0.55009449 2.5003026 6.5835919 14.412834
0.92169619 2.4631388 6.6679492 14.078834
1.3375807 2.4395313 6.6764507 14.082001
-1.6759751 -0.28164095 6.8832273 1
-1.4352326 2.5393343 7.0215888 13.734
-0.99183792 2.5186331 6.8656883 14.071501
-0.65004897 2.4639208 7.1662297 13.07275
-0.24364445 2.5164986 6.8417468 14.073999
0.14967795 2.4999168 6.8866062 14.07525
0.65617287 2.4946103 7.0061255 13.826938
1.1199483 2.4436841 6.9617367 13.081
1.2648693 2.4799268 6.8299479 14.08175
-1.2237964 -0.24106275 7.3113813 0
-1.6478608 1.8991992 7.5295954 10.067
-1.285329 2.4986477 7.3727636 13.068
-0.91002011 2.4967341 7.4150205 13.073376
-0.24628215 2.4555941 7.5259695 13.07125
0.25140697 2.455174 7.3593822 13.0755
0.77017772 2.4499478 7.3519998 13.07975
1.1050023 2.4715924 7.2606869 13.081
-1.4351301 1.9583437 7.6888943 10.56775
1.5382335 2.3924999 7.9912672 12.0815
-1.8563254 2.4531248 7.9146304 12.07225
-1.5038439 2.4731181 7.7851639 12.071332
-0.85276008 2.4362178 7.9221668 12.0695
-0.53366262 2.4911664 7.840919 12.685223
-0.23981507 2.4279709 7.790113 12.074917
1.0839202 2.4275429 7.6261826 12.0805
1.3025479 2.4104843 7.7923107 12.081
-2.1592176 1.7533526 8.1250353 9.066
-2.6553192 2.496583 8.1458139 11.57025
-2.2788982 2.4451828 8.0922756 12.07125
-1.3415331 2.4393315 8.2074413 12.06825
-0.96509767 2.4428315 8.1509113 12.072001
-0.61505616 2.4390421 8.1569099 12.07575
-0.22542182 2.4816067 8.1979294 12.074125
0.1025677 2.4585581 8.1487007 12.07225
0.71417862 2.4166734 8.2054596 12.074
-2.1468215 1.7094872 8.6956701 9.0719995
0.19769584 2.3955281 8.6089249 11.0725
-1.6875669 2.4500413 8.5307331 11.0675
-1.1394856 2.4610248 8.6381903 11.069
-0.37797424 2.4034731 8.6072121 11.071
0.19955891 2.4447994 8.5817871 12.075251
0.57048619 2.4379163 8.4187651 12.0735
-0.57979101 2.391397 9.1569939 11.0705
-0.13401465 2.3537359 9.0000496 11.074375
0.23613492 2.3055942 8.9794264 11.078
0.61527419 2.3729608 9.171978 11.0735
1.3886852 2.2826948 9.0531826 10.830626
-2.028403 2.4870083 8.8153915 11.07225
-1.8042419 2.4632049 9.1682501 11.073
-1.6713508 2.3958366 9.5988321 10.068
-1.3233132 2.3734071 9.3158894 10.56875
-0.99476671 2.3325148 9.3998375 10.57225
-0.56693208 2.304024 9.3370142 10.076
-0.38617489 2.3042896 9.227767 11.0765
0.080045126 2.3533113 9.38659 10.405499
0.47781867 2.2975059 9.39925 10.57575
0.85241127 2.2633636 9.3708067 10.07925
-1.6347373 2.4330175 9.4510918 11.0735
-0.80556709 2.433475 9.267374 11.07
1.1406535 1.6511338 9.9431095 8.0799999
1.2832785 1.6461509 9.7742023 8.0802498
-1.4201977 2.3389711 9.832303 10.071375
-0.22864197 2.3448064 9.9189253 10.0715
0.3581132 2.2753208 9.8722935 10.078
0.53970289 2.3298116 9.7096281 10.07325
0.90968508 2.3113165 9.875021 10.07675
-1.9588321 2.3043866 10.17914 10.073
-1.0008349 2.3073347 10.184641 10.06975
-0.53951359 2.3224635 10.147946 10.07075
-0.19168255 2.2414632 10.28437 9.5767498
0.13945523 2.267983 10.079968 10.0775
-1.7425053 2.2807448 10.594238 9.0682497
-1.0279784 2.2790532 10.532561 9.0697498
-0.62812769 2.2617254 10.687464 9.0732498
0.25443208 2.2879121 10.439575 9.0725002
0.46527719 2.2965124 10.719438 9.073
-2.1550462 2.2740605 10.839644 9.0675001
-1.4337213 2.2541649 10.943355 9.0690002
-0.47643614 2.2611208 10.861059 9.0710001
0.00681342 2.2734165 11.370186 9.0719995
0.56266689 -0.58020717 11.813132 0
1.1051092 -0.68529224 11.770003 0
-0.74151587 -0.81708211 12.207951 0
-0.52029419 -0.71363676 12.116836 0
0.30543688 -0.5303812 12.039801 0
1.6589613 -0.79963773 12.002675 0
-0.62076735 -0.28467801 12.277223 1
-0.61474299 0.13706256 12.361577 2
0.92401242 0.21175322 12.269634 2
1.3482116 0.122368 12.298163 2
-0.45811602 0.66045523 12.391526 4
1.5554519 1.1181432 12.338696 6
1.734596 1.0824814 12.307917 6
1.5319886 1.6095548 12.383491 7
1.8628702 1.7996936 12.31401 7.6666665
0.63907635 2.1345837 12.070909 8.0782499
-1.9310573 -0.73258907 12.547139 0
-0.64559329 -0.69497877 12.472862 0
-0.67822337 0.027270714 12.607062 1.5
-0.28705904 0.60375732 12.449096 4
-0.48667595 0.8829661 12.415868 5
-0.29819199 0.83920711 12.43174 5
-0.48858842 1.4582621 12.502299 6.6666665
-0.3001816 1.359717 12.446521 6
1.4322991 1.8797004 12.411099 8
-1.360549 2.2277215 12.682784 8.0695
0.84392971 2.108551 12.507359 8.0734997
-3.3748507 -0.40170929 12.853166 1
-2.3027658 -0.61014503 13.123621 0
-1.0998124 2.2206507 12.947188 8.0699997
0.31833401 2.0723789 13.020627 8.0725002
0.55934536 2.0911949 12.843612 8.073
-1.3717706 -0.21662275 13.284625 1
-0.76852679 0.028436946 13.337207 2
-2.1487763 2.1967175 13.202947 8.0734997
-0.59168482 2.2136459 13.544892 8.0710001
-0.29401845 2.1840069 13.653296 8.0714998
-1.3287375 -0.090593934 15.185084 2
-0.52731496 -0.085951865 15.097984 2
0.42777738 -0.065248638 15.174471 1
-0.96634245 0.24185051 14.831356 3
-0.59394586 0.33234853 14.964026 3
-0.57919109 -0.089501679 15.200098 2
-2.910383e-10 0.14238492 15.300297 3
