# .PCD v0.7 - Point Cloud Data file format
VERSION 0.7
FIELDS x y z intensity
SIZE 4 4 4 4
TYPE F F F F
COUNT 1 1 1 1
WIDTH 1180
HEIGHT 1
VIEWPOINT 0 0 0 1 0 0 0
POINTS 1180
DATA ascii
2.9206362 4.4947338 -1.5159262 22.004623
-10.442683 -0.16641045 -1.1838007 9.0585003
-10.163499 -0.17977147 -0.93207431 9.3905001
-5.7732468 -0.1403607 -0.89708745 9.0536251
-5.3662996 -0.1179529 -0.95870972 8.9857149
-1.1220045 -0.041665152 -0.82124591 4.5
-9.4139099 0.012438893 -0.89892578 10.0545
-8.8532867 0.32478461 -0.95560044 10.39
-8.0148134 0.37011373 -1.1631048 12.051999
-5.3573003 0.10147018 -0.99113494 10.596458
-4.8307495 0.25467759 -1.1801462 11.05525
-1.3434379 0.1237046 -0.98676664 8.2683649
-1.0035108 0.16998741 -1.1047349 7.627265
-0.58356011 0.21791983 -0.94254893 7.6509833
-8.0942135 0.52106845 -0.85270077 11.058
-7.464323 0.61176145 -0.91032618 12.554062
-6.7649689 0.70978546 -0.85105562 14.300751
-4.8466206 0.73995304 -0.98897171 14.051
-4.6774187 0.60105389 -1.0227442 13.522964
-2.9104888 0.55772144 -1.1256957 10.049
-1.4860463 0.60914767 -1.0536284 17.787542
-0.86231834 0.40268075 -1.123467 4
-0.594567 0.59670281 -0.95586389 13.344555
0.32028306 0.64384246 -0.99076271 8.2682505
1.454326 0.62007999 -1.0769382 10.884767
-7.1581273 0.92616105 -1.0597942 13.0565
-6.2554131 0.99021322 -0.91098237 14.719666
-5.8869677 1.0095612 -1.0097547 16.048
-5.3958635 1.1672425 -0.90680623 16.55225
-4.8590441 1.0983994 -0.97288132 16.574713
-4.6902933 0.8576932 -1.1227276 15
-2.5183725 1.1933255 -1.0126731 17.046499
-1.8837264 0.96392965 -1.1718922 14.201212
-1.4525815 0.89602351 -1.0764203 16.114752
-0.97989863 0.95444393 -1.0562998 19.376104
-0.40652859 1.0979609 -1.01635 15.026416
-0.13690268 0.97308749 -1.1062672 11.435638
0.16342832 1.0116745 -0.99256134 11.895771
0.58805025 0.97573167 -1.0373751 7.3816452
1.3618882 1.0111829 -1.0807037 17.956581
1.7428339 1.0276841 -1.0997772 8.5286999
2.784395 1.1842197 -0.90632463 6
-6.0284657 1.2563497 -1.0147436 14.655299
-5.7365012 1.4054345 -1.1325305 15.387668
-5.4515858 1.4514996 -0.91466498 17.220083
-4.7878761 1.3267951 -1.1190782 17.621286
-4.3784475 1.4498897 -0.97264433 19.29925
-3.6647644 1.3531816 -1.1568666 16.549999
-3.3236177 1.4065363 -1.0203848 18.0495
-3.0052099 1.4200392 -1.1578921 18.047417
-2.1491816 1.4159269 -1.0451577 19.710167
-1.5311753 1.4858724 -1.1123968 20.74625
-0.96721846 1.3930302 -1.0045201 20.532558
-0.18351687 1.4723147 -0.92403579 20.802555
0.20721722 1.461091 -0.86270636 18.016838
0.78192806 1.28977 -1.0628514 10.557908
0.9777292 1.4410592 -1.1124578 11.011
1.3424363 1.3180692 -1.1330183 22.511745
2.0346982 1.2078776 -0.96521091 9.6260004
2.6405694 1.3053495 -0.94648415 7.8745828
2.8747411 1.2442639 -0.80320811 6
-4.95367 1.6559308 -0.86885852 18.054001
-4.602334 1.7912489 -1.0840369 19.630579
-4.1999478 1.9422566 -1.0776292 20.984968
-3.7603335 1.7565956 -0.97062635 21.714376
-2.126528 1.6915423 -1.0530519 22.0425
-0.16655321 1.8454728 -1.1583436 22.0215
0.18737292 1.9726171 -0.99522901 22.166658
0.73492032 1.6836805 -0.96488553 16.011749
2.0150914 1.6509485 -1.075546 14.1265
2.542748 1.9121299 -0.95836431 13.670714
-3.6411846 2.0536809 -0.86857295 23.050251
-3.5663149 2.1297348 -1.1179826 22.7985
-2.9480901 2.0109267 -1.1452188 23.046
0.20295537 2.3147717 -1.1149089 21.471519
0.65363723 2.2612596 -1.027674 20.653112
1.0127363 2.2928886 -0.95324379 19.009216
1.7467095 2.0956159 -1.0723265 19.627251
2.284502 2.2038341 -1.0336456 17.359501
1.0443339 2.6921327 -0.98149693 22.508751
1.4207559 2.5213082 -1.0231066 18.907225
1.8486433 2.6154199 -0.96822512 23.125626
2.1757669 2.4641399 -0.96214628 19.853964
1.3284669 2.9006925 -0.92823017 22.649534
1.7844105 2.9101019 -0.95246124 22.56525
1.5235217 3.2808385 -0.98926312 23.006001
2.1418552 3.2080166 -0.90013528 22.007999
2.6256437 3.3497255 -0.92474496 20.339916
-13.963844 -1.4115977 -0.49940139 6
-11.909065 -0.65668774 -0.73462898 8.0600004
-10.208677 -0.21562745 -0.60907543 9.059
-5.8477163 -0.091723561 -0.55292952 9.5550003
-5.4675603 -0.22313136 -0.69386417 8.8530006
-2.7679188 -0.34055737 -0.44678223 5
-2.1177411 -0.16297755 -0.62002051 6
-1.1115899 -0.17444688 -0.57657921 4
-9.3577738 0.10204929 -0.63352555 10.307187
-8.9035692 0.15816319 -0.51045322 11.055
-8.308424 0.33315808 -0.6067915 12.054
-5.5906172 0.09665677 -0.73116255 10.303876
-4.8005071 0.36140293 -0.4131186 12
-4.7754121 0.38110819 -0.48275781 12.597111
-1.3203157 0.20141144 -0.55704349 10.436049
-1.0104744 0.17723286 -0.61038351 12.064679
-0.67450815 0.15484816 -0.60778463 7.7167377
-0.22120532 0.22069187 -0.58923423 5.5
-10.634096 0.55451882 -0.53241634 12.0585
-8.2524776 0.49115968 -0.71498424 11.0585
-7.8483768 0.48405707 -0.63232517 12.180437
-6.8804326 0.66588926 -0.69873619 14.0515
-6.5086155 0.75703609 -0.41625679 14.056
-5.4102936 0.77468073 -0.53896332 15.054
-4.8811812 0.69877607 -0.45255601 14.625
-4.7004452 0.51375252 -0.75238425 12.889125
-1.4430717 0.69404924 -0.63282204 20.213739
-0.92925066 0.48829928 -0.57479638 16.677786
-0.6757037 0.61553836 -0.47013342 16.944542
-0.066714928 0.54581708 -0.46281013 10.962514
0.14316057 0.50142843 -0.49303246 8.7675295
0.43340808 0.79606175 -0.55432999 11.515125
0.9185726 0.69169044 -0.40612197 8.0150003
1.4108899 0.63577086 -0.60341436 11.570215
-6.4860182 0.91781539 -0.57394254 14.429375
-6.2392464 0.94815511 -0.63062495 14.920799
-5.2988825 1.0262487 -0.52334696 16.805267
-4.9681211 1.042331 -0.64821804 16.832731
-4.6455207 0.81627131 -0.5336194 17.296
-1.7626816 0.92912769 -0.42409256 23.032499
-1.0942862 0.85409689 -0.7688123 22.522751
0.014326513 0.97274661 -0.48719013 16.018501
0.58792758 1.1860777 -0.53202486 15.013
1.0382055 0.9172613 -0.46290159 9.7917213
1.4651062 1.014999 -0.58403164 17.768425
1.8324705 1.1126022 -0.6256212 10.124001
2.9698384 1.1921273 -0.44577006 6
-5.9224248 1.2331607 -0.71367258 15.056333
-5.33148 1.435667 -0.51059669 17.056374
-5.0395899 1.4253976 -0.65318584 18.444366
-4.5356064 1.4194114 -0.73086548 19.384169
-4.2127724 1.5393866 -0.64076471 21.050251
-0.13600224 1.4043331 -0.65285695 21.356667
0.8729707 1.428288 -0.43424988 16.654821
1.3640363 1.3138711 -0.66262501 20.886942
2.7739511 1.4367887 -0.58536899 8.6636
2.8435283 1.4066777 -0.57633746 8.166667
-4.5038571 1.7629851 -0.66385442 20.840738
-3.7719131 1.7305473 -0.6482178 22.445362
0.7569474 1.7215259 -0.43855369 21.347666
1.1857004 1.7767503 -0.54718804 18.011999
1.6510327 1.7798918 -0.44761857 19.622417
2.3406963 1.6983871 -0.63417482 13.122
2.869719 1.6050634 -0.54122877 9.5
-3.7398119 2.0140462 -0.71944863 23.0515
0.18223715 2.3788478 -0.783427 23.011999
2.3888764 2.357033 -0.61341619 18
2.6024895 2.1544785 -0.56301564 15.671048
0.33721483 2.4014432 -0.492378 23.01
0.60941648 2.4590888 -0.48762488 22.408701
1.0194714 2.4288836 -0.68813252 21.382374
2.2126687 2.6723585 -0.50674009 21.94364
0.76879776 2.8144584 -0.40051901 23.004999
1.469689 3.017653 -0.69416386 23.004499
1.7606668 3.0992732 -0.75760198 22.672832
2.2337973 3.2473657 -0.63268608 21.881313
2.4366767 3.2886918 -0.41116679 21.004499
-12.33805 -0.88304663 -0.29233676 7
-10.62371 -0.44833803 -0.14287311 8.0609999
-6.9176731 -0.62450659 -0.37411571 7
-10.532051 -0.37642002 -0.32279855 8.0605001
-10.196478 -0.22440147 -0.17650872 9.06075
-9.9356852 -0.21398345 -0.14584517 10.05925
-6.163012 -0.17772216 -0.040412903 9.0617504
-5.887722 -0.24416696 -0.23821612 8.7244997
-2.0618389 -0.3101193 -0.29266858 4
-1.6758485 -0.13227695 -0.00872612 6
-1.4857758 -0.096585259 -0.044176698 5.6416664
-0.90560073 -0.033767875 -0.14439547 4
-9.2742243 0.063098073 -0.17495909 10.058374
-8.6002264 0.28269419 -0.20934717 11.833333
-8.3165665 0.33086252 -0.032160103 11.0605
-5.4301858 0.17486872 -0.17821276 11.25815
-4.9969974 0.28137085 -0.1644247 11.873417
-3.7257292 0.14574432 -0.33400464 13.04325
-2.0810509 0.24634354 -0.14915998 12.441459
-1.7542963 0.17094159 -0.20518497 10.987342
-1.3194979 0.18644279 -0.18740819 10.492716
-1.0031782 0.18372227 -0.1808642 10.20204
-0.58807635 0.18620254 -0.27339196 8.0099621
-0.32819074 0.27984166 -0.31763476 7.7258925
1.2331271 0.32393223 -0.10660303 8.5234003
-7.7552409 0.47807097 -0.19396926 12.057416
-6.9757609 0.67876887 -0.13515152 13.913215
-5.574729 0.47116101 -0.12894416 15.051
-5.0029016 0.5925073 -0.21584095 14.114876
-3.7454495 0.51551127 -0.27490759 17.043251
-2.1102977 0.43621969 -0.045657523 15.384833
-1.8810723 0.66202438 -0.2349278 19.153793
-1.3976583 0.58504838 -0.21012336 18.448856
-0.93895406 0.56081343 -0.29071784 15.77763
-0.67570907 0.50733024 -0.29175243 16.47875
-0.11505282 0.57515538 -0.25766015 12.50049
0.2627264 0.58337384 -0.25134715 10.218554
0.55314058 0.64317322 -0.25176609 9.569953
1.3737935 0.67353934 -0.26633489 12.464647
-6.4462814 0.82229519 -0.068413019 16.052999
-6.0528316 0.94852513 -0.21829146 15.531643
-5.6457844 0.8691349 -0.37840736 15.555
-5.3959208 1.0356824 -0.091068238 17.362595
-5.1423569 1.0936038 -0.23665655 17.0595
-3.6947186 0.85990131 -0.21129179 20.042999
-3.1357384 1.1210265 -0.26369992 21.038
-1.5796998 0.92079884 -0.20349884 23.038
-0.18948273 1.0129945 -0.22520339 19.519669
0.22443599 1.0452602 -0.29311472 17.677576
0.67491651 0.86160475 -0.34859371 11.766418
1.3852324 0.94272161 -0.30699143 18.511385
1.7854856 1.0021874 -0.10746108 10.672162
-5.4182439 1.3438642 -0.22726597 17.244656
-5.0026827 1.3839543 -0.16078272 18.55621
-4.4518228 1.4376979 -0.16852629 22.048834
-4.2553158 1.4141026 -0.081082761 22.149675
-3.8481407 1.5863321 -0.26705921 22.801125
-3.4881494 1.4013447 -0.11918473 23.051001
0.64350069 1.433853 -0.27126321 19.387749
1.4346033 1.4038711 -0.25544313 21.89432
1.9592497 1.3323596 -0.18432584 12.819099
2.8969047 1.5194231 -0.27793738 9.1855936
-4.4434042 1.8434786 -0.28104806 23.057751
-4.3527899 1.6493744 -0.034807503 20.807375
-3.8418207 1.8473518 -0.23591816 22.755051
0.1510855 1.8577609 -0.31464612 21.007999
1.6670959 1.7455721 -0.14367881 19.669174
2.6373131 1.7643546 -0.34886828 12.519199
2.8744469 1.8802593 -0.14216629 12.450709
0.18373752 2.1606565 -0.13742614 23.0065
0.90955615 2.0283413 -0.037335634 23.006001
2.023782 2.3882709 -0.048940152 22.1175
2.7107363 2.2179279 -0.1788073 15.972836
2.8015726 2.0096588 -0.33569947 14
0.78428411 2.5078218 -0.284132 22.507
2.2340462 2.6394269 -0.18597488 21.999252
2.7054284 2.6365027 -0.13781545 18.992437
2.2956958 2.815366 -0.34682277 22.619499
2.5434918 3.0327055 -0.12948492 22.1175
2.2937458 3.2925122 -0.29893672 22.629189
-10.999669 -0.63710535 0.28592891 8.0620003
-10.785715 -0.54538465 0.10120267 8.0614996
-6.3956971 -0.40662181 0.37551641 8.0634995
-2.7360904 -0.40417671 0.36495984 8.0410004
-9.8957119 -0.23644273 0.26616824 9.3945837
-6.0955267 -0.30124742 0.21563888 8.6605244
-5.7764745 -0.010437833 0.098166585 10.05975
-2.6344175 -0.1477896 0.25934982 10.0195
-2.0354781 -0.13674124 0.15705705 7.2732496
-1.8638384 -0.14759679 0.1409391 6.2684841
-9.1062965 0.048069 0.21086115 10.0615
-8.2415352 0.33976531 0.12577671 11.061
-7.6238728 0.39835736 0.24334764 12.05925
-5.447113 0.21086583 0.22161928 11.72327
-5.1364985 0.27032238 0.0085368156 11.8
-2.9155161 0.1843406 0.27121913 16.041
-2.7420058 0.074110061 0.23050088 10.555125
-2.1951642 0.24261397 0.19377792 12.987325
-1.8122458 0.073925443 0.052372932 9.5049419
-1.4022282 0.20034726 0.18998459 12.433022
-1.115375 0.18373221 0.18848494 12.088221
-0.55397749 0.23032638 0.11254382 8.5125999
-0.060186058 0.25522873 0.24782223 10.31025
0.75359607 0.28103021 0.363758 9.6517773
0.83429307 0.28101268 0.11212784 9.9200459
-7.6798387 0.50289148 0.24628028 12.725291
-7.1178493 0.68140358 0.16383871 13.724542
-6.7639427 0.76444483 0.10246778 15.554251
-6.3564234 0.71603358 0.023774981 14.0575
-5.7060609 0.65620977 0.35577065 14.2252
-5.353353 0.59419197 0.14172387 14.266666
-3.9955454 0.57798386 0.085981727 15.0545
-2.7761612 0.65704715 0.3468014 22.039499
-2.3330429 0.42333302 0.14489172 14.902722
-1.3468142 0.55105704 0.21136305 17.679131
-0.92184162 0.58588099 0.21255296 17.231173
-0.42507899 0.45330709 0.0011043549 10.829954
-0.3521288 0.45771602 0.011967659 20.0525
1.3580903 0.70909631 0.09723568 12.737829
-6.785892 0.8123666 0.28657407 13.061
-6.1855741 0.86660564 0.29696247 14.459633
-5.7411442 0.97882664 0.25157422 16.143551
-5.3988714 0.98851079 0.1758305 17.288246
-5.1301455 1.1826644 0.0068121254 17.041
-3.7489069 0.99282813 0.29610312 20.055
-3.1883702 1.0642825 0.2613163 22.052999
-2.1454868 0.96704876 0.13823333 22.915688
-1.3777747 0.88762844 0.19755232 22.382629
-0.88956285 1.065608 0.20828986 23.013498
-0.58441514 1.0056214 0.20915644 19.891512
1.3728311 1.0125058 0.098083749 17.780046
1.8156316 0.88630444 0.25443384 9.036438
-5.7160363 1.3000779 0.13190031 18.06175
-5.3364563 1.2500156 0.33490199 17.060501
-4.959168 1.266077 0.23320699 19.716499
-4.6303506 1.3761346 0.217803 21.85265
-4.2650299 1.5022408 0.013221622 22.054001
-3.9340873 1.5857081 0.054267347 23.053375
-3.2014198 1.2589489 0.11600646 22.041
-0.52549779 1.2697393 0.17546046 22.009874
0.52615887 1.4201597 0.25494358 22.173666
1.3933434 1.4123814 0.17496794 20.75725
1.8710819 1.4347274 0.28549728 14.864291
3.1025386 1.5745666 0.19013338 9.0792179
-4.2449851 1.6607628 0.26638037 21.559082
-3.8984649 1.785292 0.06793648 23.057251
0.77135396 1.6748686 0.0090119839 22.007
1.5108683 1.6413779 0.13243011 22.092249
1.7653491 1.860998 0.36566383 20.113501
2.9607089 1.8465399 0.1544923 11.852117
2.7355359 2.2488964 0.041855127 16.057917
2.9786377 2.3514631 0.12373367 16.115499
2.6001112 2.6997397 0.12274978 20.115667
2.9866724 2.746768 0.21938685 18.114901
2.5379536 2.955241 0.15272644 22.115499
3.0258145 3.1726475 0.33696005 20.4475
2.7557912 3.3952928 0.31556848 23.114334
-6.2103457 -1.3313293 0.77959847 3
-11.241315 -0.80951154 0.72992295 8.0629997
-6.9185004 -0.94508678 0.44812238 6
-6.4039898 -0.49422365 0.7010926 8.0647497
-4.2635784 -0.40409347 0.73958242 7
-2.8213515 -0.47731483 0.6775046 5
-9.761178 -0.17705324 0.67200327 10.06125
-9.2905827 -0.10191266 0.53583956 10.043
-9.1365805 -0.057798922 0.73051977 10.0435
-6.2011614 -0.21730155 0.60270631 9.56425
-3.5765867 -0.27068099 0.50521237 8.0620003
-2.4490178 -0.32142949 0.44039249 9.0384998
-2.2400723 -0.21957761 0.63380063 9.248518
-1.7780952 -0.1129936 0.65027928 11.612259
-1.3981138 -0.031105967 0.58001173 7.3153391
-1.1536615 -0.070819609 0.75295085 5.5
-10.617537 0.076278418 0.57437861 11.061125
-8.9080868 0.039755344 0.61517853 10.0625
-8.6315441 0.22848368 0.41350317 11.5575
-8.2769775 0.25682536 0.72617292 11.893833
-6.7388539 0.24332464 0.62504017 13.058624
-5.6852407 0.21078545 0.42580986 12
-5.429739 0.21979098 0.4973906 12.372666
-3.3139615 0.20106451 0.68214875 11.773
-2.9338529 0.28370175 0.6172142 15.662833
-2.5000412 0.17975281 0.52064312 15.004037
-2.1668205 0.047825068 0.68733525 17.128544
-1.8326263 0.12681475 0.6729387 18.885702
-1.3660704 0.18489343 0.54336995 10.843201
-1.1029704 0.028677016 0.41167021 9.1426878
0.20309505 0.22285998 0.52786422 8.5432501
0.60991752 0.24155459 0.6378243 8.335453
-7.7163129 0.42890513 0.49814671 12.062
-7.3579865 0.52435172 0.61640638 13.059944
-6.9783907 0.68147767 0.60593593 14.40595
-6.6559119 0.73966455 0.57459688 15.390667
-3.3084183 0.56348497 0.63780993 15.158594
-2.8793921 0.66463375 0.67629337 21.54925
-2.6369927 0.61698043 0.45750272 22.53875
-1.3109975 0.60002416 0.60283071 17.225473
-1.1336097 0.55157435 0.68677342 15.400063
1.526842 0.63740015 0.61898905 6.5423002
1.6020689 0.75234443 0.45896989 8.5878334
2.1039574 0.78698361 0.67698216 4.8000002
-10.867252 1.1202614 0.75855827 14.0655
-10.797411 0.82808524 0.75897813 13.0655
-6.5312934 0.863433 0.51824731 14.06175
-6.0849962 0.90757006 0.6828835 15.3945
-5.7372074 1.0477022 0.62151903 17.730186
-5.2486224 1.1620244 0.4852536 17.043251
-3.2044489 1.0166475 0.52520192 20.04425
-1.7644815 1.0329437 0.62974066 21.046
-1.4376084 0.97456378 0.60566264 21.515776
-1.1696782 1.0078216 0.59377617 22.650099
1.4270487 1.114997 0.53635103 16.102201
1.6521478 0.95852345 0.63328785 11.087
-5.304749 1.2207485 0.56566805 21.164612
-4.9982958 1.2780082 0.6034205 18.477627
-4.6816368 1.2965448 0.61862838 19.755833
-4.1991186 1.4746751 0.60443854 22.483875
-3.8704648 1.5686228 0.60874701 23.053499
1.0958494 1.5708318 0.56787044 23.021719
1.3551214 1.2890414 0.63618892 18.053503
1.822888 1.4011221 0.69652581 14.642189
-4.1700082 1.6569105 0.64758301 22.478167
-3.9350986 1.6110091 0.47443363 23.043501
1.7079535 1.6354097 0.53188336 18.1115
2.0855947 1.623938 0.469017 15.1125
2.7833567 1.8652077 0.54901159 12.778999
3.0524178 1.8451554 0.56766319 11.566955
3.2359188 1.6341821 0.47699001 9.1129999
2.2958524 2.265861 0.41632622 19.238314
2.4143739 2.3192093 0.58622336 19.112
3.2960641 2.3438473 0.71662629 14.11175
3.2798722 2.7386255 0.52844834 17.113001
3.1788113 3.0410364 0.48536262 19.113251
3.3279886 2.9706802 0.6875537 17.963751
2.3956637 3.4202819 0.76810849 23.136
2.724211 3.4275126 0.65434813 22.624374
2.9705982 3.330229 0.60591072 21.779167
-6.1881576 -1.3433137 0.94440961 3
-10.538226 -0.51454347 1.1980717 9.0664997
-6.6837893 -0.45249489 1.0744832 8.0620003
-3.3323193 -0.53331572 0.98856413 6.0282502
-2.2708592 -0.44203353 0.8768838 5
-10.444375 -0.075912654 1.0873115 10.5
-9.6824045 -0.25674868 1.0470394 9.3964996
-8.8860636 -0.081514835 1.1325917 10.064
-3.6482797 -0.0037174225 1.0689491 15.057
-3.472213 -0.095367558 0.97859365 12.74434
-3.0669746 -0.06863077 0.93624252 14.59842
-2.5857778 -0.20628019 0.9689396 12.381833
-2.0203094 -0.091011375 1.1616061 17.637201
-1.8063692 -0.14873977 0.98483139 13.894855
-1.455809 -0.17791435 1.0833439 12.913667
-0.9391126 -0.090623699 1.0922835 4
-10.59395 0.30396092 0.95181394 11.782
-8.5431099 0.15952191 0.9445883 11.061251
-6.52841 0.23399429 1.0461226 13.39375
-3.7731247 0.3929494 1.088254 20.057251
-3.4186137 0.22498748 1.0506163 16.649929
-3.0454223 0.26859659 0.97619563 18.721701
-2.6710632 0.32787621 0.95995283 19.603901
-1.3910476 0.22950482 1.0683385 10.400226
-1.0989202 0.11757438 0.9505946 8.0516663
-10.720574 0.77794594 0.93877602 13
-7.3024821 0.53873128 0.94381493 13.283306
-7.0853405 0.57835519 1.0173912 14.137051
-6.7523689 0.79255712 0.94024432 16.057751
-3.3415556 0.46386272 1.0167191 18.408966
-1.6973307 0.77175975 1.0963492 16.0495
-1.4070446 0.57673454 0.99676007 13.978124
-1.0608687 0.63554251 0.9857502 15.337568
1.4443314 0.66322935 1.0061362 6.4508057
1.8627883 0.72090524 1.0882267 4.75
-10.826305 1.1001607 1.0836378 14.166666
-10.796129 1.1101911 1.0461938 14
-6.6673784 0.81509149 1.178804 16.809875
-6.230679 0.85641032 0.95915407 14.896125
-5.8649507 0.95644474 0.97123891 17.130085
-5.4172635 1.1138402 1.0326532 17.992432
-4.9611759 1.1901193 0.94120669 18.56525
-3.2294707 0.9628486 0.8913132 20.552876
-3.0295885 0.85177302 1.1623337 22.061001
-1.7276728 0.99843806 0.8633818 20.048
-1.4275515 1.0420173 0.94324225 20.961124
1.3981546 0.88023233 0.92577928 10.216018
-10.878212 1.2661386 1.0746813 15
-4.9607539 1.2197254 1.0531487 20.510212
-4.701704 1.3064574 0.98681253 19.578255
-4.1886191 1.4930458 0.95594358 22.448822
-3.7937617 1.5813942 0.96875781 22.88879
-3.5294514 1.5942651 0.93090773 23.047001
-1.1269341 1.2272671 0.94821304 23.053699
1.1606047 1.3567706 0.90801859 21.193392
1.2330394 1.3110914 0.9269287 21.537813
1.7936414 1.3922964 1.0187678 14.599324
3.3408372 1.4209598 1.0341743 7
0.9450599 1.7031941 1.0680394 22.5795
1.7328017 1.8132017 1.0865786 18.595875
2.2867429 1.806459 0.81301904 15.10975
2.8300836 1.7428457 1.0188783 11.109
3.7489238 1.8008026 1.0031487 8.1102505
3.3589754 2.1277168 0.96135819 12.11025
3.7023728 2.0973101 0.92772555 10.61075
2.1580746 2.5224774 0.94854754 21.6644
3.5785146 2.4867663 0.93098819 14.11075
3.387502 3.0112336 0.92982972 17.783705
2.6186752 3.3959999 0.97222209 22.634291
3.0452321 3.3087034 1.0259314 20.80455
3.2094955 3.3828542 0.88370419 20
3.4497435 3.6170881 1.1962306 19.133499
3.652169 3.6969571 1.1201696 18.634001
-6.689157 -0.97518301 1.3380647 6
-10.716189 -0.70041138 1.4913604 8.7338333
-6.5707502 -0.4190813 1.3451896 8.0629997
-3.723805 -0.56866372 1.4003547 6.4452939
-3.411387 -0.62876892 1.3224533 4.5
-10.37141 -0.23306304 1.2955395 9.833334
-9.4280205 -0.12314728 1.3627527 10.063
-8.6926012 -0.085061312 1.4234412 10.06475
-7.0364347 -0.20246798 1.4039106 10.06225
-3.763031 -0.22623357 1.3710511 10.571375
-2.9054112 -0.118054 1.4462926 9.8141251
-2.0225418 -0.0073156655 1.4038256 23.040001
-1.8733566 -0.29246432 1.4847469 4
-1.3649703 -0.005376773 1.2520081 3.75
-0.928195 -0.11228256 1.3958261 7.4064999
-10.454587 0.17406525 1.3178493 11
-8.6098518 0.060168892 1.2404568 11.045
-8.218792 0.13926876 1.3461031 11.055
-7.941865 0.35787186 1.3661537 12.063
-7.4096618 0.31642106 1.5107574 12.3955
-6.4447117 0.29989749 1.545742 13.862799
-6.3795176 0.2065118 1.4359454 13.06225
-3.7520542 0.17516112 1.4561615 14.76445
-2.5227525 0.24052565 1.3955426 15.688729
-1.6273013 0.060026705 1.2677321 23.028
-1.3296192 0.17376684 1.3796425 9.4860706
-0.95804834 0.20706402 1.439283 9.1024723
-10.583691 0.59060717 1.3277907 12.4375
-7.3220315 0.56788582 1.3178676 14.060833
-6.9606018 0.55631429 1.4315052 14.03575
-6.4716783 0.69665855 1.4477659 14.897667
-6.2875848 0.75564241 1.3533369 14.399834
-4.5013266 0.60973597 1.4498905 14.0485
-3.7688761 0.59872097 1.328038 23.05975
-1.3340206 0.63914126 1.350675 13.647445
-1.104043 0.593799 1.2802734 14.0545
0.38985473 0.63598645 1.419758 18.132999
0.85342705 0.49989972 1.2907662 6.5
-6.1131477 0.81966215 1.4749291 15.06775
-5.7540421 1.0014269 1.4258889 17.859377
-5.4108768 1.0488319 1.3576431 16.977333
-4.990222 1.1804992 1.3822466 19.308624
-4.736712 1.1893725 1.5866371 17.549
-2.8981597 0.84019017 1.3322501 22.06275
-2.7397826 0.81370676 1.5058291 22.564751
-1.2838353 0.92371488 1.4080477 17.141459
-1.1406147 1.045639 1.3480783 19.0555
1.0656002 0.88130015 1.3146927 10.877399
4.2106752 1.1856236 1.3857723 3
-5.403142 1.2396631 1.487565 22.560749
-4.961853 1.2037736 1.558329 19.397333
-4.6300344 1.2922838 1.3780577 19.9125
-4.1823726 1.4676931 1.4119971 21.904211
-3.8857238 1.5323839 1.4327484 22.561666
-1.3489935 1.343962 1.2930826 22.613222
1.0330508 1.3149741 1.2242756 17.078501
1.237511 1.3487077 1.3746544 19.238966
1.8453689 1.367963 1.3802462 13.603125
2.1456065 1.2153834 1.2166432 10.1055
4.046277 1.3083866 1.4085221 4
-3.7172856 1.6367654 1.2461743 22.882208
1.170751 1.6056496 1.2452197 23.091999
1.283522 1.9864917 1.5081372 23.133499
2.8391666 1.7065465 1.2408812 11.1075
3.9261506 1.8979787 1.2720286 8.333333
4.0649762 1.8737115 1.5114083 8.1079998
1.117943 2.0956059 1.399785 23.08
1.525279 2.3226507 1.4170951 22.083126
1.762679 2.0389645 1.3417578 20.104
2.4079483 2.1733081 1.3416501 17.106167
3.8146467 2.1293828 1.258882 10.269667
1.2165796 2.7925446 1.5216148 23.136
3.6443729 2.5188074 1.4105653 13.35825
2.8567383 3.1965082 1.5297717 20.134251
3.5067201 2.8525827 1.215513 16.109249
2.3827591 3.2342839 1.3895445 23.136
2.6110094 3.3153539 1.463816 22.432873
3.0316513 3.44082 1.386712 20.582226
3.3748958 3.3494136 1.3862108 18.870333
3.5852304 3.6007633 1.4073336 19.1325
3.9085183 3.6246476 1.3260138 17.132999
-11.281486 -0.90921766 1.6699035 8.0675001
-6.4718909 -1.0212605 1.7889044 5
-4.954947 -0.90272045 1.8762913 4
-9.6420279 -0.65066499 1.9951403 8
-6.1873655 -0.53108877 1.7498368 8.0612497
-4.9181099 -0.72707677 1.803308 6
-3.5078261 -0.60958362 1.9112942 5
-2.5933647 -0.41981024 1.6167912 4
-10.187144 -0.33715606 1.7457042 9.578167
-9.7862349 -0.10251278 1.9754823 10.5
-8.5445356 -0.081002951 1.6579812 10.0655
-7.9342461 -0.052734375 1.9311104 10.0665
-6.8905735 -0.13661611 1.8625054 11.06425
-6.089797 -0.3369391 1.9540322 9.5622501
-5.9715166 -0.33978242 1.6223912 9.7271662
-4.8715992 -0.093020439 1.7596583 12.56425
-3.838603 -0.084965467 1.9075782 10.071
-3.0120783 -0.083516598 1.7572255 9.0722494
-2.5338814 -0.16767967 1.7342091 8.5695839
-2.3016751 -0.25618979 1.8182269 7.7019997
-1.8202325 -0.16234678 1.7811887 6.7052913
-1.3470725 -0.14822777 1.8500551 5.333333
-1.1753139 -0.14784223 1.9427037 4.6666665
-10.314447 0.09032923 1.7206709 11
-8.1554089 0.21649534 1.7100127 11.55525
-7.8520827 0.20803201 1.7313286 11.05625
-7.3683224 0.22160837 1.8327382 12.31525
-6.9132175 0.35391545 1.8756781 14.062
-6.1569176 0.18733168 1.9340439 13.66345
-3.6199825 0.30747896 1.6128843 13.0695
-3.5601146 0.097265989 1.961622 12.06775
-3.0135546 0.32537341 1.8843265 13.323
-2.7607281 0.39063978 1.7905376 14.07325
-2.2051833 0.064246014 1.8842152 11.734692
-1.8442926 0.32178161 1.7346603 14.322089
-1.3001258 0.24210276 1.7529304 8.4462624
-1.0203311 0.31214288 1.896422 13.49382
-0.59341228 0.14370677 1.7862812 8.5035009
-0.19351399 0.18532977 1.7939842 7.0939727
0.1065788 0.29787624 1.9102582 7.5433393
0.46213478 0.33184311 1.7559114 6
-7.0110602 0.59698576 1.761088 14.577443
-6.6556792 0.60660458 1.821595 15.069742
-6.146843 0.59964043 1.6804641 14.398582
-5.9244995 0.71488088 1.7829109 16.397165
-4.029871 0.43069577 1.6693714 14.069
-3.7276509 0.59530097 1.6457772 16.068001
-3.3500414 0.4280414 1.9810348 14.0725
-3.0322073 0.61424339 1.8523928 17.571083
-2.5077331 0.77949202 1.8652357 23.069376
-2.2738118 0.53746021 1.744162 17.790237
-1.6905855 0.55923694 1.8920637 15.28093
-1.2955878 0.60738558 1.703313 13.058829
-1.0924213 0.61403203 1.7240629 17.695206
-0.5087862 0.52030885 1.711457 17.428522
-0.12823166 0.59209168 1.7078133 16.73925
0.24771143 0.59845537 1.8062887 13.226521
0.66893387 0.56706977 1.8293331 9.6137505
1.028741 0.59557468 1.9155525 6.901125
1.2390332 0.64069402 1.8043418 6.4286251
1.8443328 0.66324759 1.867569 4
-6.1199174 0.86858642 1.8682797 17.254261
-5.7780471 0.96319234 1.8316555 17.260235
-5.407464 1.0836037 1.7728485 19.028286
-4.957119 1.1522787 1.8772001 20.565001
-4.7083397 1.0164963 1.6794485 21.176027
-3.7602401 0.90396571 1.7805343 18.07
-3.2938032 1.0168178 1.9251028 20.238834
-2.9701798 1.1431763 1.8504939 21.8727
-2.0351753 0.84187049 1.7230494 22.07625
-1.8169487 0.93049216 1.9422973 18.71945
-1.3453223 0.89459008 1.7642031 16.761135
-0.53456217 0.80132627 1.789232 23.096123
-0.25445336 0.84564948 1.7523358 23.101749
0.2962262 1.166522 1.9253638 22.111126
0.73504859 1.0477986 1.8863933 15.83206
0.99520665 0.98746473 1.8794369 13.030785
1.8193904 0.97551823 1.8192127 8.1230001
2.0432787 0.89747876 1.9899771 6
-5.2441635 1.2156632 1.9514813 22.730457
-4.8562627 1.2090364 1.776804 18.719761
-4.4926081 1.2991445 1.811154 20.104664
-4.1189294 1.4632733 1.7822917 21.461121
-3.8462186 1.5212941 1.8165777 22.91058
-1.4145701 1.4097919 1.6836878 21.313
1.0052655 1.3830526 1.8517598 18.606501
1.4633071 1.4099284 1.9464402 16.351221
1.8407147 1.5325549 1.9486585 13.09025
4.1836033 1.4522594 1.8228353 4.666667
-3.3014121 1.6540884 1.7234452 23.052999
-1.4218938 1.6795239 1.7030644 23.056
0.57977444 1.6316149 1.9598492 22.889799
1.3020593 1.8779521 1.8552833 21.178501
1.7531735 1.828377 1.7843355 15.748667
2.4583883 1.9272633 1.7012458 14.103625
3.837806 1.8978051 1.857995 8.7726669
4.3294826 1.6493773 1.9677503 6
5.6347075 1.9030541 1.9412239 4
0.75077242 2.1740797 1.9198335 22.408669
3.9532056 2.1397674 1.6495092 9.9406672
4.2578568 2.2991412 1.947556 10.1065
1.6877594 2.4326105 1.8632832 22.600126
2.0540433 2.476963 1.6078417 21.1035
2.4540145 2.4032099 1.7878046 18.1035
3.7247863 2.5876086 1.6872514 13.107
5.2925134 2.4917679 1.9926097 8.1300001
1.4547116 2.92465 1.8695467 22.615856
1.8874346 2.8637786 1.9313009 20.133499
2.2341456 3.0480044 1.8543675 22.218298
2.5599942 3.0946941 1.7789996 19.633625
2.9553485 3.1911423 1.7058109 20.133249
3.8351979 2.9607606 1.6555308 15.1075
2.3776941 3.2595081 1.739857 23.006937
2.6354694 3.2786355 1.7978165 21.944199
2.9862728 3.254144 1.7746409 20.392445
3.3888705 3.3476131 1.8560046 18.798445
3.7032838 3.4987748 1.7795221 18.118876
4.0255284 3.5874166 1.6612642 17.1315
4.1457639 3.6348307 1.9213417 17.130501
-9.23174 -2.0191312 2.0805345 3
-9.1575394 -2.0087509 2.1171684 3
-9.2828484 -1.7525762 2.0740654 4.5
-9.1138096 -1.9733012 2.354764 3.5
-9.3564577 -1.5998719 2.1829934 5
-7.4351935 -1.4223239 2.2158415 4
-6.084764 -1.25423 2.0064898 3
-9.4540243 -1.1058482 2.1075287 6.5714288
-6.2771325 -1.1774168 2.0246134 4
-10.920911 -0.56048286 2.3810444 9.0652504
-10.30454 -0.46787709 2.1283731 9.0465002
-9.6473274 -0.54820865 2.1115687 8.5
-9.5744438 -0.59290361 2.2579186 8.3888893
-7.4083962 -0.51537621 2.1080916 8.8151245
-4.9585814 -0.49868593 2.1670797 8.5634375
-4.7808967 -0.46466315 2.3346939 8.7313337
-9.7480068 -0.2900604 2.0280561 9.375
-9.4423866 -0.26167178 2.3454061 10
-7.4545102 -0.075874507 2.0821509 11.065
-6.8934331 -0.028670609 2.1965885 11.56575
-4.8273506 -0.28227335 2.3426192 10.56475
-2.9357007 -0.0015803277 2.2302923 11.07125
-2.5582111 -0.063417882 2.3591752 10.407166
-2.0761244 -0.16959062 2.1959245 8.4912081
-1.9940777 -0.39404863 2.1196237 4
-1.5449584 -0.24958915 2.1225235 4
-8.495142 0.10896112 2.0499806 11.066999
-7.7829409 0.26439711 2.1532917 12.056625
-7.4331951 0.37017596 2.2839975 12.059375
-6.1700759 0.2460645 2.2436895 13.874154
-5.897789 0.24298495 2.3165503 14.06425
-4.9667778 0.22721517 2.0184817 14.066
-4.7734776 0.29223514 2.3736744 15.8651
-3.8519907 0.25751227 2.2803376 13.5695
-3.4069889 0.16914931 2.3965421 13.07125
-2.6285503 0.27901945 2.0859394 14.639466
-2.2698836 0.16504627 2.1237292 13.191038
-1.6036921 0.36205649 2.062897 14.0825
-1.334769 0.051929638 2.1037908 6
-1.1706803 0.049544901 2.0062828 8.657321
-0.66189289 0.2782799 2.0627308 11.176458
0.22220568 0.32137275 2.2948964 6.1211996
0.5821017 0.28983545 2.1587403 4.0666666
0.955024 0.35224921 2.0268075 3
-6.995975 0.58541673 2.224726 14.400749
-6.6060047 0.63046283 2.1630499 15.738153
-6.1452417 0.71870327 2.2662766 15.519488
-5.9409552 0.6392172 2.3037844 15.11775
-4.6275821 0.54518139 2.0528979 14.57
-4.1526589 0.48000717 2.0737476 14.071
-2.2231615 0.6695599 2.2010162 20.537687
-1.3656741 0.59257478 2.1452043 12.772439
-0.92391402 0.63592267 2.1347492 18.327011
-0.44759083 0.7868498 2.1642151 19.461683
-0.32661891 0.46664476 2.0549812 13.654111
0.1615945 0.62246275 2.3013434 10.850049
0.56249553 0.66271412 2.1848907 9.8077736
0.88155782 0.54736316 2.0388913 6.6167498
1.7375879 0.60273731 2.1856661 4
2.1211033 0.70310605 2.1349716 3.5
-6.1461196 0.8753975 2.292995 18.06675
-5.8423152 1.0482289 2.1598337 19.507769
-5.4362493 0.9789241 2.2066202 16.04607
-5.1752596 1.1425345 2.0928297 19.06675
-3.9633782 1.174125 2.2134006 21.069
-3.5515652 1.1521108 2.1672871 22.5695
-2.5244904 0.84833747 2.2131326 20.077499
-1.8762398 1.0379078 2.2268238 23.082001
-1.3251632 0.94807988 2.1512253 17.180889
-1.0243365 0.98274088 2.2440429 23.091
-0.13459739 0.97412181 2.1570611 21.053474
0.10567743 1.0101507 2.2986417 16.86475
0.60275316 1.0143857 2.0883963 15.015499
0.87247777 0.9301526 2.1101799 13.214188
1.5217749 1.0487164 2.1731009 10.274917
1.7023849 1.0442027 2.2116296 8.7854137
-5.6531177 1.2159064 2.2053447 21.56675
-5.0485821 1.2164333 2.2015941 23.065624
-4.7300606 1.246196 2.2537198 19.57025
-4.2489119 1.3397782 2.1618805 20.089193
-3.8672228 1.5041784 2.1519916 21.73307
-3.3038929 1.2285244 2.2110415 22.073999
-1.3945606 1.2383951 2.2632322 17.0655
-0.075064503 1.3689579 2.3523326 21.08075
0.23847143 1.4003243 2.257772 22.046713
0.56759471 1.4908675 2.1282637 22.864
0.95814288 1.3501518 2.2890565 13.849251
1.4423789 1.438197 2.192627 14.473262
1.7647426 1.3369733 2.1565292 12.621125
2.1922255 1.3830287 2.1846271 10.622749
2.5581832 1.2963405 2.134228 8.3292141
-3.6947711 1.6112534 2.0662889 21.553833
-3.3917344 1.6743798 2.2753711 22.056
-2.9483626 1.7013562 2.3593233 23.05825
-1.3886611 1.8447723 2.2449062 22.065813
1.0710009 1.7652717 2.2479746 19.5735
1.4424261 1.8909923 2.2609203 19.658678
2.1555858 1.8367689 2.3438702 15.1225
4.4091249 1.6076556 2.2712705 5
5.6479959 1.9776813 2.1510026 5
-1.4934752 2.0150974 2.1751311 23.057751
0.48099416 2.3404431 2.1950998 23.073
1.32611 2.1621056 2.1677451 22.862812
1.8168659 2.3921242 2.3905563 20.1329
4.2697334 2.1802187 2.3747692 9.1159992
5.6148405 2.0635953 2.2032909 5.3333335
1.1797496 2.7064834 2.1961515 23.078251
1.4748664 2.67992 2.2755668 23.133499
1.6982486 2.6631501 2.1635046 22.113449
2.4285722 2.5514185 2.377007 19.1285
4.130188 2.728303 2.1479669 12.605625
5.2667556 2.5007477 2.2576845 8.1289997
1.3699797 2.906903 2.2111864 22.7565
2.1740088 3.066669 2.2544174 21.913696
2.5194793 3.0723648 2.2998185 20.538877
2.9597855 3.0980208 2.2025456 19.006439
3.9345195 2.8065555 2.0002673 14.106
5.0601702 3.0027523 2.1966846 11.1295
5.4037719 2.8596268 2.1782286 9.6630335
2.5858519 3.2982905 2.1428113 21.846596
2.8523078 3.2263618 2.1300931 20.412592
3.4079006 3.3869839 2.2121031 18.380751
3.7258263 3.4179561 2.1997106 17.371737
4.1815081 3.5214984 2.2012033 16.170895
4.6044636 3.3750906 2.2874823 14.629126
-9.0760717 -2.0326612 2.5340173 3
-9.1581278 -1.6965456 2.5296366 4
-9.2268677 -1.5228392 2.4156804 5
-7.604928 -1.3217262 2.4245858 4
-9.3387451 -1.1233701 2.5075922 7
-7.7838407 -0.92512918 2.6544805 7
-6.6088266 -1.0204979 2.5209827 5
-6.1290669 -1.0169977 2.5604665 4.8333335
-10.695855 -0.49290755 2.6750841 9.066
-10.371164 -0.52391136 2.4895921 9.0472498
-9.4555607 -0.59134382 2.5076988 8.666667
-7.420135 -0.63813365 2.4559252 8.0664997
-7.0834122 -0.52423167 2.589941 8.5672493
-3.6594045 -0.77419686 2.6654999 4
-3.0557721 -0.61047804 2.6054444 4
-9.2929153 -0.2151075 2.5745614 10
-6.7066426 -0.077450156 2.5105641 11.400584
-5.0046377 -0.22928816 2.6740336 11.066875
-4.627605 -0.20599365 2.7546048 11.112333
-2.4375558 -0.032192677 2.6661735 10.077
-1.8328664 -0.25928098 2.5233231 6.039475
-1.524681 -0.2557044 2.7571974 5
-8.2757645 0.08717519 2.4696894 11.07025
-7.767395 0.264723 2.5516009 13.06675
-7.3674855 0.16675507 2.624068 12.068583
-6.2150087 0.35837343 2.7134018 14.502084
-5.8702602 0.18256909 2.5514669 13.0655
-5.3133216 0.10065573 2.4181609 13.065
-3.263731 0.13586298 2.4437668 13.072
-2.8027568 0.007355541 2.4154673 11.07325
-1.83144 0.12943836 2.6705971 12.581527
-0.50285608 0.29905289 2.6874702 7.2149
-0.21037965 0.18266422 2.5872688 5.068182
1.4415895 0.3809981 2.7175102 5
-7.281785 0.42281553 2.5241795 13.067
-6.9780278 0.59173483 2.5907199 13.777606
-6.6236439 0.62908137 2.6726978 14.068
-6.2759552 0.63306099 2.6054008 15.117972
-5.9114766 0.57496929 2.5384989 16.0655
-5.2550874 0.52360773 2.7851398 17.067499
-4.6568418 0.47994995 2.762588 17.734833
-4.3702359 0.50822926 2.674788 19.068001
-2.0261903 0.78922677 2.5332861 22.746445
-1.9942204 0.61600196 2.5722558 20.455126
-1.2930528 0.60902685 2.7157454 9
-0.45324087 0.46657854 2.6357937 9.3497562
-0.1676542 0.51188391 2.5136745 9.4926834
0.14344144 0.63573718 2.5019779 10.580875
0.71577644 0.57284141 2.7590704 11.1285
1.4867293 0.61691064 2.7270021 5.2888889
2.1886737 0.72447759 2.5816586 4
-6.0230145 0.88743305 2.7176075 16.227001
-5.8386645 0.97066826 2.5788968 18.460159
-5.354476 1.0510693 2.5224457 17.852262
-5.0288167 1.100449 2.6205721 17.524866
-3.2787974 1.1109968 2.4152193 22.57225
-1.9198437 0.84176171 2.7186127 23.0825
-1.3193982 0.95285606 2.6158919 12.683333
-0.48878744 0.81476927 2.6488917 14.07525
-0.22495367 0.91846508 2.5181196 14.831486
0.11191151 1.0454934 2.6008699 14.8315
0.79577255 1.0249506 2.7413993 15.129
0.951855 0.88745314 2.4676008 9.0732498
1.4508463 0.98340058 2.6851525 9.7426434
1.7098157 1.0405328 2.6914189 8.6753998
2.1472135 1.0952687 2.4209082 8.7931662
-5.3148708 1.2477822 2.5982158 22.468576
-4.5289745 1.2543766 2.6083546 18.862249
-4.1129498 1.4309053 2.6582718 21.82375
-3.8809614 1.5039754 2.531765 21.324591
-1.3227187 1.310765 2.5476184 16.216751
-0.26647082 1.278067 2.5400496 19.078499
0.029797232 1.3064944 2.4576538 19.081499
1.088333 1.5669675 2.7791648 15
1.3772177 1.457952 2.6634834 14.494315
1.7144955 1.434082 2.6275318 12.646059
2.1703205 1.4228032 2.5376556 10.080958
2.5539887 1.385745 2.6776438 8.7964172
2.8625457 1.5696912 2.4751813 9.1300001
4.8522043 1.4635558 2.7675967 2.5
-3.6506472 1.6094209 2.458492 21.056
-3.4637489 1.6696814 2.5562572 21.390501
-2.6160445 1.7449933 2.5395105 23.060835
-0.40723369 1.7397946 2.6815982 23.078251
-0.0029236916 1.8968434 2.7350912 22.882198
0.34854397 1.9484549 2.6011407 23.085751
1.0602697 1.7070345 2.6653917 18.600014
1.3647555 1.8438742 2.7088008 18.531738
1.7236094 1.7945461 2.6300802 15.695685
2.0529947 1.6041147 2.5619864 12.4605
2.6918275 1.8779056 2.4749672 11.62975
3.5418899 1.9394855 2.5855777 9.1020002
4.6923246 1.8853993 2.6851411 6.5
-1.8416934 2.0616202 2.6899197 21.723833
-1.248747 2.2456505 2.6420274 23.068167
-0.99024796 2.2465649 2.5958326 23.064833
-0.75271469 2.297101 2.6335087 23.063999
-0.2809518 2.3264179 2.6082745 22.638607
0.78012639 2.3947504 2.6643243 23.08325
1.1399646 2.162823 2.79933 22.321901
1.4664541 2.2106662 2.6978929 20.796698
1.8697451 2.2086322 2.5954621 17.073166
2.1070426 2.0189579 2.5218153 15.5
3.0875301 2.0766521 2.5380008 12.378375
4.6280327 2.1938405 2.6316292 8.1154995
0.16785005 2.4586654 2.5893979 22.737123
0.5702855 2.5863123 2.697757 22.073101
1.0642064 2.5703907 2.5563323 22.580999
1.4053961 2.6066828 2.6623423 22.155563
1.8677709 2.638835 2.5470099 20.877781
2.0812755 2.5363553 2.5477481 20.127499
2.6747088 2.6234236 2.5745134 17.115002
4.5749502 2.4839473 2.7454889 9.6038752
5.3518314 2.5982015 2.5600913 8.7531252
1.1331228 2.860307 2.7247386 23.127899
1.4810356 2.8592713 2.5265749 21.8297
1.7989162 2.9359655 2.5050559 22.435333
2.2161481 3.0086048 2.4343154 22.171783
2.5371203 3.0922894 2.6608529 20.487644
2.976079 3.1712203 2.5277188 18.920395
4.3241858 3.0742257 2.5513773 14.127501
5.009439 2.9489889 2.5241153 11.461542
3.0229383 3.220612 2.6411772 19.293501
3.3832653 3.2717927 2.5565476 18.12925
3.7020197 3.3594265 2.5921121 16.949083
4.2965112 3.3879955 2.6794622 14.854125
4.4075794 3.4475424 2.7361071 15.460584
5.2884665 3.4355078 2.6302345 12.6285
5.3160367 3.6179142 2.4616165 13.12925
5.7096004 4.4182959 2.5132058 15.107
-9.4467506 -1.4369717 3.1288331 6
-7.4036822 -1.2027633 2.9372187 5
-7.0485826 -1.5294539 3.0579653 3
-7.3542318 -1.1473982 3.1901221 5
-6.4371643 -0.82822692 2.8694293 6
-4.6741185 -0.8749603 3.1690636 4.1999998
-10.450721 -0.58033681 2.8635018 8.5480003
-10.285026 -0.5636279 3.0434365 9.0707502
-9.6962442 -0.60888606 2.8109908 8.0705004
-7.3185072 -0.47263485 2.8229632 9.0679998
-6.8706489 -0.48274279 3.0565982 8.819375
-4.6319389 -0.70033842 2.8666947 6
-4.2412462 -0.74648392 3.1655543 5
-3.4723067 -0.65841293 2.9478884 5.125
-3.1706126 -0.63521403 3.1738725 5
-9.7623177 -0.35275087 3.070729 9.0672503
-9.377058 -0.21026812 3.1338451 10.0695
-8.9982653 -0.13693982 2.8740494 10.071
-7.3362556 -0.19902915 2.8201561 10.068
-6.505106 -0.16718289 3.0092187 10.66965
-4.9412022 -0.11352718 2.862196 12.068168
-4.4567976 -0.29371729 3.0283923 10.403501
-4.1355314 -0.33535373 3.0361333 10.071
-3.6570485 -0.21980476 2.8415241 11.90425
-3.3428202 -0.20038013 3.1086483 12.210896
-2.1097412 -0.20484319 2.9565978 5.0999999
-1.775086 -0.05079709 2.9469419 7.3989286
-1.5375348 -0.042766243 2.9258385 8.4191666
-1.1769854 -0.035859242 3.0248573 5.75
-8.1882038 0.10036427 2.9751663 11.071751
-7.6166167 0.22303098 2.8961787 12.568125
-7.45401 0.23210925 3.0871723 11.904166
-7.1775389 0.21699089 3.1359787 13.0695
-6.4382048 0.041773081 2.8347375 12.069
-4.8150673 0.22159475 2.895865 15.06875
-4.5918331 0.2080802 3.0680997 15.100693
-4.3050127 0.071029902 2.9317064 14.07
-3.4575393 0.21301322 2.9553878 14.185582
-2.5565586 0.346237 2.9624081 14.829
-1.9086828 0.32511783 3.0230751 10.065001
-1.333434 0.25061339 2.9656703 8.8379374
-1.0663853 0.22721149 3.0966227 8.439292
-0.11598399 0.25260776 2.8136427 5
0.10417497 0.35925907 3.194015 8.1184998
0.53132755 0.2591897 3.099247 7.0418334
0.86157155 0.29692909 3.0362082 4
-7.0001698 0.59176779 2.9446001 14.568874
-6.6281157 0.55164409 3.008065 13.234067
-6.2457266 0.66546994 3.0448093 14.794947
-5.3444381 0.46546155 2.9127643 16.068167
-4.4209948 0.78208172 3.084394 21.071251
-4.2746711 0.59371126 3.0786378 19.571499
-3.7590322 0.56541806 3.0375946 13.0575
-3.4565358 0.48850718 3.0847869 21.408207
-2.5755875 0.46787205 2.9726155 11.818889
-2.213671 0.46284375 3.0308063 13.114144
-1.846536 0.53762937 2.961834 15.895675
-1.3016521 0.65767723 2.9474907 11.371205
-1.0571322 0.52518612 2.9960718 9.4591665
0.35481131 0.57846087 3.1843295 8.1100006
0.65498197 0.59628958 3.0977871 8.2241077
1.0030576 0.62724251 2.970257 6.7617288
1.4419923 0.71336126 2.9767592 8.2279549
1.6590778 0.75072724 2.8775239 6
-5.7945247 0.95830411 2.9901958 16.96302
-5.3680191 1.0455983 3.0771892 17.449242
-5.023777 1.1093361 2.9313519 18.25787
-4.6486435 1.1677525 3.1118374 17.56432
-4.15763 0.85699201 2.8595428 23.07025
-3.8545318 0.8575598 2.9861693 19.064751
-2.8651886 0.80523658 3.0685091 19.078501
-2.4319696 0.80239618 3.1750398 19.581749
-1.7748884 0.96124625 2.9925296 18.239668
-1.3310117 1.0583166 3.1800823 19.248001
-1.0303501 1.0912209 3.183876 15.5
-0.65110993 0.89805615 2.9426582 14.0745
-0.24727777 0.99260712 2.9843025 14.078
0.29955912 0.82567841 3.1955943 11.65247
0.65689754 0.9679842 3.0767336 12.911288
1.0387263 0.98323148 2.9707029 10.786085
1.3249462 0.99775124 2.8488097 10.292167
-4.9907389 1.2567589 3.0086255 21.597736
-4.1637011 1.3575335 2.9756663 19.800785
-3.7763534 1.4930563 2.8578887 20.284342
-3.5222387 1.5407487 2.9510365 19.574184
-1.6080953 1.4014755 2.9544208 20.068251
-1.2793844 1.4066061 3.1452823 18.847813
-0.65665722 1.3454212 2.936393 18.575375
0.18926841 1.3727447 3.1730258 18.845968
0.62428147 1.4251676 3.0713618 17.686047
1.0287277 1.3803129 2.962657 14.870026
1.3178139 1.4208189 2.8874242 14.967646
1.7951119 1.3905096 2.9314332 10.718374
4.857821 1.4974992 2.8701217 4
-3.4650087 1.6411794 2.8793344 21.693167
-3.1233022 1.6978064 3.0849817 20.703785
-2.6190484 1.837373 2.9947872 22.563
-2.1290784 1.818012 3.1101017 20.561211
-1.7351785 1.9129298 3.0450263 21.405687
-1.3050952 1.8438889 3.0628417 23.071501
-0.96410543 1.7291213 3.0150242 21.849358
-0.59181213 1.6989625 3.0698793 21.037817
-0.27938172 1.8335412 3.0094371 21.783903
0.39974833 1.8867919 3.0704708 23.114166
0.57699925 1.7835877 3.0546019 20.179995
0.93863171 1.7691336 2.9037502 20.02906
1.2407337 1.728682 2.9063528 18.2495
2.1567044 1.7993994 2.9402251 12.128
4.3740783 1.7181009 2.8452084 7
4.716743 1.8066527 2.9153678 6
5.2992144 1.8733003 2.9778385 5.5
-1.3394337 2.1489029 3.0804877 20.697968
-1.0345565 2.2029009 3.0901058 20.878792
-0.53748167 2.3125808 2.9493148 21.959301
-0.34974384 2.3876927 3.0645807 22.575001
0.2852622 2.3829803 2.8863904 22.91275
0.60549891 2.1206598 2.9941897 23.037401
0.94143403 2.2154622 2.9505897 23.12804
1.5148953 2.3354583 3.1472204 18.125999
1.7723241 2.1915913 3.0066671 17.874813
2.0057626 2.2648449 2.9350977 15.628
4.2469587 2.212379 3.0116374 10.12475
4.5769615 2.2324796 3.0212302 8.6140003
-1.6960499 2.426553 2.9253924 23.059
-1.5561275 2.4276774 2.9248676 23.05975
-0.42969558 2.4069204 3.1754272 22.074499
-0.15223661 2.4307821 3.0767703 23.076334
0.13641272 2.4606881 3.1129246 21.674
0.67012787 2.4728982 2.9360554 22.283838
1.0305401 2.6158612 2.9156971 21.145102
1.3108225 2.499649 3.0725756 19.830999
1.7701279 2.5476978 3.0129478 18.776331
4.7300296 2.5263231 2.9472167 9.1035004
5.1040192 2.6382828 3.0819609 9.6567497
5.3182583 2.6410055 3.0517957 9.1265001
1.1922736 2.8317986 3.0404282 23.091749
1.9133847 2.9523385 2.9404335 23.124166
2.2091434 2.9621606 2.9245811 21.223804
2.7171531 3.120008 2.897697 20.126499
3.003706 3.1287231 2.9780025 18.624582
4.1367011 3.0221987 2.9303777 14.12575
4.5340071 2.9737775 3.0089309 12.110751
4.900806 2.9537721 2.8450377 12.127
3.5405056 3.3151691 2.9480202 17.1015
3.7381358 3.3150163 2.9649434 16.495125
4.2182336 3.3541815 3.0133007 15.118138
4.4871836 3.4017625 3.0032911 14.795292
4.9824233 3.3837695 3.1396646 13.377501
5.2251086 3.4413028 3.0624721 13.127
-12.722382 -2.8899484 3.573096 3
-12.848312 -2.5890529 3.5624762 4
-13.12368 -1.7707074 3.5679402 6
-13.254972 -1.5156531 3.5925419 7
-5.9943066 -1.2595043 3.2836919 3
-11.650888 -0.96746737 3.4241319 8.0710001
-5.9617424 -1.0926359 3.2648602 4.416667
-4.5133362 -0.94579548 3.3712411 3
-4.2579927 -0.85289514 3.5775309 3.5
-10.416764 -0.62396622 3.3509521 8.0489998
-10.034466 -0.49689478 3.3128483 9.0714998
-9.8392134 -0.43757826 3.4888034 9.0719995
-7.0803876 -0.43611139 3.4657822 8.5707502
-6.7632928 -0.48520017 3.304275 9.0705004
-6.3999181 -0.43332529 3.3221774 9.0711002
-4.4858532 -0.52563977 3.4819314 7.25
-4.3615513 -0.44543874 3.5958028 8.25
-3.393127 -0.58491707 3.4946237 6.0387502
-3.0564981 -0.56812716 3.3153191 5.7160001
-2.6737115 -0.54794371 3.3838828 4
-2.0529871 -0.41415492 3.2526498 4
-9.4891052 -0.2023119 3.3085203 10.068
-8.6176214 -0.028022829 3.3121004 10.072374
-7.3723536 -0.074344695 3.4802728 10.903833
-4.4856791 -0.39268494 3.4798713 8.911438
-3.6456425 -0.29356924 3.4944839 10.0765
-3.3545086 -0.14805025 3.4694507 12.078084
-3.0425577 -0.17644614 3.3684053 12.048094
-2.6612761 -0.34696829 3.5937967 8.4029999
-1.7233232 -0.29974616 3.2483997 5
-1.0598348 -0.084632039 3.5459886 3.5
-0.7449342 -0.027770096 3.4107304 4.5
-0.21932399 -0.033721566 3.4101844 3
-7.6956205 0.25011349 3.3539758 11.07325
-7.2588477 0.38863632 3.3962903 11.812875
-6.2593217 0.13779019 3.3030002 12.40475
-4.8222528 0.33096331 3.2665844 15.571251
-4.5037942 0.044022232 3.3881254 13.197687
-4.3716831 0.38692605 3.4092522 16.638718
-3.9813375 0.25589335 3.4253309 16.075001
-3.3462875 0.18735957 3.4277153 16.623682
-3.0629444 0.28720081 3.4728789 18.366501
-2.2205327 0.072638243 3.4801514 9.9172077
-1.7522554 0.28923523 3.2970381 10.326875
-1.3432937 0.23889995 3.4209626 8.1800613
-0.96615154 0.24622324 3.513844 8.2507744
-0.58708018 0.21664998 3.4097991 7.5477977
-0.14923537 0.19165602 3.3615508 6.2303329
0.086847007 0.25000864 3.2955601 6.0975838
-7.5059381 0.52529544 3.3493552 14.07
-6.5510149 0.55652279 3.3441122 14.071875
-6.177248 0.71276641 3.3359449 14.566792
-5.9078598 0.74457884 3.4763191 13.05425
-4.6765609 0.4450835 3.3168054 17.072001
-4.3508229 0.78227496 3.4042492 20.473801
-3.963398 0.50443494 3.2427075 19.073875
-3.4190884 0.49689099 3.3509202 19.038792
-3.0636489 0.58766699 3.4794014 19.989779
-2.60695 0.57586014 3.4686556 17.958132
-2.1383414 0.44121954 3.3801396 14.484401
-1.6091802 0.49520507 3.2294922 15.588
-1.2868142 0.6298486 3.4652152 12.39972
-0.99459666 0.70047665 3.4277766 14.170155
-0.59237003 0.51730871 3.4526374 11.45745
-0.24355628 0.60301489 3.3496764 11.704958
0.14668059 0.50477278 3.2412589 9.0002384
0.42756468 0.58021605 3.2181849 11.235994
0.86933595 0.58081818 3.3200839 8.2461672
1.2449044 0.73760378 3.3452122 8.1160002
-5.7247424 0.893704 3.44151 15.373518
-5.2780991 1.0003912 3.4199131 15.315063
-4.8372388 1.10329 3.3788633 15.05625
-4.0555568 0.9984839 3.2340798 18.075001
-3.6659634 0.81406653 3.3558025 23.0765
-3.3785207 0.86282909 3.5588717 18.079
-2.7015095 0.91310441 3.2165666 20.0805
-2.2670691 0.815238 3.5511825 18.084999
-1.819963 1.0003743 3.4303985 20.763088
-1.3717488 1.0013608 3.3912549 16.483477
-0.9645682 0.98483092 3.4273901 16.60462
-0.56056803 0.92561322 3.3991621 16.413305
-0.16114092 1.0479338 3.3565657 16.479944
0.2039177 1.0361919 3.2934391 15.08076
0.58825362 0.99217844 3.3768048 12.997695
0.88977957 1.1266596 3.2760754 12.11125
1.6409507 0.90506959 3.3331518 8.1184998
2.1838148 1.1568577 3.5262456 8.1199999
-5.297039 1.3119555 3.4360971 21.699625
-4.9335947 1.3257384 3.4499488 22.075874
-4.5656028 1.2658501 3.3442848 20.142927
-4.2444229 1.3306019 3.4246442 18.48978
-3.747843 1.4536525 3.3396299 20.183485
-3.3817334 1.4733489 3.3996558 18.338696
-3.1361322 1.2299106 3.4276025 21.07975
-2.5757694 1.2398475 3.3798535 22.416
-1.4022237 1.3001617 3.3985143 18.75
-1.0055728 1.4155388 3.4407642 21.303858
-0.63898176 1.3040259 3.3826041 19.672791
-0.22919075 1.3400252 3.3293703 20.006063
0.25159088 1.3210379 3.3636057 18.600706
0.59553576 1.3803158 3.3990293 15.843006
