# .PCD v0.7 - Point Cloud Data file format
VERSION 0.7
FIELDS x y z intensity
SIZE 4 4 4 4
TYPE F F F F
COUNT 1 1 1 1
WIDTH 730
HEIGHT 1
VIEWPOINT 0 0 0 1 0 0 0
POINTS 730
DATA ascii
1.3244967 1.4402409 -4.0624256 13.5
1.3613262 1.1534427 -3.9272184 12
1.2840377 1.3485223 -3.8524389 14
1.2848957 1.5157583 -3.8935573 15.25
1.2319589 1.7932285 -3.945992 17.5
-1.4261488 1.4992883 -3.7269831 20.25
1.29684 1.5213807 -3.6648741 16
1.2739601 1.6425122 -3.6215205 17
-1.4754177 1.2992893 -3.5732882 19
-1.5087051 1.4968737 -3.5067992 20.75
-1.4774591 1.7287571 -3.565912 23
1.254849 2.0955968 -3.5975347 21
1.2201712 2.2052023 -3.5397103 22.5
-1.168807 -0.11296694 -3.2750645 5
1.0854546 1.2503638 -3.2568858 18
-1.1885232 -0.12346587 -3.1876087 5
-1.3181448 0.32059479 -3.0928321 12.5
-1.3237009 0.48518711 -3.0674894 15.25
1.2356129 1.2085416 -3.0629721 15
-1.3718246 0.12809272 -2.8120289 8
-1.4260842 0.39452615 -2.8102527 12
-1.3481569 0.32036135 -2.9088688 12.166667
-1.1865215 0.2897833 -2.8445263 10.75
1.3158648 0.34853142 -2.9423566 4.5
-1.4159992 0.53555399 -2.9783964 16
-1.1878049 0.4068673 -2.9759526 12.5
1.249284 0.52373886 -2.9645276 7
1.5785223 0.48967689 -2.9330316 5
-1.2424881 0.64422202 -2.9810038 15.5
1.2537709 0.64548492 -2.939992 8.5
-1.3860435 0.85656381 -2.921248 21
1.4488978 0.98436296 -2.9855571 13
-1.389991 1.0016998 -2.8796117 23
1.1976429 1.0412571 -2.8625431 14.5
1.1879709 1.4652239 -2.8283186 19
1.3391433 0.30054247 -2.6785178 4
-1.4657176 0.51613903 -2.6505408 15
-1.2232308 0.43384612 -2.75737 13.5
-1.1891497 0.40576142 -2.7861571 12
1.2947104 0.48724625 -2.7170196 7
1.7050687 0.49156496 -2.6850872 5
-1.4522233 0.67322385 -2.7039309 16.75
-1.2531351 0.63837945 -2.7059054 16.5
1.2674105 0.69963574 -2.6856766 10
1.5253719 0.6881724 -2.7518418 8.5
1.6894789 0.63067877 -2.7093441 7
-1.2788962 0.80543375 -2.7338624 18
1.2527053 0.84556627 -2.6229997 12
1.6528326 0.83001757 -2.620862 10.5
-1.5079815 1.0414932 -2.7908366 17
1.1852649 1.1583425 -2.6874003 17
1.2965038 1.1315622 -2.7036419 15.166667
1.2371006 1.2876579 -2.7009189 17.75
-1.5218031 -0.0033920268 -2.4006152 4
-1.2393672 0.32743835 -2.5045218 11.5
-1.1767501 0.32554406 -2.5947728 11
1.43039 0.34246722 -2.4270906 4.5
-1.2567598 0.48587871 -2.5026226 14.583333
1.5578347 0.48286068 -2.408421 5
1.6755908 0.40610385 -2.4124463 3
1.5455394 0.63251376 -2.4747739 7.6666665
-1.2724751 0.86941093 -2.5765569 18.5
1.2754072 0.92624879 -2.5181847 13.5
1.5060166 0.83460313 -2.4189129 11.5
-1.2645612 1.111939 -2.5643148 22
1.2202536 1.0710825 -2.5282145 16
1.4953064 1.1333671 -2.4540825 16.166666
1.6153657 1.0522578 -2.545027 14.5
1.1890205 1.2185525 -2.4770486 18
1.4436249 1.3184881 -2.5183501 20
1.2998642 1.4760311 -2.4049916 21.5
-1.5566392 0.12588686 -2.3987212 6
-1.2638221 0.15659648 -2.2930553 9.5
-1.2709161 0.24399 -2.2084217 12
-1.5658631 0.43147662 -2.2440999 11.5
-1.3102192 0.50606799 -2.3545206 15.25
-1.2725716 0.70329738 -2.3795643 17.5
1.5500001 0.75282627 -2.3707924 10
1.6790375 0.72353679 -2.331681 9
-1.5328553 0.80064088 -2.2248809 17
-1.2959532 0.86210406 -2.302876 20
1.3515189 0.84561265 -2.3673296 12
1.2797025 1.1585763 -2.2683301 18
1.5670805 1.0564556 -2.2799485 15
1.3091682 1.2865722 -2.3379784 18.958334
1.5407087 1.2148311 -2.228292 17
1.2956252 1.5069871 -2.2305708 22.25
1.4657185 1.5015423 -2.3894491 23
-1.1841441 -0.21630476 -2.140239 3
-1.1195138 -0.14719722 -2.0374784 4.5
-1.2497221 0.042991664 -2.105438 7.5
1.3977442 0.16833821 -2.1323419 4
-1.5514007 0.3381694 -2.1277783 10
-1.2762188 0.30516079 -2.0745203 12.833333
-1.1431606 0.26115495 -2.0665917 16.5
-1.5023628 0.56315517 -2.1179161 13.125
-1.3323717 0.48105112 -2.0826578 16
1.3577549 0.54199231 -2.036983 10
1.7182693 0.49651253 -2.1554036 5
-1.4722248 0.70054126 -2.0038583 15.75
-1.3235426 0.62934905 -2.1873574 17
1.4166069 0.75855052 -2.0068283 12
1.6557802 0.720465 -2.107331 9.666667
-1.3446754 0.87908435 -2.095535 21.5
1.6560867 0.89036614 -2.1195121 12
-1.5350142 1.1279169 -2.0610642 23
1.2516649 1.0043837 -2.1369996 18
1.41969 1.1365901 -2.1716013 16
1.3966032 1.2114915 -2.0994184 17
1.5770233 1.2703886 -2.1142664 19
1.4404407 1.4630589 -2.1035733 22
-1.1564485 -0.15227327 -1.9250765 4
-1.0940667 0.072007269 -1.9135714 11.714286
1.4570298 0.14365494 -1.8279097 3.5
-1.4568903 0.21209174 -1.802075 7
1.461557 0.35886133 -1.9228032 6
-1.5067815 0.47235861 -1.8889894 11.333333
-1.3576301 0.5186305 -1.8741552 15
1.251462 0.49196321 -1.9267319 9
1.4389397 0.48900422 -1.9061767 9.25
1.6736408 0.4621667 -1.9328201 5
-1.3450602 0.6077165 -1.8434291 19
-1.37994 0.88567489 -1.9314066 22
1.348165 0.88142014 -1.857518 15.5
1.4475425 1.0254831 -1.9944719 14
1.6172326 1.0216779 -1.8954692 15
-1.0496688 -0.12888218 -1.7200918 5.515873
-1.4937235 0.11125764 -1.6959934 5
-1.1363068 0.10776404 -1.6714956 12.375
1.311493 0.15911569 -1.7740066 4
-1.2869903 0.31641272 -1.6985108 13.5
1.3178093 0.32108748 -1.7270645 7
1.4560809 0.34285539 -1.7633502 5.875
-1.484683 0.53802836 -1.7191882 11.166666
1.3183131 0.54093719 -1.6411061 10.5
1.4360847 0.49928463 -1.7524333 8.75
-1.5483141 0.7646035 -1.7458322 17
1.3060257 0.71707213 -1.6906059 13.5
1.3580301 0.8227213 -1.7663461 16
1.4070086 0.96227312 -1.656951 18
1.3930523 1.0515279 -1.7520776 18.5
1.5566192 1.3433044 -1.706048 21.25
1.7603037 2.7587409 -1.6407182 15.5
-1.0390741 -0.21127981 -1.5287623 3
-1.1125569 -0.095255569 -1.5237714 5.25
-0.99411225 -0.16260344 -1.5956091 4
-1.5190686 0.011447525 -1.5924586 4
-1.2028768 0.13095306 -1.4664177 11.9375
-1.1248299 0.12957293 -1.5597358 13.125
-1.4905983 0.31940109 -1.5292182 9.083333
-1.214064 0.23924005 -1.4716158 15.5
1.3051225 0.23358497 -1.5462475 6
1.4619811 0.39182684 -1.5336384 8.1999998
-1.50091 0.53492099 -1.4482942 12
-1.2946253 0.40104067 -1.4653964 15.5
1.4449724 0.42547387 -1.49912 6
1.2303547 0.73004216 -1.495535 14
1.4540012 0.71131295 -1.5643872 12
1.6038657 0.60672182 -1.4351083 8.5
1.458896 0.84731978 -1.5548871 12
1.1530994 1.075645 -1.5244492 19.5
1.4505689 1.1051677 -1.4414386 16
1.3934275 1.2198555 -1.4737587 18
1.315575 1.524659 -1.5819899 22.5
-1.0593249 -0.095311172 -1.2987421 5.666667
-1.1009916 0.027950706 -1.3370655 10.5
-1.5317065 0.29433456 -1.3598211 7
-1.409389 0.48598754 -1.3863339 14.75
1.4529238 0.50036818 -1.3666533 9.333333
1.4637716 0.74795604 -1.3128592 14.083333
1.2409106 0.91119105 -1.3283465 17.5
1.4557295 0.87283516 -1.302094 13.375
1.3065565 1.0884435 -1.2544777 19.5
1.4402953 1.0854764 -1.3147807 20
1.4006817 1.22314 -1.2523808 22.5
1.4299213 1.5276763 -1.3873378 10
1.7483945 2.9222763 -1.3506575 17
-1.1012102 -0.12550469 -1.0966744 5
-1.1848574 0.082051754 -1.0906425 10.888889
-1.6545118 0.34216562 -1.1667688 8
-1.2836404 0.3193323 -1.0695863 15.125
1.333425 0.32378381 -1.1836894 7.5
-1.6380014 0.56773186 -1.0673707 12
-1.3525134 0.54521585 -1.0910153 18
-1.506023 0.64595664 -1.1084323 17
1.2636642 0.79715592 -1.0155953 17
1.471957 0.70694518 -1.1362484 13.25
-1.5485449 0.85460359 -1.1258122 19.666666
1.2831209 0.95606726 -1.0710663 20
1.4469608 0.97601414 -1.0492392 19.5
-1.5481285 1.0278423 -1.0029202 21.666666
1.4547799 1.1387336 -1.1652713 18
1.3760067 1.2631651 -1.1469865 23
1.4264119 1.243624 -1.0999777 22.25
1.2950742 1.48247 -1.0103645 21.5
2.1654351 2.5325928 -1.1485955 11
2.2902901 2.4230609 -1.1865358 9.5
-1.1558594 -0.079689041 -0.8721056 5.4000001
-1.6687803 0.17609705 -0.97995752 5.5
-1.3491155 0.040950198 -0.90103036 6
-1.1821853 0.08331807 -0.82165718 10.5
1.387536 0.19990507 -0.95298272 5
-1.6819466 0.299824 -0.97811878 7
-1.2095035 0.2599383 -0.85217661 15.5
1.5035348 0.36366045 -0.87347281 3
-1.6768128 0.49005657 -0.96113503 10.333333
1.1807131 0.57986653 -0.94509912 14
1.19197 0.65492767 -0.96085024 16
1.467186 0.73909736 -0.91220653 12.75
-1.3966637 0.86777025 -0.98764575 22.5
1.3131731 0.85473198 -0.94313622 18.333334
1.5010227 0.80287915 -0.89722347 10
1.3982933 1.1774797 -0.81389755 19
1.4599659 1.1480494 -0.88651407 18.5
1.2918493 1.4439542 -0.82335812 20
1.4908375 1.4476002 -0.89476466 21
-1.3058481 0.0039540883 -0.71055365 5
1.4386028 0.39368123 -0.71021944 4.8000002
-1.6002258 0.48259199 -0.61550057 15.5
-1.4818882 0.43207479 -0.70613122 15.25
1.5615402 0.52276886 -0.6731149 4.5
-1.6085711 0.7504552 -0.79164732 15
1.5406833 0.69681907 -0.68462378 7.6666665
1.390713 0.87408328 -0.64000249 16
1.4798771 0.90734339 -0.65534168 12.333333
1.2972178 1.0564966 -0.78993809 21.25
1.496374 1.1179481 -0.68841332 17
1.6180983 1.174418 -0.61598468 5
1.3238317 1.3526573 -0.72318065 19
-1.2430913 -0.10188399 -0.47966313 5.25
-1.3416159 0.11645167 -0.49110833 8.4666672
-1.4516997 0.32881087 -0.43223274 13
1.2463142 0.31034473 -0.421312 6.6666665
1.4601743 0.36156034 -0.50355017 3
-1.448225 0.50706559 -0.5671429 16.333334
-1.2853593 0.4050532 -0.54352462 14
1.237357 0.44874787 -0.47597718 7.5
-1.473447 0.62778747 -0.44709861 15
-1.3626444 0.67446828 -0.56879139 18.5
1.5351373 0.66946787 -0.57525223 7
-1.2742649 0.84851474 -0.45513058 21
1.3793985 0.89402974 -0.50957501 16.25
1.4282917 0.94221783 -0.57926095 14.5
-1.292794 1.0177666 -0.44125205 23
1.3608521 1.1001589 -0.42043626 17
1.3156757 1.2569673 -0.41987556 19
1.4944907 1.3917806 -0.42052901 21
1.2170186 1.485954 -0.42305797 23
-1.1251322 -0.23016462 -0.37964654 3
-1.3070546 -0.11461663 -0.3855108 5
-1.1241938 -0.16495794 -0.39668763 4
-1.4198405 0.086620733 -0.38274977 4.5
-1.3921703 0.047155544 -0.2801103 8
-1.3738985 0.33002558 -0.30359668 13
-1.3570046 0.46087438 -0.34464332 14.75
1.3504325 0.5410369 -0.22019079 15
-1.4217532 0.67599773 -0.25317973 18
-1.3584365 0.61295033 -0.38087249 17
1.4616243 0.75623494 -0.38687193 8
-1.2909614 0.92017025 -0.36577833 21.5
1.3851835 0.86710852 -0.20886731 10
1.5387678 0.99923247 -0.34503424 14
1.32986 1.0422102 -0.27200708 14.625
1.5370008 1.1273572 -0.24407512 16
1.225986 1.341671 -0.32176897 18.833334
1.5017042 1.2412837 -0.32298428 18.5
1.3530254 1.5770941 -0.20733809 23
1.4679523 1.4507607 -0.30419874 21
-1.3296636 -0.15464814 -0.078280687 4
-1.4257931 0.17137654 -0.18795282 9.5
-1.3302243 0.039046273 -0.070741042 6.5
-1.3270112 0.34717238 -0.10380653 12.5
1.4705341 0.24577931 -0.029731631 3
-1.4174417 0.56304485 -0.098834679 14.5
-1.3438195 0.43557167 -0.090577364 14.5
1.3741074 0.52631485 -0.14051023 13
1.6923846 0.46762878 -0.019642115 3.25
-1.4124593 0.62025994 -0.09023425 16
-1.3213159 0.68122035 -0.076841913 17.666666
1.3296314 0.64052886 -0.17360088 17
1.623463 0.65495604 -0.0023657084 7
-1.2348137 0.81672066 -0.10642457 19
1.5062915 0.92231232 -0.088814393 12.791667
1.2561527 1.1477091 -0.18492508 15
1.5195637 1.0496049 -0.010837197 13.666667
1.2674563 1.2536017 -0.081966564 19.5
1.4639647 1.2375581 -0.048638463 17
1.3162752 1.4950501 -0.055085223 21.583334
-1.2743722 -0.24561535 0.061123848 3
-1.31879 -0.0076005901 0.12545413 5
-1.0007553 -0.14649567 0.058227897 4
-1.2903745 0.10410543 0.12213534 7.5666666
-1.4092041 0.23553096 0.017258745 8
-1.3731349 0.28929758 0.027884495 9
-1.0723594 0.28703037 0.18576825 10
1.4433984 0.32737365 0.048796415 4.3333335
-1.4297673 0.50720429 0.15195982 13.833333
-1.247838 0.5434171 0.15792751 15
-1.1463583 0.48747125 0.0001513958 13.5
1.3565453 0.50153685 0.14592373 6.5
1.4789312 0.43874994 0.074079812 5.125
-1.4588126 0.71924829 0.070214681 18
-1.346679 0.71019602 0.11836758 17.299999
-1.1350715 0.61405832 0.028002977 15.5
1.3078767 0.67756373 0.16339678 11.666667
1.5702741 0.73936844 0.15576684 8
-1.5274816 0.96973586 0.15696692 20.5
-1.2695971 0.9434458 0.1073249 20.25
-1.1916478 0.91972494 0.18225229 18.5
1.3089764 0.86743385 0.09143436 12.5
1.4717319 0.88119304 0.1094882 15.25
-1.5277853 1.0505177 0.060663342 22.5
1.3004963 1.041302 0.11012584 12.25
1.4183352 1.0534067 0.13528085 15.666667
1.2607254 1.2845666 0.087076299 18.611111
1.2242533 1.4689544 0.028707504 20.5
-1.338635 -0.014424846 0.28885853 4
-0.99099481 -0.1100034 0.23515928 4
-1.2879353 0.11689737 0.32591107 7
-1.1149364 0.068824828 0.21891195 7
-1.2492211 0.30667412 0.22416693 11
1.5872015 0.3873843 0.31738925 2
-1.4465942 0.57028198 0.26476553 15
-1.2806509 0.51000279 0.30905691 14.166667
-1.1127564 0.49302942 0.23513949 13
1.3239634 0.5372389 0.29258478 8.6750002
1.5498888 0.51520562 0.36947763 5
-1.4539806 0.7205205 0.31274995 17
-1.3008589 0.79082364 0.36869299 18
-1.141371 0.65545356 0.26093912 15
1.308636 0.62304568 0.31061056 12.5
1.5220401 0.61201251 0.34875655 6.75
-1.5351204 0.846618 0.33904231 19
-1.2813593 0.80721599 0.26968837 18
1.4802016 0.87393731 0.32379276 13
-1.4440937 1.1659205 0.34670353 22.5
1.347751 1.1983353 0.30970633 17.5
1.4447041 1.0180439 0.28793189 16.5
1.1944425 1.5331053 0.24790704 22.5
1.2197027 1.4160913 0.36973679 20.5
-1.2641351 -0.065244161 0.43334258 5
-1.1038589 -0.14465518 0.48517704 3.5
-1.4228749 0.06853117 0.52092975 4.9444447
-1.2932668 0.089178264 0.52197981 6
-1.1479461 0.051546779 0.48021352 7
-1.4369154 0.22579095 0.45639923 8
-1.3238043 0.30262887 0.48144212 10.333333
-1.1933943 0.26165599 0.41406584 10
-1.4837818 0.49682915 0.54311895 12.666667
-1.2566404 0.50439912 0.50480896 13
0.82915056 0.42503136 0.56370533 6
1.5149934 0.50326449 0.47074831 4.9166665
-1.478021 0.66870362 0.50787532 15
-1.2756048 0.64906782 0.48352802 15.5
1.3492274 0.76290846 0.55559355 16
-1.5528504 0.97478575 0.41862142 20
1.3569332 0.90820909 0.56277043 11.75
1.4698064 0.89532632 0.47826755 10
-1.4984486 1.0296109 0.46796417 20.5
1.307992 1.1421806 0.46652523 19
1.1849821 1.34828 0.50647312 22.5
1.2321949 1.2776692 0.47965309 19.833332
1.1941272 2.1486151 0.56620824 21.5
1.1257167 2.2696104 0.53439152 23
-1.2003875 -0.11582121 0.60945177 3.5
-1.4668446 0.006609479 0.74842119 3.5
-1.3756825 0.054140642 0.69839084 5
-1.4196421 0.38632113 0.7577464 10.5
-1.3838248 0.2529456 0.76510388 8
0.67669648 0.23490706 0.61166918 3.6666667
1.3564795 0.29146445 0.76947999 1
-1.4472833 0.5994122 0.712928 14.5
1.0129507 0.4942537 0.74636114 7
1.4118583 0.59055448 0.66842377 7
-1.4544178 0.70766133 0.69911581 15.333333
-1.3346534 0.68649971 0.68070239 15
1.3865967 0.72681415 0.74422514 14
-1.4652406 0.84922814 0.63440317 18.5
-1.360188 0.90972424 0.67498571 17.75
1.3485379 0.81798261 0.64852047 10
-1.4259888 1.1187763 0.65346009 22
1.3437327 1.1293638 0.69739348 20.5
1.2041759 2.0068138 0.79134476 19.5
1.0776666 2.2966177 0.69259179 23
-1.3543369 -0.031567983 0.93130505 3.25
-1.4086322 0.17765178 0.85117799 7
-1.3121927 0.12838787 0.95282048 5.5
-1.4904249 0.29651806 0.901007 8.75
-1.3154435 0.27014196 0.87773359 8
0.51790649 0.21381807 0.92291999 3.6666667
0.82328159 0.26505646 0.91932416 4
-1.5090461 0.48685795 0.83688533 11.5
-1.3679049 0.49172437 0.86118066 11.5
1.2993516 0.52921063 0.81249386 13
-1.3257401 0.76550823 0.98851424 16
1.3800721 0.65752143 0.90380222 12.5
-2.0057735 0.84632456 0.90829372 15
-1.4988263 0.86779535 0.88032585 17.75
-1.3357472 0.84693599 0.948241 15.5
1.3739699 0.93397671 0.80874789 17.5
-1.4242389 1.0633514 0.93818092 20.25
1.2945499 1.1189144 0.94321561 19.5
-1.3898365 1.2182282 0.86918092 22.5
1.2831458 1.2917521 0.82119012 22.5
1.2874901 1.5480206 0.98276913 15
1.3343029 1.69814 0.92366695 17.5
1.2958764 1.9135808 0.91900718 20.5
0.87107462 2.3957038 0.81369269 20
1.0581506 2.2187228 0.80129516 21.5
-0.15664734 -0.14744125 1.14288 5.25
-1.3214104 0.032380939 1.0831199 4.5
-1.3223977 0.29911545 1.0632983 8.333333
-1.5067698 0.53885961 1.1986753 11.5
-1.2960212 0.49961871 1.0993658 10.25
-1.5071875 0.75374895 1.1323241 14.5
-1.3365839 0.68236107 1.0083913 14.5
-1.3411835 0.89165682 1.0961916 16.375
-1.4024943 1.1239388 1.104887 21
-1.365918 1.1491704 1.1564593 21
1.2341709 1.0686789 1.184589 18
1.3421446 1.5232294 1.1018534 14.75
1.420413 1.4643255 1.1939203 15
-1.5467855 1.6207179 1.0996138 21.5
1.3715963 1.6925986 1.0911447 17.5
1.3785924 1.8905387 1.1280097 18.5
1.243556 2.1903317 1.1208967 21.5
1.2560372 2.2403069 1.0323049 22
-1.7633483 -1.3761128 1.3652507 4
-1.3096002 0.0031942332 1.3843904 3.5
-1.3448069 0.32231474 1.3238745 8.5
-1.3435237 0.53380728 1.3177525 11.75
1.3829131 0.53800052 1.2169771 12
-1.4651022 0.65676218 1.311908 13
-1.345029 0.67710179 1.2589545 14
1.3168509 0.75123441 1.2717519 14
-1.4102468 0.88446337 1.2693456 17
-1.2825702 0.86318767 1.3366628 15
1.2357442 0.94851756 1.2229648 16
-1.4675059 1.0960162 1.3128675 16
-1.3632135 1.0435294 1.3127387 18.833334
1.2885112 1.0849876 1.2951436 20
-1.4590079 1.2594392 1.306044 17.5
1.2688773 1.2203696 1.2552024 22
1.4300917 1.3465751 1.2086841 14
-1.4810812 1.4258099 1.2426409 19.5
1.27776 1.5070051 1.3678533 15.5
1.4627289 1.5177802 1.2967688 14.5
-1.4521188 1.7903081 1.3338689 23
1.4318426 1.6560313 1.286364 16
1.1934606 1.8997425 1.343666 19.5
1.3368344 1.8389831 1.3500317 17
1.2856853 2.0955777 1.2864037 21.5
1.0944276 2.2171664 1.3942919 22
-1.9251034 -1.2830477 1.4126606 5.5
-1.6405733 -1.0080824 1.5193113 6
-1.688005 -0.98141474 1.561963 7
-1.3202714 0.29334247 1.5355204 7.3666668
-1.402294 0.45811242 1.5415418 9
-1.3345677 0.46360239 1.5393658 10
1.3006356 0.51570129 1.5737603 10
-1.346301 0.73662573 1.5120205 13.733334
1.3015308 0.6580627 1.5414474 12.666666
-1.334762 0.88472253 1.4617403 15.75
1.3394332 0.89125884 1.4948354 12.75
-1.3329647 1.07165 1.5721592 15
1.379305 1.0647805 1.5255879 11
1.5161673 1.1234083 1.5544695 10
-1.4491973 1.3642362 1.5999295 18
1.396193 1.3246771 1.4037458 13
1.4597888 1.275887 1.5573001 11.5
-1.4083416 1.4723818 1.5937754 19.5
1.3763834 1.4475927 1.5899297 14.75
1.1748171 1.7476839 1.4731783 17.5
1.3079927 1.7470592 1.5304296 17.125
1.3002226 1.8831601 1.519118 20.25
1.1172445 2.0854506 1.5076296 21
1.2553854 2.0159237 1.4891506 22
-3.1348577 -1.8974638 1.66224 6.5
-3.3375642 -1.5610406 1.6634995 9
-1.1280951 -0.88379097 1.7447134 4
-1.3565784 -0.78397214 1.7649187 6.5
-1.0026162 -0.69171542 1.7299217 5.5
-0.92032844 -0.78219205 1.7530791 4
-1.4320507 -0.4122231 1.734635 10
-1.4768296 -0.29463255 1.7554868 11
-1.3060765 0.099166267 1.6573372 4.25
-1.4911871 0.20698075 1.7992266 15
-1.3329341 0.30017072 1.6805182 7.25
1.2815884 0.52492815 1.6139817 11
-1.6268027 0.70510846 1.6765648 20
-1.3303868 0.89977884 1.6434908 14.25
1.3001866 0.88051593 1.7484728 8.5
1.4100122 0.99281943 1.7370468 11.5
-1.4344523 1.1947666 1.6363899 17
-1.3262407 1.1112447 1.639832 18.200001
1.2722218 1.0601578 1.7358884 10.5
1.4533706 1.1211939 1.6849707 9.75
-1.2851089 1.280834 1.6962177 20
1.2511156 1.2976012 1.6405705 12.5
1.4264667 1.2073517 1.6351863 14
1.2950325 1.5154085 1.649657 15.25
1.1691463 1.7833903 1.7207786 17.5
-2.4006016 1.8909496 1.7906929 20
-2.3813803 1.9600528 1.73429 21
1.1122254 2.0080981 1.6350501 19.5
-1.0360115 -0.082224295 1.8454382 10.5
-1.2688942 0.16757351 1.9213651 6
-1.2885872 0.30183017 1.9116031 7
1.4267291 0.26154158 1.947552 3.75
-1.3282232 0.4276922 1.915341 8.5
1.3865962 0.57938999 1.9696614 7
1.4082079 0.41208866 1.9939746 6
-1.3671849 0.73306203 1.8176163 11.5
1.4265585 0.79185718 1.826804 9.5
-1.3166553 0.91794598 1.8597784 14.5
1.3834321 0.90534341 1.9252445 10
-1.4087069 1.0921075 1.8679506 14
-1.2915444 1.0597205 1.8561981 16.5
1.3000296 1.1625012 1.9533854 12
-1.414422 1.225382 1.8723048 15.5
1.2843405 1.3238511 1.8815775 13.166667
-1.380559 1.4392173 1.879141 17.5
1.2182043 1.5884202 1.8046055 15
-2.4737794 1.8432143 1.8507451 19
-2.124769 1.9846243 1.9191865 20.5
-1.3374188 0.30200142 2.1920567 6
1.3762995 0.28101984 2.0795469 4.25
-1.3570886 0.46130565 2.1262393 7.5
-1.3620019 0.66578215 2.0946531 9.5
1.3605285 0.75260121 2.0848022 9
1.3128877 0.94563383 2.0443916 11
-1.3403788 1.1489106 2.0184369 14.5
1.2901288 1.033846 2.0152824 10
-2.4156873 1.7777488 2.0891576 18
-2.0374498 1.8382258 2.1648884 18
-1.9057355 1.9514017 2.0521426 19.5
-1.255793 2.1778512 2.0831542 21
-1.7352355 2.2342713 2.0001357 21
0.95865273 2.6256049 2.1110225 19.5
-1.2760401 0.49292251 2.395489 8
-1.2474668 0.68572295 2.3231187 9.5
-1.341133 0.95423317 2.3663526 13
-1.446618 1.1848197 2.3932288 15
-1.3419665 1.0491973 2.3700118 14
-1.4519601 1.2658767 2.3909256 16
-1.3119727 1.323288 2.2755167 16
-1.4633836 1.4487658 2.2906268 18
-1.4305873 1.6472901 2.2985711 19.333332
-1.8430202 1.896358 2.2044079 19
-1.2090175 2.0877638 2.2574914 19.5
1.1367201 2.0985608 2.3667951 15.5
0.23367272 2.4624717 2.3795052 20
1.0703769 2.4911389 2.2282872 18
-1.2382996 0.14375751 2.5412042 5
-1.2515144 0.36459774 2.5419738 6.5
-1.4253516 0.44422871 2.5675361 8
-1.3287984 0.58073288 2.4263687 9
-1.1979071 0.45508635 2.5943627 7.5
-1.4420249 0.76097852 2.5112169 10.5
-1.2507528 0.62054157 2.5386844 9
-1.4320524 1.0645533 2.5056627 13.5
-1.3461854 1.3677548 2.5929101 16
1.3337414 1.3290042 2.4721351 14.75
-1.3816842 1.5308411 2.4384434 18
1.2059374 1.7228957 2.5829291 12
1.1788052 1.8690412 2.4390097 13.5
-1.4339283 2.0408742 2.4437213 19.5
-0.47010887 2.3847101 2.5655489 21
-0.26510191 2.3412285 2.4688568 19.5
0.28828928 2.3664834 2.5225616 18
-1.3335143 0.2156675 2.7919581 5
-1.4047881 0.44134066 2.6678987 7
-1.3625748 0.67105711 2.6996703 9.5
-1.4088424 0.88540453 2.6216788 12
-1.3369497 0.90784186 2.7174854 11.5
-1.3164042 1.0663233 2.7339895 13.5
-1.3173248 1.2228923 2.6981485 15
1.345623 1.2473853 2.6395841 8.5
-1.3484762 1.5417925 2.6947818 18
1.2767926 1.510886 2.6333036 11
-1.3290657 1.7092417 2.672662 19.333334
-1.4675649 1.9259897 2.6142488 18
-1.2941744 1.8893106 2.652256 21.333334
-0.32342264 2.1632874 2.7798867 17
-0.46801025 2.3092074 2.6751142 20
-0.08730638 2.3321676 2.6637483 19.5
-1.2833515 0.11104014 2.8829873 4
0.57543486 0.13018036 2.8823867 2
-1.2621651 0.38369936 2.9351354 6.5
0.52569574 0.23605637 2.9824774 4
-1.2760302 0.59214985 2.8983612 8.5
1.4416639 0.69539136 2.8399835 4
-1.3296347 0.96215838 2.9769273 12
-1.3399043 1.1392463 2.9364598 13.5
-1.3331389 1.2982273 2.8599739 15.333333
-1.3003961 1.4570007 2.8454242 16.5
-1.2631993 1.6332896 2.8609293 18
-1.2627412 1.8266989 2.8042741 20
-0.58458257 2.2669561 2.8593354 20
-0.22695628 2.2304275 2.8066802 18
-1.3505038 0.10881098 3.0904372 3.5
-1.2804805 0.28404358 3.1979866 5
-1.3248358 0.49895778 3.0931334 7.3333335
-1.3209209 0.67344493 3.0649188 9
-1.2929807 1.1884552 3.0132408 14
1.3888569 1.6344045 3.0916295 13.5
-0.62036896 2.1724911 3.0982327 18.5
-0.6409207 2.2681365 3.1409779 19
-1.2633951 0.13933873 3.2422934 3.5
1.3996069 1.216503 3.2731519 10.5
-3.3067143 -0.67500949 3.5311937 3
-3.3702922 -0.40011489 3.5303125 4
-3.4143674 -0.22701359 3.5444102 5
-3.0521228 -0.38935846 3.5310082 4
-3.3190157 -0.027051292 3.5337224 6
-3.5125842 0.23512644 3.5629025 7
-1.2980454 0.23913454 3.571274 5.5
-3.456039 0.45538491 3.557739 8.5
-1.0761403 0.51414847 3.5268793 7
-3.1125975 0.78021449 3.5602412 10
-1.1957319 0.76721066 3.5968866 8.5
-3.1943517 1.072365 3.5741143 12
-2.9090629 1.1439428 3.5666909 12
-2.6831448 1.6820991 3.5218668 14.5
-0.06843771 2.4217062 3.5972004 20.5
0.13770758 2.4668155 3.5432174 21
-3.4019268 -0.6381973 3.671109 3
-3.0342987 -0.5980224 3.7375929 2
-2.0003588 -0.40306622 3.7932155 2
-3.5463905 -0.31759161 3.6735046 4.5
-2.1730955 -0.36127311 3.711071 2.5
-1.7174795 -0.25957879 3.627264 2.5
-1.571395 -0.2653783 3.7642224 3
-3.3703887 -0.01862523 3.6927612 6
-3.0617721 -0.049176231 3.769994 6
-2.0264196 -0.13059217 3.7953956 4
-1.8131268 -0.006538339 3.6191936 5
-1.7553551 -0.1669054 3.6126237 4
-1.5472726 -0.12559855 3.7317002 4
-3.6550868 0.0076063275 3.6939332 6
-2.0933602 0.11736738 3.6635861 6
-1.9066684 0.040101439 3.7937973 5
-1.6458104 0.049879827 3.6464548 5
-3.7214322 0.23864473 3.720716 7.5
-2.6073396 0.23807502 3.6779933 7
-1.6978965 0.27143216 3.649622 6
-1.3269416 0.28144175 3.7496579 5.5
-3.781574 0.59615958 3.6959236 9
-2.8275185 0.53604251 3.6371527 8
-1.7781105 0.51609021 3.694777 7.5
-1.3860904 0.41241813 3.6019764 7
-3.5352716 0.72140938 3.6099882 10
-1.6199267 0.68751281 3.7707133 8
-1.4318854 0.65276891 3.7754414 8
-3.863394 0.83453292 3.7734196 11
-3.5842178 0.91346687 3.6073847 11
-3.0848925 0.86743605 3.7805231 10
-1.871598 0.88777596 3.7393942 9.5
-1.1454495 0.82952315 3.615818 9
-3.6302989 1.163187 3.6609111 12
-1.2489563 1.0371634 3.6176224 10
-3.7088354 1.3455094 3.6923656 13
-3.5248282 1.2368656 3.778127 12
-3.265631 1.2857834 3.7638562 13
-3.1943555 1.3965174 3.6013393 13
-2.2417028 1.3650185 3.7091298 12.5
-1.5277023 1.240888 3.7250662 11
-3.5230856 1.4576881 3.7573583 14
-1.7026711 1.5586025 3.7482443 13
-1.9822533 1.7762161 3.7461681 15
-1.6289361 1.7845062 3.7534828 14
-2.4331498 1.8316832 3.7777412 15
-1.6334543 1.9428988 3.7142611 15.5
0.98262227 2.1735244 3.7929196 13
-0.061476383 2.2978606 3.7533746 19
0.20845033 2.2890544 3.7510366 19.5
0.75323045 2.3447943 3.791872 14
0.71566963 2.4300089 3.6980772 15.5
0.89329052 2.4658799 3.7318921 14.75
-2.5585198 -0.50569707 3.8433311 2
-2.4732103 -0.34766531 3.885711 3
-2.1905751 -0.25963777 3.88925 3
-1.878433 -0.25346136 3.8391597 3
-2.5817478 0.036054902 3.862036 6
-1.9038007 0.33086446 3.8635652 6.5
-2.6459432 0.57685006 3.8548048 9
-2.1167128 0.54321837 3.8851225 8
-1.6413999 0.40272516 3.8239305 7
-2.1646192 0.69979346 3.9136183 9
-1.8688145 0.75407046 3.8981936 9
-2.9566596 0.90001673 3.8215616 11
-1.7499595 0.82441121 3.8684714 9
-1.5650164 0.89177406 3.8857548 10
-2.7347131 1.2854168 3.8345029 13
-2.0755482 1.5722535 3.9283011 14
-1.8313851 1.5611768 3.9735706 13
-1.6180878 1.4016639 3.9507725 12.5
-1.657371 1.686729 3.9542768 14
-1.7516651 1.9006522 3.9865077 15
0.88726085 2.3358886 3.9362183 14
0.74861276 2.4373541 3.821805 15
-1.2253715 1.3247449 4.3115335 12
-1.2155404 1.4268829 4.3051205 13
-1.2264367 1.6683474 4.2374501 14
-1.1983763 1.7025336 4.2224984 15
-0.61156142 0.5784961 5.297441 6
-0.89926505 0.6806674 5.2585669 6.5
-0.60292131 0.76470798 5.2145567 7
-1.5416983 0.54083788 6.9566455 5
-1.5841709 0.84560382 6.8552976 7
-1.0430849 0.76455802 10.858565 4
-1.283119 1.2631898 10.939565 6
-1.233959 1.6635017 10.933894 7
-0.94295317 1.757296 10.968943 7
-1.3186916 1.489693 11.538782 6
-1.3287934 0.33343798 12.005894 3
-1.3447893 0.79328334 12.046197 4
-1.3135234 1.0137987 12.026638 5
-1.3916901 1.6605238 12.055572 7
-1.0834442 0.38682643 12.658536 3
-1.0254279 0.59068513 12.637556 4
-0.93466663 1.051897 12.658309 5
-1.0947134 1.4036622 12.624369 6
-1.1166674 1.6520858 12.637265 7
-0.73296589 1.7470642 12.709691 7
-0.33851913 0.044741757 14.751618 2
-0.34841147 0.24506232 14.69317 3
-0.35362926 1.0221342 14.764279 4
-0.60283196 1.4000409 14.738135 5
-0.93215334 0.92770165 15.085506 5
