# .PCD v0.7 - Point Cloud Data file format
VERSION 0.7
FIELDS x y z intensity
SIZE 4 4 4 4
TYPE F F F F
COUNT 1 1 1 1
WIDTH 1216
HEIGHT 1
VIEWPOINT 0 0 0 1 0 0 0
POINTS 1216
DATA ascii
-2.3426933 1.9030224 1.8651787 19.799999
-2.1016917 1.9955704 1.8696886 21
-1.9388993 1.9946332 1.8846273 20.059
-2.1116219 2.0517414 1.8029554 22.056999
-2.0274773 2.0186784 1.8822042 21.057501
-1.9323757 2.0389478 1.8833948 21.058001
-1.8509007 2.0584116 1.8801509 21.0585
1.253952 2.027895 1.8607068 21.587999
-1.3278561 2.185822 1.8431154 22.061501
-1.2354434 2.1836281 1.8552804 22.064251
-0.73852128 2.1906412 1.822244 23.067499
-1.0437512 2.2298486 1.8506868 22.564999
-0.85927826 2.2760167 1.8459501 22.0655
-0.77935421 2.2619324 1.8151189 23.065001
-0.63942736 2.257535 1.8598676 22.568001
-1.9931827 2.3692625 1.8140841 23.059
-1.8536475 2.3681686 1.8244947 23.05975
-0.56682277 2.3658669 1.8347937 23.07
-0.38645571 2.3203766 1.8888154 22.068501
-0.24780749 2.3691247 1.8262887 22.0695
-0.10749166 2.3378081 1.8915054 23.07225
1.0095878 2.3843095 1.8875557 23.085501
-0.42963225 2.4463174 1.8680168 23.070999
0.084810287 2.4899573 1.8065304 22.074499
0.12785098 2.4620047 1.8123015 23.071501
0.16831578 2.5108936 1.8411769 22.075001
0.23661679 2.5120542 1.8854254 23.07225
0.44829404 2.5553012 1.8558915 22.575249
0.51606941 2.5519884 1.8277481 22.074499
0.69554114 2.5014601 1.8754611 23.077
0.86055613 2.5537813 1.8447077 23.078251
-0.0134205 2.660701 1.895156 23.0905
0.55489975 2.6240361 1.8911761 23.074499
0.66437042 2.644546 1.860672 23.075251
0.86253935 2.6403937 1.8413485 21.577875
0.91763961 2.6459513 1.8031446 22.077
1.1593893 2.655005 1.8718355 20.078251
0.030515514 2.7003186 1.8257557 23.091
0.83705246 2.7019036 1.8393227 23.0765
1.097012 3.1807644 1.8970701 19.0965
1.1191785 3.1805236 1.8027889 19.097
3.3960755 3.4288394 1.8828062 8.1025
3.5567431 3.4585962 1.8358868 8.1029997
2.0795922 4.05128 1.8817745 17.101
3.1761584 4.0266366 1.8940266 11.103
-9.5400381 -4.8581104 1.9576238 8.0500002
-6.3066602 -2.2194688 1.9051796 12.0535
-5.7617016 -1.8443209 1.9032954 13.0545
-5.185246 -1.3951422 1.9610399 14.056
-4.7769313 -1.0210844 1.9064916 15.057
-4.2629704 -0.65307039 1.9971515 16.059
-1.3887696 -0.63395685 1.9173557 8.0690002
-4.0882635 -0.53789443 1.9594833 17.0595
-1.2740773 -0.58301157 1.9102374 8.0697498
-3.9351189 -0.46665066 1.953452 17.059999
-1.4295415 -0.44228494 1.9368571 9.0695
-1.3630826 -0.38714874 1.929196 10.07
-1.2409379 -0.28259176 1.9010693 10.071
-1.4570447 -0.18450285 1.9204775 12.07025
-1.3377953 -0.14493938 1.9025868 11.071
-1.2647671 -0.11831923 1.9082049 11.0715
-3.5123339 -0.090354159 1.9507524 19.062
-1.3656973 0.19532643 1.9616429 14.07225
-1.2746627 0.16688994 1.9220017 6
-1.2589753 0.23011349 1.9553403 14.073
-1.1016215 0.27355391 1.9315289 14.074
1.4181501 0.24511209 1.9755899 3.6428571
-1.308194 0.36656857 1.920314 8
-1.2885872 0.30183017 1.9116031 7
1.4366806 0.31689397 1.9047114 4.5
-1.3475971 0.4329336 1.9425435 11.099332
-1.2835979 0.46581143 1.9497987 16.07375
-1.1279587 0.43706536 1.9417299 15.0745
-1.0400798 0.4888947 1.9261841 15.07525
1.4082079 0.41208866 1.9939746 6
-1.3473123 0.59420431 1.9420028 10.0655
-1.220417 0.53746068 1.9887866 9.0625
-1.1874378 0.51560539 1.9321982 16.074499
-1.0888932 0.56437933 1.9044911 16.075251
1.3865962 0.57938999 1.9696614 7
-1.4898623 0.69859028 1.9400283 19.0735
-1.2953469 0.62395406 1.9178185 11.0585
-1.8066971 0.77885258 1.9105164 21.072001
-1.3120373 0.71191752 1.9230613 11.062
-1.291117 0.75228935 1.9056951 13.0585
-1.3288532 0.87417638 1.9110624 13.062
1.3687449 0.85951757 1.9568377 8.8330002
1.3767406 0.91380882 1.9454514 10.5435
1.3339338 1.0174642 1.9355876 9.3728333
-1.3822863 1.1111732 1.941502 14.5
1.2795832 1.1374167 1.9837959 11
1.3204761 1.1875857 1.9229749 13
-1.4044248 1.2340604 1.950985 17.0655
-1.3570585 1.3157054 1.9435335 16.222221
1.2178557 1.3890027 1.949374 13
-1.3019919 1.4499407 1.9967824 17.067499
-1.3318346 1.5575781 1.9382011 20.029125
-1.3598554 1.7128278 1.9131073 23.058001
1.2937644 1.7972944 1.9072473 19.087999
-1.4939605 1.8496159 1.9967284 23.0595
1.2566582 1.8498712 1.9723079 20.0875
-2.5163798 1.9519125 1.9537785 21.0555
-2.124769 1.9846243 1.9191865 20.5
-2.0753825 1.9933571 1.9644603 20.057501
-1.391745 1.9116664 1.9472301 23.066
-2.0736256 2.052283 1.9000447 22.057501
-1.9525585 2.0616305 1.9591181 21.05825
-1.7445253 2.0948348 1.9413619 21.05925
1.3043669 2.0077534 1.9737387 23.084499
-1.6522716 2.1167703 1.9749343 21.559999
-1.5210532 2.124958 1.9523062 21.060499
-1.4473075 2.1453595 1.9504486 22.061001
-1.2475125 2.20893 1.9676794 22.06225
-1.1622492 2.2251906 1.938013 22.066
-1.0302625 2.2084727 1.9798499 23.0655
-0.94760305 2.233325 1.9106948 22.5655
-0.85234493 2.216352 1.9463197 23.06675
-0.76425195 2.2308283 1.9615633 23.066
-0.68872869 2.2348588 1.9445748 23.0665
-0.33211946 2.2975471 1.952222 23.070499
-0.45292336 2.3427224 1.9437745 22.067749
-0.22035319 2.3425326 1.9482007 22.070499
0.17449835 2.392278 1.940058 23.073
-0.10253994 2.4297664 1.9263828 22.070499
0.044478308 2.464232 1.9439217 22.073999
0.97983998 2.4192972 1.9713613 23.084999
1.1256921 2.4272339 1.953709 23.086
1.2503045 2.4554095 1.9690614 23.08675
0.26462847 2.5434752 1.9026159 22.0755
0.35037115 2.5705788 1.9507171 21.576
0.44300359 2.5576406 1.9351919 21.073999
0.5091635 2.5351143 1.9764633 22.574749
0.77218974 2.5544498 1.9027119 23.077499
0.78204978 2.6325886 1.9683715 21.078501
1.0423554 2.6554177 1.9331863 21.077499
1.1134385 2.7166355 1.9323183 22.077999
1.4316744 3.2741098 1.975552 22.0825
-5.1571422 -1.3812054 2.0968528 14.0565
-3.883085 -0.40731746 2.023057 17.060499
-3.7875726 -0.3399182 2.0530396 17.061001
-3.7072399 -0.28138459 2.0965633 17.061501
-3.4517474 -0.035890415 2.0012741 19.0625
-3.3509614 0.051434621 2.0615649 19.06325
1.3737895 0.2280311 2.0820918 3.75
-1.320488 0.39566413 2.0428841 8.059
1.3820608 0.35848483 2.078598 5
-1.3351383 0.55655169 2.027236 9.5587502
-1.3544464 0.63908184 2.0867801 9.783
1.3563991 0.64905101 2.0643067 7.8000002
0.5540151 0.7069785 2.0198486 7
1.3605285 0.75260121 2.0848022 9
-1.3581088 0.87232447 2.0448961 12.5665
-1.32344 0.9069162 2.064043 14.059
1.3128877 0.94563383 2.0443916 11
1.2901288 1.033846 2.0152824 10
-1.3403788 1.1489106 2.0184369 14.5
-2.809159 1.644256 2.0157683 18.055
-2.7266045 1.6603886 2.0667288 17.5555
-2.6095014 1.6842918 2.0441847 18.056
-1.4188333 1.6804252 2.0473967 20.066
1.3205642 1.6649611 2.091383 19.584
-2.5221436 1.7620633 2.0631475 18.0555
-2.4182696 1.7579024 2.0939579 18.0285
-2.3016686 1.758828 2.0953686 18.057501
1.2457049 1.7763668 2.0502715 16.08
1.3516016 1.7260225 2.0170133 20.084499
-2.3039956 1.8437914 2.0726571 18.5
-2.4562244 1.917606 2.0426641 20.056
-2.3768218 1.9533439 2.0753622 20.056499
-2.1937475 1.9990727 2.0956037 21.057501
-1.9431839 1.9548382 2.0512183 19.539167
-1.4566479 1.9459926 2.04934 23.059999
1.3193402 1.9589257 2.0498819 22.084249
-2.0938704 2.0148144 2.0953286 21.058001
-1.6387419 2.0370452 2.0974867 20
1.2838607 2.0546501 2.0627389 23.084
-1.6386561 2.184155 2.0334187 21
-1.4362848 2.1224856 2.0643268 20.81175
-1.3738365 2.1474698 2.0622284 21.06225
-1.2511818 2.1686039 2.0595937 21.607428
-1.1328058 2.1969495 2.0377653 21.063999
-1.7575788 2.2484527 2.0143788 21.030251
-1.0279816 2.2311418 2.0086646 21.56575
-0.95947719 2.2488782 2.0062945 21.732168
-0.86530185 2.2961562 2.0569277 22.068001
-0.6389938 2.2850225 2.0575235 21.066999
1.5706774 2.2985165 2.0578034 16.0795
-0.55481476 2.3062155 2.0102785 21.067499
-0.39883709 2.3198113 2.0526981 21.068501
-0.26696962 2.3300447 2.0105143 23.070999
0.79653436 2.3809273 2.0807881 23.0835
-0.32074556 2.4674253 2.0254593 23.068501
0.012096971 2.421505 2.0270739 23.073
0.23515837 2.482316 2.0836749 21.740667
0.33489823 2.4541311 2.0185833 23.074499
0.89064246 2.4054818 2.039999 23.084249
-0.15269178 2.548136 2.0903282 22.57925
-0.064144358 2.5268369 2.0251393 23.07025
0.046610475 2.5474088 2.0073881 23.070999
0.29465657 2.5420368 2.0383997 21.0755
0.35247952 2.5064905 2.0463347 22.074249
0.66702521 2.5761173 2.0799918 23.0765
0.96855116 2.581254 2.0419996 20.07675
1.0268989 2.5813026 2.0312152 22.0795
0.44262245 2.608597 2.017951 21.0765
0.65111321 2.6129715 2.0903645 20.577499
0.73518556 2.6280761 2.0827837 20.077999
0.82894093 2.6122789 2.0949941 20
1.0155002 2.6172688 2.0691462 20.0795
1.1376727 2.7033784 2.098269 21.077749
2.0667186 4.040709 2.0097289 16.1005
-2.8191411 -1.4540644 2.1410689 8.0620003
-2.7308042 -1.41927 2.1904793 8.0625
-2.6045854 -1.3648421 2.1890793 8.0629997
-4.6967683 -0.98605084 2.1392264 15.058
-4.2320943 -0.65447325 2.1247759 16.0595
-4.1604757 -0.58924878 2.1885839 16.059999
-3.6251252 -0.22273888 2.135921 18.062
-3.5561244 -0.18931223 2.1928439 17.5625
-3.2505729 0.13902102 2.1072702 19.063999
-1.5719565 0.14050947 2.1860147 14.0715
-3.1417968 0.23373632 2.1543827 19.564751
1.3416884 0.23348948 2.1672087 4
-3.0491064 0.3262341 2.1948495 20.0655
-1.5998659 0.35763985 2.1279831 16.072001
-1.3414364 0.30151549 2.1878753 6
-1.3570886 0.46130565 2.1262393 7.5
-1.3412511 0.55827272 2.1503806 9.2797499
-1.3353471 0.73120874 2.1907482 11.0665
0.54504848 0.83720082 2.1821253 8.0719995
-1.3116131 0.9321968 2.1142321 12.0675
1.2989221 0.95764291 2.1600275 11.086
-1.4002188 1.2475992 2.159255 16.06625
1.389679 1.2697458 2.1268115 14.0875
0.43362737 1.3082325 2.156173 12.072
-1.4871318 1.5290046 2.1346624 19.059999
-2.5433612 1.6926541 2.1307282 18.056499
-1.3425169 1.663475 2.1901557 21.0595
1.2673022 1.6477965 2.1259766 12.0795
-2.6661828 1.7974772 2.1885855 19.0555
-2.4519513 1.7813586 2.1023407 18.056
-2.2277634 1.7828058 2.1244738 18.058001
-1.4783989 1.7242748 2.1062195 21.059999
1.2935847 1.7314924 2.1678271 20.0835
-2.1411817 1.8159279 2.1542988 18.0585
-2.0374498 1.8382258 2.1648884 18
-2.1589794 1.9009123 2.132741 19.057501
-1.9090517 1.9295243 2.1074786 19
-1.4416729 1.9418232 2.1435056 23.060499
-1.3964766 1.9699905 2.1845927 23.061001
-1.9472132 2.0790811 2.1367335 21.059
-1.8663766 2.0271225 2.1261082 20.059
-1.7682607 2.0484805 2.1203113 20.0595
-1.6834919 2.0679338 2.1092205 20.059999
-1.5986881 2.0725427 2.1824045 20.063499
1.2635064 2.0571194 2.1413028 22.5835
-1.8466527 2.1150379 2.1136732 22.0595
-1.4973706 2.1248178 2.1035242 21.061001
-1.3537858 2.1551518 2.1885543 21.065001
-1.2591317 2.1839166 2.1422253 21.564877
-0.97906262 2.1885684 2.1730273 20.065001
-0.71969074 2.10625 2.1549792 23.084
-0.66766912 2.1429 2.1040888 23.084499
-1.1297359 2.2378767 2.1290743 21.397667
-0.93895978 2.2824512 2.1529109 21.566999
-0.88064253 2.2483211 2.1578751 20.56675
-0.76951855 2.2822354 2.159373 21.734583
-0.54806894 2.2986062 2.1024222 23.069
-1.3394883 2.3532596 2.1451774 23.068001
-0.85142928 2.3268938 2.1926351 23.071501
-0.78867167 2.3060913 2.1221023 21.068501
-0.53869283 2.3517172 2.1100044 22.066999
-0.48305029 2.3488257 2.1880193 23.0695
0.73168182 2.3701303 2.1258931 23.083
-0.33768183 2.4591248 2.1594305 21.071501
-0.21049735 2.4778099 2.1891456 22.087999
0.091232762 2.4344337 2.1948848 20.071501
0.14547284 2.4717963 2.1559105 21.406668
0.44567633 2.5462663 2.1295154 22.075003
0.59675455 2.5633965 2.1588297 20.077
0.62067562 2.5376492 2.1779876 22.07675
0.82759887 2.5313299 2.1543655 19.57575
1.008587 2.5572815 2.1714516 18.799999
0.65556133 2.6190429 2.1448576 21.574749
0.76180577 2.6429973 2.1262469 21.0755
0.86629355 2.6605582 2.1800628 21.076
0.95865273 2.6256049 2.1110225 19.5
2.0483453 4.0218234 2.1337023 16.1
-5.7385054 -1.8458855 2.2243867 13.0555
-5.1382899 -1.3685206 2.2408724 14.057
-4.9497304 -1.2654767 2.2344489 14.0575
-3.470072 -0.112152 2.2088084 18.063
-3.379977 -0.05700554 2.2346783 18.063499
-3.295644 -0.0021419078 2.263308 18.063999
-2.9773819 0.38681996 2.2151055 20.066
-2.9233379 0.44985431 2.25315 20.0665
-2.8558168 0.51371258 2.2710514 20.066999
-2.7927756 0.57024306 2.2749701 21.067499
-1.3124639 0.55746812 2.2545068 9.0600004
-1.2860284 0.58835405 2.2621455 8.8571424
-2.7182815 0.63290322 2.2902689 21.068001
-2.6477051 0.69452852 2.2963085 21.068501
-1.8335885 0.62294227 2.2386575 18.072001
-1.9372308 0.74912941 2.2732854 19.072001
-1.2849667 0.97370589 2.218143 12.068
-1.3556886 1.1451418 2.2510762 14.81675
-1.3217745 1.2665317 2.2861462 15.5
1.3538071 1.2233942 2.2123077 14.08525
-1.3278006 1.320365 2.2756174 16.033501
-1.4633836 1.4487658 2.2906268 18
-1.5541379 1.5535995 2.2656121 23.077
-1.4614655 1.5487474 2.2132297 19.060499
-1.4578972 1.6114986 2.2622993 19
0.38124388 1.6085095 2.2843192 14.072
1.3326638 1.678049 2.2346447 19.0835
-2.6283686 1.7824013 2.299298 18.056
-1.3430206 1.7909228 2.2027547 22.0595
1.2289379 1.7550219 2.2036448 15.0795
-2.1015561 1.8956385 2.2229624 19.058001
-1.957696 1.8336782 2.2244911 18.0595
-1.8378701 1.8773252 2.2167397 18.519999
-2.3347049 1.9225259 2.2569621 20.057251
-1.9605963 1.9225981 2.2431746 19.05875
-1.8252141 1.9691484 2.2672439 19.0595
-1.7313499 1.998626 2.2724776 19.059999
-1.6257794 1.9609714 2.2119448 19
-1.6540062 2.0259461 2.2797775 20.060499
-1.5383718 2.0325873 2.2626114 19.561501
-1.4453533 2.0669615 2.2635465 19.562
-1.2511454 2.0834291 2.2470634 19.666666
-1.1586255 2.0840082 2.2974954 19.063999
1.2621754 2.0110502 2.2785521 18.581249
-1.7458582 2.1227775 2.2959402 21.060499
-1.612258 2.1143351 2.2012768 21.063499
-1.5655354 2.1553652 2.2477503 21.395918
-1.4619564 2.1599264 2.2228756 21.563751
-1.3573257 2.1551092 2.2668645 20.729
-1.2053194 2.1367514 2.2356005 20.0315
-1.1539654 2.1250553 2.2016962 20.063999
-1.0698345 2.1400445 2.2454188 19.564501
-1.3930091 2.2014163 2.2079697 22.063499
-1.0477096 2.257596 2.2487636 21.063999
-0.80943984 2.2071407 2.235189 20.066
-0.73689681 2.2361767 2.2238703 20.0665
-0.6597113 2.279129 2.2264471 20.066999
-0.57127279 2.2873635 2.2069747 20.067499
-0.71482384 2.3018358 2.2684593 21.069
-0.53568774 2.3268433 2.240623 22.07
-0.062505201 2.3839834 2.2794616 20.070499
0.62941015 2.3999333 2.2490549 23.082001
1.0411515 2.3936791 2.2804692 18.0765
1.1807388 2.3395557 2.2925162 19.0795
-0.41462582 2.4452453 2.2638249 23.069
-0.25074106 2.4522686 2.2407005 21.57975
-0.14977215 2.4525003 2.2337899 21.0725
0.02747936 2.4225163 2.2311754 21.072166
0.20072742 2.4350278 2.2079554 22.073999
0.63939023 2.4529374 2.2529333 19.074499
0.71543002 2.4799447 2.2052319 19.075001
1.0703769 2.4911389 2.2282872 18
1.2532029 2.4890299 2.2393508 22.086
0.14607808 2.5327363 2.2481093 22.071501
0.4635388 2.5315037 2.2438004 21.5755
0.53200543 2.5555191 2.2429309 20.0765
0.62281477 2.5906489 2.2037489 23.076
0.74982679 2.5301695 2.2539737 20.077499
0.83626592 2.5582707 2.249011 20.077999
0.95243663 2.5705624 2.2679887 21.078501
1.0360638 2.5400381 2.2642205 19.579
1.1458271 2.5729351 2.277617 20.0795
1.2972763 2.5282998 2.2785473 19.077999
0.75837088 2.6295438 2.2660704 21.576
0.97768497 2.642226 2.237576 20.5765
1.0404146 2.6580215 2.227509 21.327751
1.1636815 2.6783416 2.2629261 20.077499
1.0641817 3.2345405 2.2088971 18.095501
2.0210979 3.9877305 2.2471132 16.099501
2.688205 4.3258405 2.2171173 14.1015
-7.0487747 -2.8648582 2.3529367 11.0535
-6.4322023 -2.3450513 2.3382049 12.0545
-4.7343121 -1.1065958 2.355237 14.0585
-4.7126999 -1.0168223 2.3152914 15.0585
-3.5551703 -0.19210996 2.3407412 17.063
-3.2289584 0.056202635 2.305501 18.064501
-3.125608 0.1381451 2.3536031 18.31525
-2.7249424 0.36257398 2.3825736 19.067499
-1.3044032 0.46844429 2.3978744 8
-1.2476768 0.51740074 2.3931036 8
-2.4135277 0.60634893 2.381897 20.0695
-1.2418067 0.67702872 2.3594313 9.2842503
-1.3248963 0.94383186 2.3652329 12.783625
1.3683084 0.90554434 2.3473439 10.0865
-1.4548057 1.0114594 2.3884578 13.561
-1.3334374 1.0418179 2.3598804 14
-1.446618 1.1848197 2.3932288 15
-1.2821809 1.1435882 2.3504601 14.0675
-1.4519601 1.2658767 2.3909256 16
-1.3262789 1.2923344 2.3968587 17.060499
-1.2951509 1.236281 2.3361685 15.0675
1.345058 1.2338514 2.3688078 13.58475
1.3577385 1.304691 2.3755083 9.0790005
1.3521143 1.4586867 2.3586359 16.833126
1.3030008 1.5763519 2.3948069 11.079
-2.8034482 1.6861695 2.3854485 18.0555
-1.4088345 1.6635505 2.3384066 19.583332
1.2631232 1.6857121 2.3591185 12.079
1.270952 1.7972192 2.3369975 20.08275
-2.2444196 1.8990533 2.3791323 19.058001
-2.0428391 1.8832932 2.3235602 18.0585
-1.3164656 1.8016554 2.3818724 22.060499
1.3874248 1.8769659 2.3791645 22.084
-1.409466 1.9890301 2.3013999 23.0595
-1.3559352 1.9639771 2.3865509 23.060249
1.2011331 1.9016927 2.3489804 14.079
-1.8835802 2.0576274 2.3881779 20.059999
-1.3724127 2.0494022 2.3413365 21.313375
-1.2125908 2.0703516 2.3044577 19
1.1618253 2.069253 2.3622427 15.2895
-1.6874406 2.1170998 2.3766501 21.061001
0.97707427 2.1457081 2.3933125 16.077999
1.0553031 2.1522052 2.371829 16.078501
1.1137794 2.110091 2.3893867 15.5
-1.4388696 2.2514801 2.360029 22.06525
-1.2350117 2.2466614 2.3649449 23.068501
-1.152651 2.2336521 2.341073 23.069
-1.0534534 2.2476363 2.3463459 22.567749
-0.97582257 2.2566211 2.3189988 21.064501
-0.89007556 2.2810032 2.3663597 21.566
-0.69933343 2.2812343 2.3804824 22.066999
-0.57484299 2.2390318 2.3548017 22.084999
-0.48003098 2.2609048 2.3817577 19.568001
-0.35367268 2.2907763 2.3401375 20.06875
-1.3158476 2.3189976 2.3139133 22.568501
-1.1680868 2.3302834 2.3434577 23.0695
-1.046931 2.3138912 2.3129854 23.07025
-0.76022345 2.3238277 2.3461387 22.235916
-0.63888907 2.3341744 2.309166 20.5695
-0.56675613 2.3377643 2.3337533 21.821751
-0.47174525 2.3621044 2.3784389 20.569
-0.3315267 2.3679945 2.3515456 22.581001
-0.23351683 2.3532643 2.3861465 20.0695
-0.13935719 2.3633537 2.3278124 20.07
0.40534711 2.3765805 2.3754878 19.073
-0.35008752 2.4828753 2.3523135 23.0695
-0.25892383 2.4290972 2.3791409 22.070999
-0.17210899 2.4011528 2.388051 22.071501
-0.031562302 2.4358139 2.377718 20.036499
0.063801676 2.4156399 2.3284097 22.073
0.23600841 2.4583445 2.3607051 20.52475
0.38531739 2.4801059 2.3256788 19.0755
0.48786843 2.4125779 2.3526368 19.0735
0.56618237 2.4295137 2.3430066 20.577749
0.75863421 2.4092689 2.3600764 23.08325
0.81465101 2.4428978 2.3434362 22.083
0.99600732 2.4565897 2.3550725 22.584499
1.0672158 2.4159453 2.3027215 17.079
1.1945595 2.4795113 2.3969851 22.586
1.2478526 2.4165611 2.3811245 18.077499
1.3278484 2.4821272 2.3986464 21.086
0.23518845 2.5370715 2.3049603 21.072001
0.35438925 2.5367939 2.3589296 21.57375
0.46271783 2.5039656 2.3426976 21.0755
0.57481349 2.5316665 2.3897338 21.57575
0.66848308 2.5003724 2.3474684 19.077
0.76217955 2.5029542 2.3162646 17.091999
0.83955872 2.5887744 2.3540716 20.0755
0.97768593 2.5442557 2.3894773 18.078501
1.0615559 2.5268567 2.3249021 21.581501
1.2265866 2.5108001 2.3555374 22.085501
0.63678682 2.6102684 2.3246462 22.076
0.72826093 2.6323831 2.3735924 22.0765
0.88799202 2.6583111 2.3354058 22.077499
0.93976653 2.6475339 2.3590353 21.077374
1.1999182 2.6239877 2.3577871 19.077499
0.49547568 2.7179301 2.3556914 19.091499
1.0345416 3.2276607 2.3056474 18.094999
1.9798563 3.9277663 2.3389869 16.099001
-4.6775074 -1.0267477 2.4322309 15.059
-4.5420833 -0.95580721 2.4683661 15.0595
-3.9170754 -0.35731781 2.4726648 17.062
-3.0343735 0.22583573 2.4134102 18.566
-2.9202867 0.30596513 2.4546471 19.06675
-1.2945286 0.47161764 2.4004118 8
-2.4471197 0.55241764 2.4877591 19.0695
-1.3300335 0.57894218 2.4161692 9.0335007
1.3825558 0.52487987 2.4804659 6
-1.3487839 0.63406801 2.4449215 10.0605
-1.4399104 0.7953456 2.4986792 11
-1.4361151 1.0190071 2.4603064 13
-1.4531944 1.1038661 2.4204962 14
-1.3958626 1.1381326 2.4071517 15.06
-1.4386398 1.2913598 2.4144692 16
1.334075 1.2652752 2.4811013 14
1.333408 1.3927331 2.4631689 15.5
-1.4231079 1.4135283 2.4311671 18.059999
1.3115783 1.4384193 2.4549088 16
-1.3846152 1.5276105 2.4334655 18.030876
-2.9314094 1.6912704 2.4031994 17.055
-1.4188594 1.640947 2.4441025 19.559999
-1.3602211 1.6853236 2.4347601 19.062
-2.6357033 1.7379556 2.4816744 18.056499
1.1881486 1.797452 2.4652753 13
-2.3833716 1.8248409 2.4319153 19.057501
-2.1973207 1.8933574 2.4704025 19.0585
-1.7657306 1.8783284 2.4665046 18.061001
-1.0609505 1.8852545 2.4931884 22.080999
1.1783323 1.8493757 2.4553063 13.289249
-1.5652968 1.9046121 2.4943242 18.062
-1.4680133 1.9245551 2.4760556 18.0625
-1.3661522 1.9578085 2.4747853 18.063
-1.2811189 1.986264 2.4820189 18.063499
1.3546915 1.9330419 2.4473922 22.0835
-1.8278759 2.0502944 2.4794567 20.060499
-1.4339283 2.0408742 2.4437213 19.5
-1.354197 2.0828264 2.4417965 19.521833
-1.1893233 2.0181437 2.4845924 18.063999
-1.0553069 2.0629611 2.4877706 18.064751
-0.95752716 2.0800352 2.4673202 19.06525
0.79716325 2.091502 2.4221549 16.077
0.94298673 2.0724602 2.413352 15.577749
-1.6340576 2.1120024 2.4429023 21.061501
-1.439873 2.1438735 2.4275939 21.0625
-1.1689655 2.1533618 2.4529657 20.063499
-0.9609952 2.1548445 2.4977145 19.067499
-0.83211845 2.1543899 2.4708948 19.067125
-0.73420554 2.1415904 2.4489546 19.0665
-0.60925335 2.1886322 2.4379101 19.067249
1.0319527 2.1680069 2.4897866 13.0915
-1.5428486 2.2068794 2.4682846 21.063
-1.3643006 2.2405694 2.4868116 22.06325
-1.278105 2.2099171 2.4586101 22.06325
-1.0389982 2.2566266 2.4476905 21.066
-0.93174517 2.2673628 2.4096212 20.56575
-0.81838584 2.249572 2.4324923 20.0655
-0.74457192 2.2601604 2.4239779 21.067749
-0.6447655 2.2317226 2.4040132 22.084499
-0.40761882 2.2994816 2.4566321 19.068501
-0.12091012 2.2697291 2.4569454 19.07
-0.97952205 2.3332577 2.4964957 22.070999
-0.88924152 2.3214879 2.4355626 22.071501
-0.64142919 2.344754 2.4173031 22.068501
-0.56535673 2.3735452 2.4600821 21.568501
-0.43510729 2.3581383 2.4417708 21.880001
-0.3628726 2.3661952 2.4195721 21.078751
-0.26510191 2.3412285 2.4688568 19.5
0.26232967 2.3650153 2.4452207 20.217249
0.35886905 2.3815932 2.4792638 18.075001
-0.27269816 2.4689276 2.4991677 22.07
-0.14119142 2.4596491 2.424289 21.404665
-0.055150874 2.4530606 2.4853122 21.571751
0.056121185 2.4387672 2.4815295 22.4095
0.15124738 2.4654365 2.4553061 22.076
0.22441477 2.4950709 2.4813495 23.079
0.32198817 2.4571178 2.4020228 19.075001
0.46385112 2.457782 2.4449742 22.580624
0.53787637 2.4443574 2.4260147 20.578625
0.69056875 2.4077802 2.4961061 23.0825
0.72559392 2.4897289 2.4295998 17.091499
0.95340037 2.4763625 2.4497597 21.748667
1.0332086 2.4513955 2.4405506 18.078501
1.2748263 2.4707482 2.4511471 21.085501
0.33278531 2.5041659 2.4668021 23.07975
0.49012345 2.5302169 2.4878957 21.074749
0.68435037 2.5271139 2.4593639 20.3255
0.75779974 2.5338507 2.4084449 20.326
0.83468151 2.5193501 2.4842949 19.57625
1.1447436 2.5193462 2.469094 23.085501
1.2967474 2.5136087 2.4562783 22.0865
0.14260486 2.6484914 2.4820056 20.0895
0.23302248 2.6904533 2.4825134 20.09
0.84643137 2.6136756 2.4538758 21.077
0.42425653 2.7392545 2.4336233 19.091
2.9711931 3.1303551 2.4049268 9.0994997
1.944838 3.8830833 2.4447818 16.098499
2.4749415 4.114212 2.4552078 14.1
2.5851068 4.2444 2.414772 14.1005
3.432869 4.3172565 2.4392619 11.102
-7.0625439 -2.9277081 2.5769272 10.054
-6.4684224 -2.405129 2.5613737 11.055
-5.1279721 -1.3249272 2.5247364 14.058
-2.3188257 -1.0206939 2.5942826 8.066
-4.4604697 -0.88236099 2.5372801 15.06
-2.7041299 -0.5907076 2.5116706 12.0655
-2.8577549 -0.38056296 2.5383477 14.0655
-2.7224514 -0.32693422 2.5041842 14.066
-1.2382996 0.14375751 2.5412042 5
-2.9980845 0.25150704 2.5244994 18.0665
-1.2574466 0.23050183 2.5459943 5.5
-2.9197025 0.30527276 2.5513744 18.066999
-1.2515144 0.36459774 2.5419738 6.5
-2.6627231 0.46131998 2.5745192 19.068501
-1.4253516 0.44422871 2.5675361 8
-1.2489479 0.48759997 2.5308328 7.75
-1.1979071 0.45508635 2.5943627 7.5
-2.5429335 0.51387525 2.5216804 19.069
-1.3296847 0.56992382 2.5310359 9.0609999
-2.3148091 0.6325857 2.5589008 19.070499
-2.2093618 0.68185759 2.507072 19.070999
-1.2507528 0.62054157 2.5386844 9
-1.4441394 0.72661144 2.5237546 10
-1.3874482 0.94036508 2.5075336 13.0605
-1.4109105 1.0252404 2.5908291 13
-1.395196 1.2628322 2.5356095 15.25
-1.3461854 1.3677548 2.5929101 16
1.3264885 1.3277019 2.5593905 9.0784998
-1.4234419 1.4830464 2.5723102 18.060499
1.2861426 1.4515512 2.5613756 12.75
-3.2189014 1.5895506 2.5800228 16.055
-1.4039315 1.5996845 2.5405848 19.060499
-1.3365896 1.581266 2.5333896 18.0625
1.3948052 1.5617532 2.5295146 19.0835
-1.4005731 1.6907601 2.5394652 20.060499
-2.6820734 1.7092872 2.5604076 17.056999
-2.5376461 1.7584786 2.5095935 18.056999
-2.4564893 1.7923721 2.5559804 18.057501
-1.3307873 1.7479404 2.5271356 20.0625
1.2190466 1.717427 2.5678582 12.039249
-2.3507059 1.8115876 2.5676417 18.058001
-2.2439504 1.8292652 2.5741358 18.0585
-2.1347609 1.8464947 2.5600796 18.05925
-1.9505949 1.8825995 2.5424614 18.0595
-1.885541 1.8450485 2.5277472 17.060499
1.1279476 1.8781132 2.5085931 13.666667
-2.0267169 1.9270096 2.5365772 19.0595
-1.6929722 1.910465 2.5541425 18.061501
-1.557773 1.9356291 2.5007315 18.063999
-1.4715127 1.96955 2.5161214 18.064501
-1.3232596 1.9976195 2.5269895 22.061001
1.1029463 1.9161633 2.5777764 14.078
1.4271171 1.9927689 2.5819159 14.0775
-1.7627823 2.0211651 2.5631649 19.561001
-1.6736212 2.0331535 2.5778098 20.061501
-1.3138132 2.0498447 2.5066574 23.061001
-1.221337 2.0868802 2.5126104 19.066
1.0840658 2.0950642 2.5139875 15
-1.5703702 2.1030188 2.5236194 20.062
-1.4404904 2.161387 2.556613 20.56325
-1.3981056 2.1990318 2.5848012 20.063999
-1.0662198 2.131423 2.5207675 19.065498
-0.78116572 2.1452188 2.5877652 19.068501
-0.69782364 2.1665394 2.5635858 19.069
-0.19332759 2.1805046 2.5498414 18.0695
-1.3220122 2.2311089 2.5573184 21.566376
-1.2195603 2.2385719 2.5374143 21.399332
-1.1446477 2.2471817 2.557682 21.399834
-1.0482832 2.2540362 2.5586951 22.067625
-0.93563145 2.2769003 2.5557654 21.734167
-0.76366365 2.2731667 2.5505486 20.566376
-0.63836628 2.2443163 2.5682678 20.736334
-0.52397209 2.2504756 2.5591674 19.07
-0.46865883 2.2514706 2.5466051 21.085251
-0.20816843 2.2763257 2.5393968 19.0695
0.070539549 2.2699983 2.5683126 18.070999
0.85223776 2.2443011 2.5218525 14.091
-1.2464218 2.3298836 2.5934682 21.0695
-1.1460111 2.3401055 2.5698519 22.07
-1.0573168 2.3430228 2.5379953 22.070499
-0.65463674 2.3123064 2.5389559 21.067499
-0.5926441 2.385663 2.5982399 21.068001
-0.44765854 2.3598294 2.549526 21.802612
-0.34800196 2.3468828 2.5336108 20.074125
-0.23378792 2.3575025 2.5268071 20.57
-0.15206763 2.370739 2.5414526 20.535751
-0.015141804 2.351913 2.5207663 18.799999
0.083063379 2.3699117 2.5258102 19.0735
0.28828928 2.3664834 2.5225616 18
0.61992633 2.3993654 2.5122066 23.082001
1.1683886 2.375283 2.5815985 23.081499
-0.50543112 2.4132066 2.58424 22.068501
-0.43865073 2.4069085 2.554338 22.071751
-0.23359481 2.4535956 2.5566692 21.087
-0.13892618 2.4831686 2.5269783 20.837624
-0.074057698 2.4847682 2.5239587 23.077
0.029287256 2.4544218 2.5315688 21.57225
0.13486716 2.4989109 2.5973234 21.0725
0.38173214 2.4475927 2.5778584 22.077126
0.4775624 2.4271698 2.5807657 21.077
0.55115056 2.4593973 2.5401616 20.576063
0.66175652 2.4332235 2.5873909 18.0765
0.753654 2.4353118 2.5578954 17.084
0.81033581 2.4482403 2.5778189 21.0825
0.94188803 2.4498224 2.5667348 19.5795
1.1561244 2.4480329 2.5804009 21.084499
1.2051497 2.4514699 2.5117292 21.084999
-0.041166581 2.5452452 2.5262985 20.588249
0.040824138 2.5539443 2.5805931 20.088499
0.13456801 2.59868 2.5937333 20.089001
0.62150419 2.5101132 2.5087819 20.073999
0.7440415 2.5858309 2.5440922 21.07625
0.83234388 2.5007901 2.5056033 18.077499
0.90990722 2.526355 2.5476723 19.0755
1.1293097 2.5383322 2.5193353 19.07675
1.4326057 2.5655866 2.5694571 17.077999
0.22675666 2.6253548 2.590198 19.0895
0.57533586 2.6133094 2.5277915 18.091
2.9547963 3.1016035 2.5519371 8.599
1.8910978 3.8213315 2.5281649 16.098
-2.5531385 -1.1634674 2.6364045 8.0649996
-4.6764846 -1.0370885 2.6116376 14.0595
-2.4260652 -1.0987357 2.6163516 8.0655003
-4.3870625 -0.80569369 2.6086063 15.0605
-4.2784362 -0.72725993 2.649044 15.061
-3.921428 -0.37554151 2.6258497 16.0625
-2.528069 -0.036946908 2.6814036 15.068
-2.1483858 -0.019454673 2.6820698 14.0695
-2.4214752 0.01102154 2.6698122 15.0685
-2.2999094 0.19552998 2.6668043 16.0695
-2.8601582 0.32111466 2.6155553 18.067499
-2.7730625 0.39526755 2.6116586 18.568001
-2.5568449 0.37785798 2.674118 18.069
-2.7223752 0.43923807 2.6804366 18.068501
-2.4433491 0.43339235 2.6432614 18.0695
-2.3381507 0.48412383 2.6087489 18.07
-1.4047881 0.44134066 2.6678987 7
-1.3858298 0.56228834 2.6607046 8.545455
-1.1942239 0.56566197 2.6659298 8.0684996
-1.3886683 0.6457203 2.6372025 9
-1.4088424 0.88540453 2.6216788 12
-1.3782806 0.90455741 2.6388414 11.9
1.3508089 1.1114235 2.6044939 8
-1.3173248 1.2228923 2.6981485 15
1.345623 1.2473853 2.6395841 8.5
1.2630993 1.3271482 2.665838 14.0815
-1.3161684 1.4190726 2.6542463 17.061501
-2.9852619 1.5872499 2.6440544 16.056
-1.3662517 1.5291711 2.6670377 18.0305
1.2767926 1.510886 2.6333036 11
1.327598 1.5295086 2.6473403 10.5785
-2.8655224 1.6018072 2.683671 16.056499
-1.3408072 1.6663489 2.6437836 20.07
1.3764638 1.6010042 2.6450717 19.083
-1.3450234 1.7194402 2.6380529 19.697166
1.1903526 1.7208622 2.6884856 12.078
-2.2693701 1.8031744 2.63661 17.059
-2.1623397 1.8476195 2.6060014 18.059
-2.0616288 1.8682194 2.6151235 18.0595
-1.8969295 1.8830128 2.6643791 18.059999
-1.2948351 1.8745595 2.6628017 21
-1.9254556 1.9079787 2.6397188 19.060249
-1.7037742 1.9841051 2.6791074 19.061501
-1.4377798 1.937023 2.6169701 18
-1.3156086 1.9795002 2.6234484 18.0655
-0.95210683 1.9616102 2.6333029 21.581749
-1.425422 2.078624 2.6780229 20.063
-1.266032 2.0084865 2.6784558 22
-1.1359684 2.0689228 2.6193705 18.5665
-1.0579147 2.0899453 2.6618414 18.066999
-1.5053644 2.101763 2.6032803 20.0625
-1.3317459 2.1687527 2.6370575 20.063999
-1.2622449 2.1590641 2.6983581 20.063999
-1.0428084 2.1640968 2.6169529 19.564751
-0.92863131 2.1286707 2.6722865 19.065001
-0.74902016 2.1187513 2.6175485 18.0665
-0.57216513 2.1607971 2.6746721 20.834249
-0.47173613 2.1320734 2.6913686 18.068001
-0.37194544 2.1392906 2.6302829 18.068501
-0.27310675 2.167485 2.601367 18.069
-1.2375356 2.2349439 2.6236777 20.065001
-1.1531653 2.2298553 2.6984782 20.0655
-0.95195317 2.2617378 2.695154 22.070999
-0.85767925 2.2791009 2.6551881 22.819
-0.76656091 2.2716465 2.6220281 22.4055
-0.57875693 2.2448883 2.6271262 19.066999
-0.49005255 2.2397804 2.6820436 19.067499
-0.35834193 2.2517476 2.6533849 18.748287
-0.25056484 2.2574937 2.6544995 18.071501
-0.11200045 2.2891128 2.6146855 18.07
-0.023429498 2.2732272 2.6308804 18.070499
0.17156298 2.2845232 2.6327868 18.071501
-1.4247632 2.3382409 2.6770411 21.068501
-1.0897543 2.3669755 2.6765838 21.070499
-0.57573485 2.3089004 2.6028211 23.0735
-0.45242488 2.3157723 2.6726587 20
-0.35848013 2.3710771 2.6240637 21.572624
-0.26293796 2.3509459 2.6729925 20.070749
-0.08730638 2.3321676 2.6637483 19.5
0.030702358 2.3309536 2.6383128 18.821751
0.11795445 2.3453152 2.656076 18.0735
0.24977291 2.3763986 2.6216335 22.57925
0.30316719 2.3876677 2.655406 19.072001
0.48777705 2.3988364 2.693049 19.075001
0.50991648 2.3917544 2.6898046 18.0755
1.1011794 2.3953562 2.6057103 23.080999
0.037393864 2.4190993 2.6367645 22.577749
0.17610207 2.4341483 2.6077166 21.076
0.25625083 2.4470387 2.6395035 21.075333
0.3907311 2.4227381 2.6554241 19.5735
0.43954116 2.4292965 2.6199982 21.077499
0.54895329 2.4278219 2.6575265 19.578251
0.67123973 2.4220719 2.6439033 19.08625
0.74869484 2.4381316 2.6671588 20.079668
0.84228015 2.448127 2.6544166 17.575001
0.92659247 2.4622836 2.6324019 19.57925
1.0707731 2.4239697 2.6591344 19.580999
1.2696049 2.4253995 2.6509309 23.082001
1.3036335 2.4190881 2.6126504 20.085251
0.31429097 2.5086427 2.6849604 21.0735
0.6021719 2.5423222 2.662128 20.575251
1.0236424 2.5337322 2.6107197 18.576
0.32630816 2.6763797 2.6106749 19.09
0.80585277 3.0068712 2.6835608 18.092501
1.8585094 3.7811868 2.6300154 16.0975
2.2649601 3.9153204 2.6767225 14.0985
2.335799 3.9875855 2.6239314 14.099
-6.4904575 -2.4671977 2.7866082 11.0555
-4.5466709 -1.0721691 2.7024055 14.06
-4.4304705 -1.0153239 2.7588787 14.0605
-4.0526462 -0.56667686 2.7072005 16.062
-3.8984234 -0.39019459 2.7951813 16.063
-2.3732696 -0.11504342 2.7534451 14.0685
-2.6384428 -0.079035416 2.7148566 15.0675
-2.2646291 -0.06840606 2.721796 14.069
-3.2081325 0.021195695 2.7965364 17.066
-2.6418376 0.065587863 2.7641735 16.068001
-2.5175622 0.11211292 2.7293124 16.068501
-2.4165809 0.15117596 2.7024841 16.069
-1.3534172 0.19506498 2.7508812 4.8000002
-1.3335143 0.2156675 2.7919581 5
-1.3364812 0.69639397 2.7621381 10
1.4384068 0.69919044 2.7881346 4.5
-1.3369497 0.90784186 2.7174854 11.5
-1.4196332 1.0745751 2.7027705 13.061
-1.3082082 1.0552772 2.7539039 13.281
1.2472897 1.1190085 2.7693515 8.0775003
-1.3521166 1.2237043 2.7519023 15.06225
-1.6203393 1.3888808 2.7934084 20.0765
-1.3689626 1.3553934 2.7635176 16.061501
-1.3405385 1.5166218 2.7525179 17.5
-2.7636578 1.6205992 2.7326708 16.056999
-2.6614439 1.6382668 2.7756405 16.057501
-3.1123333 1.7223197 2.7650518 17.0555
-1.5307124 1.9940479 2.789125 18.563
-1.6365013 2.0186887 2.7245781 19.062
-1.3726051 2.0905452 2.7827082 19.063499
-1.2770523 2.0566165 2.7307241 22.062
-0.96110368 2.0874355 2.7437029 18.067499
-0.85130656 2.0386763 2.7457175 19.575251
-0.74995154 2.052146 2.7294273 21.083
-0.64966995 2.0688808 2.730536 20.0835
0.91431236 2.0413558 2.7636023 13.09
-1.158159 2.1413398 2.7831283 19.315125
-0.77706254 2.1010628 2.796813 18.068501
-0.68232846 2.1234694 2.7752957 18.069
-0.53853798 2.1357496 2.7122972 18.068748
-0.31795552 2.1710253 2.7881863 17.5355
0.41456011 2.1850841 2.7477217 16.088499
0.94237447 2.1089978 2.7037234 13.0905
-1.2863044 2.2359707 2.7916696 21.069
-1.1149926 2.2473583 2.7432063 22.07
-1.0475365 2.2217236 2.7405047 20.06575
-0.99336201 2.203711 2.7971458 20.0665
-0.80653679 2.2186992 2.7900887 20.067499
-0.76074481 2.286032 2.7477 20.066999
-0.67941713 2.2627847 2.7748828 20.067875
-0.54717714 2.2698684 2.7908745 20.069
-0.41554302 2.2074842 2.7076793 18.070499
-0.15600625 2.2574048 2.7736278 18.333334
-0.035353892 2.27073 2.7130632 20.821251
0.22849953 2.2993507 2.7833657 23.074499
0.50792551 2.2147741 2.7430406 16.089001
-1.2367411 2.3049684 2.7743568 23.063999
-1.0364928 2.374939 2.7660193 21.070999
-0.50773382 2.3014283 2.7441375 23.069
-0.13520731 2.3756037 2.7226577 20.071501
0.029352166 2.3471131 2.7687237 19.071375
0.14701319 2.3300099 2.7535524 19.071999
0.22289187 2.359159 2.7467232 18.571501
0.30198407 2.3016517 2.7278268 23.075001
0.43413138 2.377615 2.7395754 19.577751
0.59353024 2.3983679 2.7334437 19.0755
0.69782007 2.3922729 2.7560024 19.076
0.8988263 2.3746171 2.7761064 18.077
1.1382129 2.3956661 2.7793427 20.084
-0.30081877 2.4181738 2.7592182 23.0755
-0.21762893 2.4014988 2.7483811 21.076
-0.15049416 2.4429607 2.7761769 23.0765
-0.039696164 2.4478245 2.7652121 23.07725
0.086633682 2.4104977 2.734823 20.575001
0.19136947 2.4285822 2.7850323 21.078501
0.44690847 2.4677083 2.7493 20.4095
0.64623171 2.4196699 2.7326236 19.328125
0.78357053 2.4326334 2.7466862 19.078251
0.84120131 2.4943106 2.7364914 22.083
0.95949322 2.4193115 2.7870436 20.083
1.0580817 2.4280674 2.7330558 18.577499
1.2091036 2.4122958 2.7216935 20.084499
0.91948068 2.516654 2.76371 17.077499
1.0245618 2.5157034 2.7979443 21.084
1.2807294 2.5519934 2.7960162 17.077
1.6921824 3.6537187 2.7370563 16.0965
1.8176916 3.7421024 2.7402244 16.097
2.1831121 3.8332615 2.737771 14.098
-9.7772398 -5.1538649 2.8881845 8.0515003
-8.6215429 -4.480607 2.8572035 8.0524998
-3.6862509 -0.2612049 2.8476439 16.063999
-3.5852087 -0.19071372 2.8581605 16.064501
-3.4259207 -0.10915048 2.8160744 17.065001
-2.5100081 -0.17074724 2.800406 14.068
-3.3575628 -0.052464798 2.8505073 17.0655
-1.3156854 0.023245616 2.8367712 3
0.57543486 0.13018036 2.8823867 2
0.6026932 0.12477331 2.8749738 2
-2.8510633 0.27689582 2.8444381 17.068001
-1.2780809 0.56341988 2.8944173 8.25
1.4416639 0.69539136 2.8399835 4
-1.3591839 0.95520735 2.8937898 12.062
-1.2740415 0.98717779 2.8555622 12.0635
-1.3971044 1.0169765 2.8178394 13.0615
1.5593321 1.0050198 2.8725019 8.0790005
-1.3985313 1.1147673 2.8143303 14.0615
-1.2890046 1.188759 2.8635676 14.0635
1.3998843 1.1396817 2.8326375 14.0825
-1.7486882 1.2549263 2.8295054 20.0755
-1.3331389 1.2982273 2.8599739 15.333333
1.3831919 1.2238677 2.8054729 15.0825
-1.6762019 1.3140732 2.8022199 20.076
-1.3112363 1.3994333 2.8711677 16
-1.3003961 1.4570007 2.8454242 16.5
1.4269053 1.4326549 2.844687 10.0765
-3.1898935 1.6294831 2.8980772 16.0555
-3.0843256 1.6728284 2.8558226 16.0555
-2.4629683 1.6722031 2.8503208 16.0585
-2.3529835 1.6920437 2.8902164 16.059
-1.2631993 1.6332896 2.8609293 18
-3.0405295 1.7511687 2.8599432 17.056
-1.2723112 1.7847977 2.8083541 19.666666
-1.2627412 1.8266989 2.8042741 20
-0.87834114 1.8281754 2.8743796 20.081499
-1.4798815 1.9843546 2.8902893 17.563999
-1.1569973 1.9977443 2.8717113 17.0665
-0.84475338 1.9244729 2.8026624 20.082001
-0.76352769 1.9593786 2.8368888 20.0825
-0.6711874 1.9929377 2.8695168 20.083
-1.4457331 2.0542336 2.8678346 19.063999
-1.3472173 2.0653787 2.8494124 19.064501
-1.2885089 2.0739474 2.8372688 19.063999
-1.0511247 2.0094266 2.8225284 17.066999
-0.9692753 2.032306 2.8818436 17.0655
-0.86501396 2.0921421 2.8978677 18.0655
-0.57443595 2.0228732 2.8976884 19.0835
-1.2618232 2.101074 2.8705106 19.065001
-1.05855 2.1357446 2.8787355 19.06575
-0.86332649 2.1817243 2.8869176 19.067249
-0.58159924 2.149878 2.8693798 17.567249
-0.45469528 2.1638477 2.8572111 18.072102
-0.39215308 2.19524 2.8492637 19.084999
-1.3760964 2.2262237 2.8103671 21.068501
-1.1753379 2.2522428 2.8165734 21.06975
-0.94124961 2.2133551 2.801739 20.066
-0.85808468 2.2053013 2.8606005 19.5665
-0.62423074 2.2599778 2.8431396 19.568251
-0.57224178 2.2665939 2.8663757 20
-0.31656745 2.2610908 2.8507433 18.068501
-0.22695628 2.2304275 2.8066802 18
1.0322984 2.2125702 2.8641443 15.0775
1.1160238 2.2922699 2.870127 23.0805
1.2937133 2.2536747 2.8991156 18.084499
-1.2029024 2.3022408 2.8894894 23.063
-1.1390803 2.3172994 2.8545074 23.064125
-1.0420457 2.3407874 2.87288 23.0655
-0.95967418 2.3583376 2.8178625 21.071501
-0.44747213 2.3318043 2.8211241 22.571999
-0.17134307 2.3241405 2.8648734 21.570999
-0.03666985 2.3715439 2.8391919 20.324188
0.060637549 2.3842187 2.842485 19.0725
0.17265433 2.3173752 2.8485351 23.073999
0.26144624 2.3352211 2.8687968 18.07375
0.34072092 2.3559971 2.8515658 17.57325
0.43995157 2.3404336 2.8600063 18.0725
0.54228258 2.3651965 2.8407471 19.407667
0.91823578 2.3996964 2.8137741 23.07925
1.0719495 2.3754013 2.8416109 20.0835
1.1624194 2.379837 2.8778811 18.080999
1.2840688 2.3415143 2.8838935 19.084499
0.26640004 2.4239016 2.8419867 20.576
0.351726 2.4409409 2.8417809 20.5765
0.45901531 2.4135082 2.8826432 20.08
0.65026551 2.4545763 2.8102748 20.078251
0.79496652 2.4929793 2.841717 19.076
0.8526907 2.4108648 2.8216574 19.0795
0.9654094 2.4783607 2.8679237 17.909416
1.1479138 2.4804685 2.8921628 21.084499
1.2498822 2.4614503 2.8942413 18.078501
1.3279569 2.4791589 2.8330078 18.079
0.69213605 2.5082192 2.8175988 19.0755
1.2132698 2.5036569 2.8336608 21.084999
0.67382926 2.9944038 2.8774052 18.091499
0.77138954 3.0222173 2.8466043 18.091999
1.6648443 3.643338 2.8671613 16.096001
1.7670058 3.6848652 2.8322616 15.0965
2.1111276 3.7702441 2.8159909 14.0975
-5.4908214 -1.7400187 2.9252319 12.058
-4.4531264 -0.96470958 2.9008775 14.061
-4.1320596 -0.85550171 2.9448309 14.062
-3.8856905 -0.39980859 2.9672709 16.063499
-3.5395477 -0.13509138 2.9631376 16.065001
-1.2510177 0.19883466 2.9292033 5
-1.2814221 0.24189842 2.9052069 5.5
0.54873836 0.23801918 2.9815993 4.166667
-1.2621651 0.38369936 2.9351354 6.5
-1.3760455 0.63607627 2.9321225 9.0620003
-1.3293906 0.8582477 2.9776907 10.0645
-1.3296347 0.96215838 2.9769273 12
-1.3190002 1.0699315 2.9705055 13
-1.3399043 1.1392463 2.9364598 13.5
1.3666307 1.1526276 2.9045451 13.582
1.3626372 1.2528092 2.902734 15.082
-1.5228446 1.3769518 2.9833398 19.077
-3.3253624 1.5551564 2.9869771 15.055
-3.3449118 1.6178151 2.9069541 16.055
-2.9837587 1.7849212 2.9628627 17.056499
-2.2548904 1.705937 2.9132638 16.0595
-1.0105338 1.7154007 2.9632249 19.0805
-0.94689924 1.7786258 2.9374948 19.080999
1.3465738 1.7848923 2.9657965 15
-1.3447338 1.8091829 2.9892125 16.0655
-1.4553877 2.0514348 2.9285603 18.063999
-1.359569 2.0708973 2.9260173 18.064501
-1.2586007 2.0493097 2.9393191 18.064251
-1.0793591 2.024941 2.9704227 17.064501
-0.98876238 2.0677099 2.9938316 17.065001
1.1203159 2.010318 2.9981406 15.077
-0.97301328 2.1248517 2.9485931 19.06625
-0.804519 2.11848 2.9547224 17.068501
-0.75869864 2.1529579 2.9553933 18.566624
-0.68987381 2.133384 2.9320755 18.0665
-0.53237593 2.1349006 2.9565198 18.5765
-1.0819799 2.2617762 2.9382374 21.070499
-0.50957233 2.2595241 2.906245 19.068501
-0.41874623 2.24752 2.9544289 19.069
-0.24456723 2.2660511 2.9164269 18.746834
-0.136462 2.2552769 2.9746065 18.0695
-0.071512699 2.2899542 2.9779313 19.070999
-1.0809639 2.351954 2.9619277 23.063999
-0.99249434 2.3890104 2.9613364 23.066
-0.84531868 2.3390749 2.9230056 20.57225
-0.74040735 2.3831801 2.9896934 23.067749
-0.34052706 2.357866 2.9844546 20.075251
-0.24057493 2.3402572 2.9364779 21.324625
-0.11691409 2.3619478 2.9313869 21.824249
-0.055377588 2.3134818 2.9573035 19.071751
0.013846427 2.3248937 2.954417 19.071501
0.12412789 2.3812871 2.9494419 21.072876
0.26529217 2.3563228 2.9752946 20.078751
0.37202176 2.3652687 2.9213707 19.57675
0.46882474 2.3377576 2.9383602 18.074499
0.55345815 2.3958747 2.9067559 20.0805
0.75575614 2.3799865 2.93977 20.078501
0.84970933 2.3548043 2.9831147 19.082001
1.0084888 2.3110192 2.9693305 23.0795
1.1167758 2.3494022 2.9665232 19.0835
1.2334422 2.368377 2.9710793 23.080999
1.3028758 2.3028462 2.9488785 23.081499
0.68642908 2.401036 2.9594252 22.077499
0.74115986 2.4355764 2.9804385 18.0755
0.82402682 2.4276767 2.9359226 19.57925
0.90340304 2.4062302 2.9338555 21.083
1.0615172 2.4473183 2.9402547 19.08075
1.2186608 2.5277817 2.9552574 17.0765
1.6200614 3.5836577 2.9626284 16.095501
1.7299701 3.6502199 2.9539404 15.096
2.0456562 3.7210326 2.9078341 14.097
-6.5104513 -2.5160236 3.0148907 11.056
-5.4545655 -1.7204849 3.0834031 12.0585
-4.4718394 -0.94362307 3.0864649 14.0615
-4.126545 -0.66268849 3.0075107 15.0625
-4.0373936 -0.61534131 3.0540442 15.063
-3.5009375 -0.12229188 3.0737572 16.0655
-1.3505038 0.10881098 3.0904372 3.5
-1.3248358 0.49895778 3.0931334 7.3333335
-1.3225739 0.64818716 3.0635538 8.75
-1.2816693 1.1604559 3.0376444 13.5315
-1.268878 1.2290887 3.0276084 14.063
-1.447292 1.3246799 3.0810061 18.57725
-1.3460119 1.4093637 3.0604663 19.077999
-1.2730415 1.4679884 3.0415673 19.078501
-3.3221774 1.5889018 3.0803521 15.0555
-3.198648 1.5867672 3.0161123 15.0555
-1.3254378 1.5941868 3.0884452 15.0645
-1.1985184 1.5338081 3.0228252 19.079
-3.1041889 1.6248615 3.091763 15.056
-1.1054984 1.6274254 3.0007834 19.07975
1.3888569 1.6344045 3.0916295 13.5
-2.9016614 1.7984588 3.0108654 17.056999
-2.5431888 1.7865751 3.0920699 17.0585
-1.5543303 1.7690147 3.0691881 16.064501
-2.3165112 1.8193674 3.0930488 17.0595
-1.9571595 1.8574942 3.0361884 17.061001
-1.8417683 1.9315739 3.0207825 17.061001
-1.6327389 1.922564 3.0226004 18.0625
-1.4164705 1.984344 3.0967116 17.063
-1.3312731 1.98789 3.0236328 18.063999
-1.4346077 2.0083098 3.0361688 18.063499
-1.3012521 2.0089483 3.031518 17.063499
-1.2385961 2.0197179 3.0338271 18.064501
-1.1542882 2.0704484 3.0148909 18.065001
-0.97815317 2.0048378 3.0723295 17.067499
-1.3525834 2.1596625 3.069984 19.0695
-0.91763151 2.1059501 3.0918326 18.066999
-0.84262156 2.1121678 3.0455551 18.066999
-0.72761595 2.1557484 3.0188439 18.568001
-0.62301856 2.1707079 3.0591753 18.045166
-0.58209312 2.175704 3.0578353 18.5
-0.41523367 2.1825261 3.0468352 18.069
-0.39501992 2.1303084 3.0334296 19.084499
-1.2071263 2.2559631 3.0672593 20.07
-0.86333573 2.2645519 3.0996442 19.07225
-0.73463857 2.2866206 3.0765266 20.073
-0.35161695 2.2437809 3.0571084 18.31975
-0.23483592 2.2358518 3.0470583 18.57
-0.14805377 2.2717352 3.0120537 19.070499
-0.070709005 2.2870862 3.06072 23.071501
0.18116072 2.2826707 3.0315628 20.07225
0.55610484 2.2774637 3.0960517 19.08025
0.8244316 2.2905512 3.0756695 23.077999
-1.0248401 2.3684387 3.0710795 22.066
-0.85330087 2.3808975 3.0110707 22.566999
-0.79575336 2.3650663 3.0850136 22.067499
-0.624825 2.3044984 3.0596805 20
-0.54934627 2.3294652 3.056252 20.073999
-0.47345427 2.3285203 3.0150509 21.071999
-0.37633032 2.3494687 3.0392482 22.403498
-0.12875265 2.3174541 3.0306017 21.0765
0.05314517 2.322757 3.0759759 20.077499
0.1589542 2.3302994 3.0156767 18.575748
0.30485135 2.3522847 3.0157971 17.072001
0.48405722 2.3530295 3.0690992 18.073999
0.56230593 2.3891664 3.0514288 20.0755
0.6779049 2.3316591 3.0338392 18.578251
0.7696991 2.320761 3.0192862 19.081499
0.95950407 2.3373785 3.0292532 21.08075
1.0492756 2.3423374 3.0485468 19.083
1.1628449 2.3387582 3.0886831 18.0835
0.5133341 2.4124317 3.0392699 17.073
0.65571886 2.4135001 3.0140975 18.075001
0.8791514 2.4657886 3.0996327 22.078501
0.95724702 2.4392157 3.077647 20.083
1.0216024 2.4514656 3.0170784 21.081501
1.129781 2.4793005 3.0904002 22.08
1.3145905 2.4282949 3.0477545 18.581749
1.1521075 2.5299966 3.0488563 17.076
1.4968231 2.5994842 3.0807786 16.077499
0.65672356 2.9287257 3.0033636 17.091
1.1800861 3.3363161 3.0696583 16.0935
1.687016 3.6087532 3.0556259 15.0955
1.899785 3.6062677 3.0819902 14.096
1.9826498 3.6787477 3.0071712 14.0965
-9.7169771 -5.0584092 3.1116962 8.052
-7.3427415 -3.1630316 3.1970568 10.055
-5.3711581 -1.6682912 3.199111 12.059
-3.9754894 -0.55678439 3.1453643 15.0635
-3.8585722 -0.49150097 3.190299 15.064
-1.3265173 0.11628681 3.1396353 3.5
-1.2804805 0.28404358 3.1979866 5
-1.2485131 0.67673033 3.1895781 9.0635004
-1.1796386 0.66333747 3.141922 8.0644999
-1.2319402 0.95942044 3.1294746 11.0635
-1.6326804 1.177714 3.1070747 18.076
-1.2381582 1.2505198 3.1779518 14.0635
-3.5803852 1.4306693 3.1285243 14.055
-1.3194 1.4753168 3.1330476 14.0645
-3.4441884 1.5035586 3.1820192 14.055
-1.219789 1.5033718 3.1555705 14.065
-1.1294341 1.5313781 3.1562862 14.0655
-1.030234 1.559201 3.1417394 14.066
-0.94081163 1.5868018 3.1382318 15.0665
1.3812315 1.5543166 3.1100259 13
-3.2264032 1.632641 3.141403 16.056
-3.1189911 1.6546932 3.1628244 16.056499
-2.9743366 1.6547141 3.1104426 15.0565
-2.8647149 1.6932565 3.1529999 15.057
-1.2334718 1.613731 3.1204987 15.065
-1.1333263 1.6217488 3.1183085 15.0655
-1.0377667 1.637097 3.13413 15.066
-2.7481699 1.7211902 3.1692004 15.557501
-2.6154819 1.745272 3.1721697 16.058001
-2.3702631 1.7992681 3.1777043 16.059
-2.4612088 1.8208827 3.127208 17.059
-2.1931076 1.810674 3.1637516 16.060249
-2.0090182 1.8770341 3.1892719 16.060499
-1.8899419 1.905787 3.1561489 16.061001
-1.7773424 1.9335371 3.174803 16.561501
-1.5538955 1.9863127 3.1673865 17.0625
-1.4042892 2.0216513 3.1916018 17.064501
-1.3066206 2.0229979 3.1452589 17.065001
-1.208335 2.0524991 3.1395888 18.0655
-1.0440396 2.0549982 3.1239557 18.066
-0.98709822 2.0634809 3.1805923 18.066
-0.79483342 2.1069055 3.1465266 18.066999
-0.61955327 2.1558096 3.1381896 18
-0.51844555 2.1862566 3.1348512 18.068501
-1.2776608 2.202318 3.1402149 19.07
-1.1389477 2.2158575 3.1228974 19.070749
-1.0094626 2.2434118 3.1358776 19.071501
-0.88545966 2.2756968 3.1727808 20.072001
-0.73264837 2.2642174 3.1238108 19.073
-0.64824146 2.2496734 3.1526847 18.75
-0.55311066 2.2834728 3.1404915 19.073999
-0.25939626 2.2698128 3.1832438 18.580502
-0.15256101 2.2806969 3.1506505 19.07625
-0.032678753 2.2377214 3.1292977 17.07
0.047767244 2.2884836 3.1264613 21.074875
0.24817276 2.2638662 3.1717348 19.078501
0.33271077 2.2729435 3.1805611 17.82625
0.4294945 2.269098 3.1650777 19.0795
0.72327882 2.2682135 3.1887407 18.080999
1.0821148 2.292093 3.1818826 22.0795
-1.2340463 2.3520787 3.1514845 22.063499
-1.1426579 2.326673 3.1217184 22.063999
-1.0832642 2.3537829 3.1615636 23.064501
-0.96407413 2.3452957 3.1549153 23.06525
-0.85265964 2.3414371 3.1669734 23.066
-0.75838196 2.3673024 3.1839375 22.567249
-0.67652619 2.3242283 3.1651459 22.567749
-0.57305473 2.3442056 3.1624789 22.069
-0.49165666 2.3011765 3.1510077 23.068501
