# .PCD v0.7 - Point Cloud Data file format
VERSION 0.7
FIELDS x y z intensity
SIZE 4 4 4 4
TYPE F F F F
COUNT 1 1 1 1
WIDTH 1186
HEIGHT 1
VIEWPOINT 0 0 0 1 0 0 0
POINTS 1186
DATA ascii
-5.1568723 -0.98349214 -1.7127469 17.040501
-1.8136421 -0.87478775 -1.6988317 9.0375004
-1.8334769 -0.51241904 -1.7584853 14.84377
-1.4439784 -0.59268278 -1.8427701 11.034
-0.93656421 -0.46430856 -1.7616324 9.5318127
-0.79748023 -0.40476435 -1.7584672 9.1970825
-3.2569664 -0.14197086 -1.7118341 22.0385
-1.8626763 -0.090780489 -1.7660261 21.368166
-1.3026093 -0.24657221 -1.73358 12.700084
-1.0250232 -0.14779089 -1.8113741 12.895168
-0.68805832 -0.21123014 -1.8934852 12.349294
-1.8168428 0.041044876 -1.8350669 23.033249
-1.3177702 0.24582413 -1.8149879 11.95173
-1.1281145 0.15959263 -1.7808251 13.403782
-0.77578557 0.095124759 -1.7901062 16.3284
-0.24696016 0.18891951 -1.9540716 9.995491
1.1657734 0.35938835 -1.6973294 8.2967501
1.3528185 0.31253472 -1.8039572 6.6627436
-1.6047871 0.76948708 -1.6757257 22.033001
-1.4288212 0.59359419 -1.7986777 16.670444
-1.1960807 0.50615388 -1.7111274 23.029499
0.73931783 0.54489172 -1.9589236 13.61625
1.0099481 0.57980341 -1.7816982 11.598675
1.3961833 0.6326474 -1.7691256 11.054273
1.637684 0.6699177 -1.8412051 9.3635101
-1.6156305 1.0268756 -1.7505722 22.027166
-1.4881517 0.9290458 -1.8009014 20.47493
0.49440137 1.1127071 -1.7896459 23.136499
1.1176493 1.0873899 -1.7801411 19.177774
1.3975871 0.99148041 -1.7750789 16.614323
1.6204334 0.96892428 -1.8793159 15.095485
-1.419422 1.2814037 -1.7899628 21.017832
1.1490411 1.3189178 -1.8401065 21.296692
1.3989319 1.36148 -1.7917414 21.074179
1.6155995 1.2667689 -1.9469622 19.7805
1.0370111 1.8787057 -1.6036859 17.871
1.4206058 1.7649487 -1.7438048 12.121679
0.79495412 2.1939092 -1.9058446 22.1245
0.99330509 2.0956681 -1.7536775 19.559937
1.6768059 2.2941706 -1.8747244 13.121666
2.1361015 2.1484096 -1.8079967 8.5490713
1.5989106 2.6811447 -1.9434158 16.122
1.7464924 2.6458685 -1.8156538 14.81969
1.1051657 3.0846286 -1.8684132 22.288651
1.4477152 2.9625142 -1.7809944 18.954126
1.6823248 2.8001006 -1.6508483 16.200001
1.0935571 3.2170007 -1.6647642 23.120251
-8.4981108 -3.7146158 -1.2959864 10.043
-8.0217886 -3.2190409 -1.2724124 11.043
-6.4960847 -2.1271765 -1.2339326 13.043
-5.7151775 -1.4578972 -1.3261982 15.375833
-5.4017892 -1.3060914 -1.4207306 16.042
-4.9751959 -0.9041937 -1.387015 17.708666
-4.8609447 -0.79616702 -1.4641125 18.0415
-4.6607704 -0.61092013 -1.3030305 19.04225
-2.1374254 -0.70490819 -1.3006002 13.9419
-1.8567823 -0.68086857 -1.4430656 12.973442
-3.3358941 -0.18700011 -1.4122888 22.041
-2.1155076 -0.086004257 -1.3729602 22.54031
-1.9382037 -0.076104574 -1.5688218 22.5375
-1.2426267 -0.024781728 -1.3674247 8.2877083
-1.02519 -0.06087175 -1.4809616 10.163551
-1.3191606 0.27142245 -1.3673609 12.630367
-1.1075257 0.15778324 -1.4107028 12.750983
-0.75986493 0.04148725 -1.2803606 9.04175
0.89305335 0.21840549 -1.3301375 4.5
1.2829454 0.36288315 -1.3847369 8.6092186
-1.6054525 0.72545159 -1.4036782 21.036751
-1.4155341 0.59021461 -1.3936757 17.54492
-1.1169555 0.44280323 -1.4850377 20.559452
0.69606584 0.65102893 -1.5145826 9.6237497
1.1251596 0.58552271 -1.4008801 12.425962
1.4154387 0.63698566 -1.3973538 11.842754
1.6186105 0.67566735 -1.4082191 10.059637
-1.6366276 0.86376983 -1.4946802 22.834499
-1.4683912 0.97156453 -1.3971146 20.783215
1.1644543 1.0292811 -1.4974588 19.487642
1.4238981 0.98608786 -1.3966515 17.14094
1.6096172 0.93885791 -1.3527323 15.479749
-1.4177891 1.2289207 -1.4057713 23.021
1.1613296 1.3048948 -1.5597571 22.461668
1.396619 1.3440276 -1.4112257 20.728752
1.6637377 1.3120317 -1.2939037 13.177063
1.0573756 1.9400245 -1.3492117 18.475178
1.4039701 1.7868714 -1.4068494 12.951584
0.97289371 2.1481161 -1.406805 20.827042
1.4215491 2.1024051 -1.3937229 15.618
2.2305734 2.2116642 -1.4733822 8.6178751
1.1105514 2.7868133 -1.2909729 22.11725
1.905336 2.6718249 -1.4260218 14.026818
2.0628719 2.4902065 -1.2833768 12.116584
1.0826341 3.0513198 -1.4602013 22.918699
1.4676243 3.0457208 -1.4302597 19.689499
1.7486258 2.9083407 -1.3807083 16.597918
1.3478279 3.24424 -1.3562431 21.117584
-8.3763952 -3.6263828 -1.0935942 10.0435
-8.1031179 -3.3255949 -1.0997814 11.0435
-6.197648 -1.8904544 -0.8282547 14.0445
-5.8221588 -1.5935975 -0.89961529 15.04425
-5.5393853 -1.3462998 -0.96524698 16.044001
-5.2336226 -1.0858641 -1.075662 17.043501
-5.1877885 -1.0127883 -1.1894337 17.042999
-4.7891989 -0.82966167 -0.88918245 18.0445
-3.2003367 -1.0601635 -0.81226426 14.04575
-2.2767401 -0.88229078 -0.83567327 12.0465
-1.9343908 -0.81077796 -1.1156594 12.044
-4.6689529 -0.66549295 -0.9852941 19.266251
-3.2872469 -0.74373466 -1.0557368 17.044001
-2.2131999 -0.7451176 -1.1103368 13.710584
-1.9677229 -0.7236501 -1.1503239 13.0435
-4.1028757 -0.13794062 -1.041328 23.043751
-1.0993313 -0.050304752 -1.0808197 7.2209101
-1.6493797 0.33573225 -0.93443662 11.597857
-1.3338215 0.24181585 -0.99922186 12.084414
-1.1350511 0.13001843 -1.040658 11.84258
-0.57457012 0.14183769 -0.98801214 11.24975
-0.38562179 0.24322872 -0.87729132 13.055
0.67216045 0.35580176 -0.88213712 8.0454998
1.0484873 0.34705403 -0.9588294 9.7826262
1.3731856 0.35208923 -1.0015584 7.8003545
-1.6458461 0.55671316 -1.0018543 12.47525
-1.4183993 0.59125715 -0.9916935 18.118612
-1.1841398 0.43932354 -0.97757173 19.793791
-0.45567763 0.40202114 -1.0031002 20.0525
0.72253811 0.46535197 -1.0503935 14.1073
1.0652 0.54597098 -0.99660832 12.887392
1.4148793 0.63626707 -1.0066462 12.01332
1.7146322 0.77244663 -0.99083519 10.264084
-1.6405888 0.85495728 -1.0017716 20.536572
-1.4950738 0.95236427 -1.0153109 21.734724
1.1993052 1.0732669 -0.85362136 23.122
1.4169 1.0016199 -1.002041 18.168463
1.6762216 1.0101254 -0.95990407 13.771164
-1.4648137 1.2550455 -1.0666516 22.521749
1.3910116 1.3423133 -1.008894 21.346098
1.6529543 1.306404 -1.013643 15.9778
1.1064017 1.8950773 -1.000186 17.669529
1.3955925 1.7050936 -0.99171066 14.11157
2.5195839 1.9601742 -1.1809131 5
0.79989725 2.1874084 -0.86683798 23.112499
0.9569276 2.0941224 -1.020285 21.114311
1.4300385 2.0829146 -0.82599974 15.1125
1.4244881 2.71134 -0.9016214 18.780416
1.9474738 2.7654195 -1.0798166 14.365188
2.1506464 2.5709143 -1.0271103 11.67875
1.1684505 2.8079276 -1.1593747 22.115999
1.2306734 2.8153429 -0.99096179 21.1145
1.7321764 3.0883498 -1.1050413 17.615499
1.4855928 3.3428068 -1.0306458 20.615084
-8.557292 -3.7330647 -0.59099138 10.04475
-7.9439254 -3.3475716 -0.55821729 11.045
-7.5239935 -2.9179049 -0.74471271 11.0445
-6.9757996 -2.5447206 -0.70609653 12.04475
-6.7802477 -2.433053 -0.48597062 12.0455
-6.311985 -2.0251861 -0.66797829 14.045
-5.7471185 -1.5747005 -0.65610737 15.04525
-5.4201946 -1.3179559 -0.63028097 16.0455
-5.2318993 -1.1463228 -0.44735432 17.046499
-4.7467771 -0.8128258 -0.79489422 18.045
-3.1136694 -1.0173196 -0.60379606 14.047333
-4.6075096 -0.65385449 -0.62730169 19.171
-3.296077 -0.52631086 -0.67330283 19.046835
-4.4214902 -0.38973373 -0.53521991 21.046749
-4.2267714 -0.20500298 -0.51063478 22.0471
-3.8471146 -0.055082295 -0.68696779 23.046333
-1.2684329 -0.059944384 -0.60253704 4.75
-1.0696034 -0.0099441968 -0.78412616 8.0482502
-1.6049544 0.3745026 -0.68801981 14.045
-1.3556861 0.23659955 -0.61504942 11.330816
-1.1734847 0.18146639 -0.63352293 11.981667
-0.48894554 0.079557776 -0.68850422 8.0550003
-0.19187713 0.15380536 -0.6728549 8.7169724
0.76360393 0.26565453 -0.53970778 9.852973
0.80756491 0.26956078 -0.62289381 10.105
1.2910124 0.32894161 -0.57038254 8.9808931
-1.6314437 0.53076959 -0.65769899 15.4416
-1.4009289 0.57142961 -0.60849196 17.384523
-1.1834649 0.40266854 -0.43561554 14.0505
0.57786638 0.47118437 -0.64850914 12.837751
0.99756932 0.48070934 -0.60091656 9.5821247
1.3872074 0.6221025 -0.61817622 12.611228
1.7552938 0.77069587 -0.63401592 8.7589998
-1.695765 0.85211325 -0.60297614 18.536625
-1.4486827 0.92790097 -0.58754265 21.949974
1.4179088 0.98051494 -0.61043733 17.521112
1.6573402 1.0185901 -0.6329357 13.092072
-1.5536549 1.2533499 -0.72200978 23.026249
1.1175022 1.5045234 -0.5460062 22.755915
1.3473576 1.3618226 -0.6156382 20.954363
1.723689 1.2515606 -0.6775102 9.9353886
1.134596 1.7654413 -0.59653062 19.843039
1.3340951 1.7030185 -0.62665993 13.443157
0.86868811 2.1076024 -0.60303408 21.609501
1.5405102 2.3097501 -0.46759564 15.10975
2.6684651 2.1246088 -0.57263422 5
1.4892737 2.7971895 -0.7389251 18.112499
1.9739217 2.4552937 -0.63900155 12.11175
2.2708371 2.585568 -0.58422053 10.91175
1.0192226 2.9219623 -0.56165957 23.11075
1.381009 2.8756483 -0.61972386 19.77825
2.2038088 2.8187912 -0.6376574 13.11225
1.7910135 3.5753126 -0.69376254 19.113001
1.4556741 3.8953209 -0.68423432 22.446333
1.782856 3.7977409 -0.50288838 19.9119
-7.7836156 -3.2438748 -0.38646638 11.0455
-7.6417346 -3.1411867 -0.22044253 11.046
-7.4924469 -3.0428503 -0.062246442 11.0465
-6.6251163 -2.3323975 -0.28084904 13.046249
-5.7819371 -1.6340774 -0.086666942 15.0475
-5.6724648 -1.5330707 -0.20385547 15.047168
-5.3987136 -1.3327786 -0.16747701 16.047501
-4.9490876 -0.98497486 -0.17483452 17.048
-4.7562633 -0.88279688 -0.16299397 18.04825
-3.1207764 -1.1105318 -0.35034645 13.049
-4.5052757 -0.59692699 -0.19177148 19.4235
-4.3727999 -0.45461345 -0.051624656 20.0495
-4.2404523 -0.25367984 -0.18236394 21.71575
-3.892096 -0.027713969 -0.33620015 23.04875
-1.2847594 -0.075736463 -0.29152304 5.7380958
-1.1385615 -0.1721482 -0.39000273 4
-1.3402345 0.24609895 -0.22885524 10.708315
-1.177508 0.12409623 -0.26968765 9.2406006
-0.33865586 0.29805312 -0.17666817 10.732666
0.59878451 0.25610408 -0.25155091 9.6369581
0.85487771 0.2719498 -0.17033936 8.5675516
1.3064532 0.30827773 -0.22532156 9.3222961
-1.7328924 0.74749166 -0.030024251 16.717001
-1.3845108 0.58774161 -0.21673784 16.945831
-1.1344501 0.55572921 -0.16763568 15.386333
1.1194667 0.5605728 -0.2321682 10.961535
1.3574965 0.64062989 -0.19822791 13.525778
1.6473076 0.71366394 -0.22959426 8.296813
-1.8424304 0.89213943 -0.21414036 19.0485
-1.471998 0.94906187 -0.19908214 21.837345
-1.1927217 0.84710956 -0.051971197 19.0515
1.1213506 1.0294753 -0.060945474 16.08585
1.3979474 1.0079297 -0.2152399 17.272644
1.6051602 0.99861413 -0.37510669 12.089251
-1.3506492 1.2223371 -0.072395563 23.05275
1.0822693 1.4324374 -0.22348422 20.797575
1.3508191 1.3737854 -0.2069329 19.479856
1.1156924 1.7751029 -0.23422226 17.635651
1.4208459 1.6443752 -0.19415097 13.302126
1.6247119 1.6942062 -0.071220636 10.105375
0.94493306 2.046876 -0.24326387 19.605751
2.0795543 2.3997514 -0.020883441 11.1075
3.0648286 2.2152889 -0.21838909 3.5
1.4079553 2.7955272 -0.099706173 19.1075
1.6251667 2.4859302 -0.06941247 15.107125
2.2310979 2.4631691 -0.27750829 10.442833
2.7445734 2.4333797 -0.105443 7
1.0140158 2.8963435 -0.25215745 22.858061
1.3886437 2.8585629 -0.26012301 19.358749
2.5315902 2.9971404 -0.1537692 11.609751
1.4682345 3.9575191 -0.1471616 22.109625
1.8964726 3.8177762 -0.23141012 19.3104
1.5981587 4.0309019 -0.3453002 22.111
1.7261858 4.0327477 -0.10977331 20.859749
-9.3451309 -4.5054579 0.23872125 9.0465002
-9.208992 -4.3651371 0.0039874315 9.0459995
-8.2318249 -3.4963634 0.046180606 10.0465
-7.3143959 -2.9108324 0.16919017 11.04725
-7.116169 -2.7711718 0.38572145 11.048
-6.383462 -2.0891266 0.11651862 13.04775
-5.706552 -1.6828613 0.19987921 14.382
-5.637053 -1.5297134 0.13033164 15.0485
-5.4464211 -1.3771389 0.26809999 15.849299
-4.6466355 -0.81401128 0.052468181 18.0495
-4.4792461 -0.65503865 0.25966433 18.717543
-4.3580747 -0.45608011 0.21819432 20.051001
-4.2003932 -0.28991154 0.21353722 21.194286
-3.9534075 -0.0091515332 0.17677629 23.052
-1.2656567 -0.064766571 0.13220167 5.5595236
-1.1189835 -0.054544576 0.14352047 5.2202382
-3.6160893 0.064801618 0.20266652 23.052999
-1.3511378 0.26559204 0.18267882 9.9300346
-1.0933794 0.29709268 0.19965282 10.526688
-0.44483057 0.23712125 0.2894206 8.0655003
-0.36444145 0.3308056 0.16669154 9.5664997
0.3319177 0.31991136 0.29635721 12.0855
0.65859991 0.29649833 0.20970133 9.6945934
1.1406541 0.37903619 0.37032461 3
1.3056492 0.30869663 0.19159865 8.7695236
-1.4114729 0.61671269 0.18687263 16.039831
-1.1287142 0.54613149 0.17767668 13.826521
0.52560312 0.41170913 0.14340816 14.341312
1.0327661 0.71183175 0.11567281 9.9971952
1.3709569 0.6464268 0.19464441 12.557523
1.6801 0.51360607 0.018422365 4
-1.4653875 0.96738857 0.20078218 20.963825
-1.1660539 1.0080063 0.20793866 19.626215
1.0506585 0.98560601 0.18952699 14.683301
1.3751441 0.99938643 0.2005479 16.157633
-1.376269 1.2229178 0.15694289 23.054667
0.74338776 1.5992744 0.28323627 22.078501
1.1119769 1.3949937 0.21843368 20.357405
1.2756894 1.3768922 0.19041121 19.022951
1.6217849 1.3183681 0.06268096 15.0865
0.77971148 1.7525983 0.22960138 23.0795
1.1551356 1.750527 0.17740501 15.710458
1.3011127 1.6312461 0.078374177 14.848499
1.6134372 1.7757351 0.28998852 18.085751
0.96176887 2.2674465 0.19083953 19.602749
0.86013132 2.505069 0.33187091 22.101999
1.4118042 2.7934 0.096484743 18.439417
1.6318281 2.476799 0.24196267 14.604937
3.2737386 2.4593134 0.15519691 4.3333335
1.0611241 2.8388045 0.24478287 21.35425
2.6435251 3.164701 0.075963616 11.608749
2.8667552 2.9943187 0.24020231 9.1079998
2.5734248 3.3126531 0.20418692 12.7082
1.4015917 3.8471727 0.21562226 22.273834
1.9773179 3.8621411 0.10827196 18.108624
2.0107129 3.9138243 0.34463489 18.1075
-9.3955202 -4.5995975 0.5946095 9.0472498
-8.5730991 -3.8481627 0.63005072 10.04775
-6.9329643 -2.647568 0.57997817 12.04875
-6.6050377 -2.3035793 0.72091579 13.0495
-5.8492107 -1.7790793 0.59099442 14.05
-5.5843091 -1.601015 0.77606702 14.051
-5.3874941 -1.3861152 0.54314113 15.300501
-5.0482011 -1.1118302 0.64552885 16.0515
-4.4218268 -0.66468698 0.47066987 18.052
-4.3447275 -0.57914555 0.62161666 18.695858
-4.1563244 -0.28844401 0.52796185 20.803249
-3.899219 -0.08300259 0.56499308 21.8543
-1.2190111 -0.042867444 0.58919775 4.6666665
-3.7699211 0.025098607 0.59659994 22.055
-1.3831663 0.2794438 0.57790709 9.1796093
-1.1382948 0.18923172 0.52004081 8.4552002
-0.37742528 0.18392894 0.68741691 6
0.37383711 0.32400179 0.73479497 11.329625
0.62524366 0.29014879 0.63265467 9.0654955
0.95821834 0.30857119 0.61627793 6.6086254
1.3042353 0.31746462 0.60624969 9.7144403
-1.7318274 0.43993118 0.67981863 11.054
-1.4224139 0.61093658 0.59455311 14.472502
0.30741176 0.66174906 0.78370047 11.3365
0.63924682 0.621158 0.67810076 8.5855618
0.88517898 0.58300161 0.56218261 8.0662851
1.3454574 0.60492116 0.59090042 12.974248
-2.0524278 0.95923102 0.68707788 16.052876
-1.451278 1.0002496 0.58070678 20.33807
0.31565854 0.9588517 0.701792 14.651313
0.55656964 0.93042457 0.66397905 12.090787
0.94023764 0.91473716 0.48532915 12.335375
1.3627901 1.0056913 0.60580719 18.258274
1.6887573 1.0846519 0.42152143 11.0845
-1.3734345 1.2817 0.56529748 22.809752
1.1867982 1.4089258 0.63830668 22.438107
1.2796748 1.326902 0.61879653 19.458393
1.1833416 1.9296665 0.61679572 15.970749
1.3011105 1.8899724 0.63138592 19.13261
1.8748922 1.7990934 0.71425444 8.2676668
1.0541793 2.2456656 0.6231181 21.744631
1.3311101 2.1517601 0.66353989 21.583561
0.67804283 2.6320033 0.63952893 22.849562
0.89919782 2.4134722 0.59853995 20.1
1.6258175 2.4450045 0.48800725 14.103251
3.5243194 2.6286974 0.74424016 4
1.4501234 2.877975 0.53402781 18.1035
2.9343588 2.9530735 0.60675776 8.8562498
2.6815109 3.3817329 0.49038768 12.107
2.8883839 3.3277433 0.65507042 11.1065
1.1535252 3.6881716 0.53433537 23.1045
1.2911663 3.7922208 0.41209245 22.105751
-9.4580994 -4.6994829 0.96261513 8.5480003
-8.9395981 -4.1431837 1.0355567 9.0485001
-6.5121598 -2.3321445 0.99545461 12.0505
-6.1877418 -2.0313199 1.1629828 13.0515
-6.0851469 -1.9568806 0.8996346 13.05075
-5.7935624 -1.7837421 1.1434802 14.052
-5.3976707 -1.4624568 1.0127625 14.92725
-5.0409293 -1.080537 0.93696177 16.55275
-4.6345916 -0.85615975 1.0142136 17.054001
-4.480413 -0.75719661 1.1536239 17.055
-4.1711254 -0.47150946 0.87736881 19.05475
-0.34853578 -0.44796997 1.1449902 3.5
-4.0528293 -0.348147 1.0220195 19.222584
-3.8739207 -0.09486068 0.99477738 21.056643
-0.56918824 -0.03597863 1.1741046 9.574625
-0.072336622 -0.14947642 1.1143249 4.4285712
-3.8112924 0.0042660683 0.80585706 22.056
-3.3847644 0.17711067 0.86034441 22.724669
-3.0668635 0.33708465 1.02362 23.060501
-1.3193353 0.28490263 1.0298561 8.2969313
-1.1894622 0.244297 0.82307947 8.559
-0.56255895 0.30995622 1.1700435 13.409917
-0.20322132 0.26496264 1.1554846 10.079187
0.22917841 0.26411238 0.9901644 8.4851074
0.60586154 0.28221488 0.99152738 8.6489401
0.85482168 0.24287999 1.0026621 6.9583573
1.3032099 0.35359973 1.0133054 9.2927504
-2.9686184 0.4120025 1.1008555 23.061501
-2.0134811 0.77686054 0.82166719 14.0535
-1.89382 0.56969941 0.97212815 12.054501
-1.4227642 0.59203136 1.0038173 12.7479
-0.49314648 0.44572538 1.1354431 14.544566
-0.17202659 0.55800134 1.0796927 13.399386
0.1819651 0.54706806 0.94116986 10.774779
0.47093275 0.55032796 0.83826303 8.0869999
1.0184082 0.43576127 0.80096436 5.75
1.3505528 0.61038959 0.98094499 12.832494
-2.0214674 1.0231595 0.8739531 16.277
-1.7135105 0.92658019 0.88338351 15.389
-1.4177364 0.99282187 0.9647131 18.359514
-0.41261908 0.93393785 1.0624434 19.081499
-0.19028117 0.92548257 0.95457822 17.750166
0.19937088 0.85661995 0.90161628 13.943608
1.3400657 1.0179619 0.99775362 17.070639
1.6467123 1.0716543 1.0869461 9.5812492
-1.4077303 1.3402168 1.0101573 21.960909
-0.7694543 1.2658943 1.17372 23.0805
1.1917486 1.443597 1.090921 21.423584
1.3315016 1.3570025 0.98609644 17.926689
1.6291522 1.4212217 0.92526412 13.415584
-2.1681244 1.8829451 0.93591642 23.054501
-1.6227049 1.7130462 1.0017289 23.059999
-1.5720351 1.6647718 1.0550381 22.060499
-0.30468282 1.6737727 1.1734742 23.0865
1.0541229 1.7030462 0.99798983 19.7495
1.3360387 1.8221163 1.0145693 16.885969
1.7406209 1.7855436 1.0218378 8.5988121
0.33580333 2.1359277 1.1107757 23.07375
0.5960896 2.1454041 1.0216012 21.705626
1.0188733 2.2415364 1.002791 20.09005
1.2848423 2.1492188 1.00204 21.817556
0.54357696 2.6812015 0.82281148 23.098
2.4614584 2.7134488 0.82327855 10.104
3.4052799 2.9959965 1.1203005 6.5522499
2.6703911 3.7876501 0.82240474 14.106
2.8917198 3.7229939 0.93979049 12.10575
-9.3137264 -4.5968094 1.5115526 8.5492496
-6.2045398 -2.1110845 1.5042962 13.0525
-5.7966108 -1.8087466 1.369278 13.302751
-5.363646 -1.460554 1.3408121 14.3035
-5.1068525 -1.2488669 1.3224 15.054
-3.7993178 -1.2392733 1.4313211 12.557
-1.8649038 -1.2725656 1.4220647 5.25
-4.9354544 -1.1090864 1.4256556 15.626287
-4.5649295 -0.8139801 1.4651276 17.056
-3.7178688 -1.0194854 1.4313662 14.0575
-3.5989344 -1.1416959 1.5189699 13.058
-2.5643156 -0.8951329 1.4350383 11.261301
-2.103704 -0.81331968 1.4217576 10.06325
-1.6258794 -0.99039859 1.5335811 6
-1.5688543 -1.1325909 1.5776328 5
-4.4019389 -0.68832844 1.2125629 17.5555
-4.161715 -0.53495038 1.3858579 18.057001
-3.982538 -0.42712158 1.5881518 18.0585
-2.1872921 -0.57086885 1.4425581 12.863726
-1.8481917 -0.60072458 1.5327127 10.898875
-1.4147197 -0.49411464 1.5719237 9.0682497
-3.8301158 -0.17776504 1.3533509 19.708324
-2.081378 -0.13634352 1.5469521 15.566
-1.9124748 -0.16203101 1.5421264 15.06675
-1.4210697 -0.19668391 1.4876478 12.4691
-0.8981092 -0.2892046 1.4731892 8.5718126
-0.64719057 -0.14327556 1.2263432 8.9069166
-0.16628173 -0.11481024 1.3743182 5
-3.4130754 0.18397272 1.4880135 21.311062
-2.1760583 0.22948396 1.4365746 19.566376
-1.3295704 0.32684121 1.4080912 8.1393557
-1.1116619 0.037542 1.4127927 13.07175
-0.62439382 0.18435782 1.3068963 12.0756
-0.22376904 0.25824741 1.2221065 10.079
0.33098423 0.29714984 1.3302858 9.4525309
0.58486229 0.2772004 1.3926244 8.1574526
0.81138647 0.23976387 1.2608088 8.085
1.3174564 0.36483914 1.3217747 8.6315002
-2.6665704 0.49186981 1.4867309 22.398333
-2.1075838 0.74019349 1.4168797 23.068626
-1.8206526 0.55837977 1.5329764 20.470001
-1.3954269 0.6445595 1.3732818 12.9104
-0.47030374 0.68215525 1.4463576 15.0795
0.62660533 0.78125024 1.5830748 9.073
1.3437883 0.61231416 1.3524367 11.901536
1.7312582 0.57263017 1.4950162 3
-2.0233209 0.81328863 1.4457566 23.0695
-1.3746197 1.0023096 1.4404608 18.014551
-1.0222867 1.1031935 1.476873 21.863464
0.70528126 1.0678394 1.4486556 11.324125
1.1245646 0.89974105 1.5286767 8.0764999
1.337552 0.9971984 1.3885541 13.863887
1.8082789 1.1860856 1.2525464 4
-1.3822116 1.3970516 1.4246978 21.41794
-0.94053316 1.3128821 1.5668783 22.41275
-0.6599583 1.4677287 1.4041902 22.653751
0.67491466 1.3622038 1.3240083 14.0746
1.1904956 1.5365467 1.2000043 21.0905
1.3368016 1.3718671 1.4185158 15.632289
-1.4802353 1.7323939 1.3855556 22.260899
-0.36716449 1.6364355 1.2556494 23.085625
0.79255003 1.6387936 1.2468708 17.076
1.1237758 1.8114946 1.4327898 14.945856
1.3237319 1.8103094 1.4002403 18.37266
1.7697523 1.6999639 1.2577461 8.0974998
-2.1526947 2.006809 1.5059268 22.306252
-1.8685445 2.0370204 1.4551585 23.056999
-1.3769373 2.1028984 1.4445778 23.060417
-0.99459308 2.1600401 1.5489073 23.065891
-0.53549796 2.2385416 1.4595238 23.067249
-0.23671496 2.3268068 1.5075545 23.069498
0.74341446 2.3368351 1.3343726 18.761665
1.0867263 2.1918223 1.3480102 20.560141
1.2914866 2.073452 1.3947682 21.738708
0.13493246 2.4073977 1.5113603 23.07225
0.62421316 2.5341613 1.4719307 22.57725
0.93878502 2.6482327 1.3703495 22.936571
1.4297758 2.7534409 1.5331868 21.08075
1.1566951 3.1819279 1.5261685 19.098249
2.611568 2.8095498 1.3594486 9.1020002
3.7205007 3.1651425 1.5623306 6
1.5926145 3.2524009 1.4368563 17.100124
3.5103872 3.4672923 1.5396053 8.1040001
2.1498857 4.1675053 1.3992329 17.103251
-9.5400381 -4.8581104 1.9576238 8.0500002
-6.8878975 -2.6620145 1.7690035 11.55225
-4.6747847 -2.4731104 1.6581424 8.0547504
-6.3066602 -2.2194688 1.9051796 12.0535
-5.7619605 -1.8409302 1.8280638 13.05425
-5.528214 -1.6452934 1.7545599 14.0545
-3.9565938 -1.984866 1.6575547 8.0565004
-3.1682215 -1.9045961 1.6508449 6.5999999
-5.2746558 -1.3831949 1.7107137 14.055
-5.1884704 -1.3865575 1.8842376 14.05575
-3.2652476 -1.4126025 1.7458606 9.7065001
-2.9753242 -1.2861309 1.7764107 9.5605001
-4.9080153 -1.1240479 1.7975745 15.05625
-4.6726904 -0.93295318 1.7550722 15.856799
-3.4098039 -1.0097998 1.7057494 13.0595
-2.5172305 -1.0235159 1.6368886 10.062
-1.9928944 -0.85184067 1.7507688 9.0649996
-1.1626223 -0.83503956 1.7558142 4.75
-4.4125419 -0.73462772 1.7880304 16.557751
-4.1889439 -0.59663945 1.92067 16.809
-3.9351189 -0.46665066 1.953452 17.059999
-3.367532 -0.51181757 1.7383921 16.060749
-1.7755774 -0.57408345 1.6883789 10.521136
-1.4364145 -0.57799101 1.7594359 8.6213923
-1.0458704 -0.59341908 1.6882533 6.4353752
-3.7386258 -0.23270154 1.7291106 18.504555
-3.4527586 -0.20315747 1.879742 17.895
-1.8426777 -0.22941761 1.6433275 13.46725
-1.392593 -0.20495363 1.8073183 11.532619
-1.0948418 -0.14500955 1.8545659 10.286125
-0.7707836 -0.12927593 1.7801453 9.0740004
-3.4604611 0.12633999 1.6381553 20.561375
-2.8794308 0.21157025 1.8166229 20.064501
-1.7710049 0.14810966 1.7249024 16.25675
-1.3338178 0.2510123 1.7891924 10.500318
-1.048697 0.28307465 1.7925614 14.002679
-0.76744282 0.34146941 1.7566825 13.076
1.4195225 0.284035 1.9607872 4.2857141
-2.5378559 0.73288167 1.6158074 23.066999
-2.0849116 0.67484283 1.6951178 21.0695
-1.7661051 0.63226545 1.7350334 20.187157
-1.3480856 0.61431706 1.8202649 12.683772
-1.0321549 0.53369385 1.9027672 15.504035
-0.7161805 0.69424111 1.7428509 16.078001
1.3105119 0.64793968 1.7302291 11.169451
-1.7193203 0.94011188 1.6569409 22.572584
-1.3636054 0.94056696 1.7489692 17.15197
-1.0390095 1.0636066 1.7466787 20.077627
1.351245 0.95520633 1.8012621 11.576563
1.6701984 0.93900067 1.6133181 3
-1.3605461 1.3979677 1.7605956 19.073952
-1.0841382 1.2708541 1.6309699 22.578249
-0.77944976 1.2602502 1.6174361 21.08025
1.3164554 1.4034094 1.7319537 14.061125
1.9282939 1.2395824 1.7593085 3
-2.4880981 1.8668414 1.9079105 19.722
-2.2240844 1.9626697 1.8621862 20.464375
-1.9611326 1.9927542 1.8309494 20.55875
-1.4128212 1.7998215 1.8363746 22.271749
1.1581804 1.7555414 1.7386223 16.830946
1.2881451 1.8075041 1.7676104 18.26248
-2.0671384 2.0332656 1.8260357 21.557501
-1.8082458 2.1430972 1.8619776 21.916178
-1.3823364 2.1352522 1.8003627 22.24132
-0.96928096 2.2256153 1.8473113 22.603672
-0.62448651 2.2808838 1.8270121 22.7145
-0.2540814 2.3398812 1.824851 22.569777
0.17449835 2.392278 1.940058 23.073
1.0095878 2.3843095 1.8875557 23.085501
1.2775651 2.0712845 1.798769 22.587915
-0.42963225 2.4463174 1.8680168 23.070999
-0.12211301 2.5095522 1.8146813 22.87595
0.15466414 2.5399156 1.8120648 22.47016
0.59520203 2.5612655 1.8618988 22.5427
1.0024579 2.6172278 1.8292174 21.868551
1.280678 2.6045098 1.8105494 21.882401
1.1185697 3.1848354 1.800099 19.097
1.4316744 3.2741098 1.975552 22.0825
3.4764094 3.443718 1.8593465 8.1027498
3.2474055 3.6544135 1.7562286 10.103
2.0920439 4.0685353 1.770449 17.1015
3.1761584 4.0266366 1.8940266 11.103
-7.0487747 -2.8648582 2.3529367 11.0535
-6.4322023 -2.3450513 2.3382049 12.0545
-5.7385054 -1.8458855 2.2243867 13.0555
-5.0817208 -1.338401 2.1907246 14.057
-2.8191411 -1.4540644 2.1410689 8.0620003
-2.6676948 -1.392056 2.1897793 8.0627499
-4.7145934 -1.0364896 2.2699182 14.725001
-4.1962852 -0.62186098 2.1566799 16.05975
-3.883085 -0.40731746 2.023057 17.060499
-3.706646 -0.28134722 2.0951746 17.394835
-3.4514561 -0.098102003 2.2069423 17.97975
-3.2768309 0.082219429 2.158112 18.730583
-3.0839002 0.24461612 2.2543087 19.26535
-2.7249424 0.36257398 2.3825736 19.067499
-1.4594411 0.29871076 2.135144 11.050625
1.3593646 0.24299842 2.1254482 4
-2.8895774 0.48178345 2.2621007 20.06675
-2.6430726 0.62600595 2.3108611 20.818375
-1.8854096 0.68603587 2.2559714 18.572001
-1.3168147 0.60385549 2.1887562 9.5295496
0.5540151 0.7069785 2.0198486 7
1.3563991 0.64905101 2.0643067 7.8000002
-1.3380153 0.99733347 2.2219219 13.377887
0.54504848 0.83720082 2.1821253 8.0719995
1.3336153 0.93159366 2.2536857 10.58625
-1.3987234 1.3739425 2.2584565 17.619843
0.43362737 1.3082325 2.156173 12.072
1.3502641 1.3314059 2.3085144 13.694639
-2.8063035 1.6652128 2.2006083 18.05525
-2.5751796 1.7476686 2.1103165 18.255951
-2.2206981 1.8777448 2.1757383 19.007023
-1.8604094 1.9263277 2.1874135 18.891525
-1.3941468 1.8399636 2.2268591 22.013916
0.38124388 1.6085095 2.2843192 14.072
1.2944456 1.773151 2.1790121 18.153696
-2.0938704 2.0148144 2.0953286 21.058001
-1.7501893 2.0968676 2.1774919 20.666382
-1.381044 2.1533797 2.1911507 21.190983
-1.0110455 2.2379427 2.1907089 21.366154
-0.62562579 2.2941613 2.2415309 21.520254
-0.27462053 2.3408887 2.271111 21.072111
0.64074337 2.3818927 2.2078061 22.080376
1.0924963 2.1968641 2.3475342 16.648584
1.3176502 2.0815842 2.160042 20.248833
-0.41462582 2.4452453 2.2638249 23.069
-0.18653972 2.473073 2.2130067 21.936268
0.20714171 2.4754581 2.1727419 21.644787
0.6176424 2.5465581 2.2412453 21.005934
0.98457533 2.5748234 2.2493451 20.668747
1.2705534 2.4853635 2.3306413 20.482601
1.0493617 3.2311006 2.2572722 18.095249
1.9798563 3.9277663 2.3389869 16.099001
2.0210979 3.9877305 2.2471132 16.099501
2.0575318 4.0312662 2.0717156 16.10025
2.688205 4.3258405 2.2171173 14.1015
-7.0625439 -2.9277081 2.5769272 10.054
-6.4794397 -2.4361634 2.673991 11.05525
-5.1279721 -1.3249272 2.5247364 14.058
-4.5556145 -0.99824953 2.5851333 14.559751
-4.3870625 -0.80569369 2.6086063 15.0605
-2.4896019 -1.1311016 2.6263781 8.0652504
-2.3188257 -1.0206939 2.5942826 8.066
-4.1655412 -0.64696836 2.6781223 15.561501
-2.7041299 -0.5907076 2.5116706 12.0655
-3.9123089 -0.37435129 2.631232 16.395834
-2.8577549 -0.38056296 2.5383477 14.0655
-2.6296542 -0.14763884 2.6334815 14.733833
-2.2620947 -0.067634717 2.7191036 14.069
-3.2081325 0.021195695 2.7965364 17.066
-2.946521 0.28193909 2.5118973 18.366749
-2.5545607 0.18550397 2.6919262 16.651834
-2.2999094 0.19552998 2.6668043 16.0695
-1.3054318 0.2127834 2.6484377 5.1500001
-2.5637 0.48004866 2.5815315 18.669001
-2.2874405 0.59952235 2.5582407 18.737165
-1.3231739 0.55044156 2.4956462 8.7473259
-1.1942239 0.56566197 2.6659298 8.0684996
1.4104813 0.61203516 2.6343002 5.25
-1.3862253 1.0201446 2.5817368 13.190582
1.3163024 1.1139519 2.6594465 8.0258331
-3.2189014 1.5895506 2.5800228 16.055
-2.9852619 1.5872499 2.6440544 16.056
-1.6203393 1.3888808 2.7934084 20.0765
-1.3786448 1.4162418 2.597646 17.027981
1.3154315 1.4521428 2.5783856 13.112562
-2.9697552 1.6717991 2.6173074 16.722334
-2.6228356 1.7094933 2.6026611 17.223749
-2.1964927 1.8498064 2.5558567 18.258801
-1.8315713 1.8987913 2.5820086 18.203465
-1.4035099 1.8567792 2.5685387 19.118141
-0.98838806 1.9361583 2.5865982 21.748167
1.1574509 1.8284601 2.5423465 13.180234
1.3476071 1.8096933 2.5567918 16.830626
-1.7069677 2.0470607 2.5575824 19.9613
-1.3400428 2.1732213 2.5753267 20.89192
-1.0086845 2.2002337 2.5931814 20.306902
-0.59399337 2.2501237 2.5906992 20.469913
-0.24402964 2.3070128 2.5992715 19.752214
0.18009971 2.3439198 2.6391616 19.689022
0.54968822 2.3227189 2.6776576 18.579401
1.0074537 2.2271109 2.6149061 16.826426
-0.46091089 2.4090078 2.5643053 22.070665
-0.13634874 2.4601388 2.5761089 21.827343
0.18959913 2.4828463 2.5787258 21.140766
0.61119384 2.4715052 2.5830262 20.044935
0.95766801 2.4800551 2.5823972 19.758045
1.2840501 2.4762738 2.5962377 20.20797
0.80585277 3.0068712 2.6835608 18.092501
2.9629946 3.1159792 2.4784319 8.8492498
1.8408638 3.7762845 2.6160483 16.0975
2.2612903 3.912056 2.6794751 14.0985
2.5300241 4.179306 2.4349899 14.10025
3.432869 4.3172565 2.4392619 11.102
-9.7471085 -5.1061373 2.9999404 8.0517502
-8.6215429 -4.480607 2.8572035 8.0524998
-7.3427415 -3.1630316 3.1970568 10.055
-6.5104513 -2.5160236 3.0148907 11.056
-5.4388485 -1.7095982 3.0692489 12.058499
-4.4624829 -0.95416629 2.9936712 14.06125
-4.1320596 -0.85550171 2.9448309 14.062
-4.0819693 -0.6390149 3.0307775 15.06275
-3.9170308 -0.52414268 3.1678317 15.06375
-3.7859707 -0.33050674 2.9074574 16.063749
-3.4818356 -0.12194245 2.9123273 16.465099
-2.5100081 -0.17074724 2.800406 14.068
-2.8510633 0.27689582 2.8444381 17.068001
-1.3039697 0.17909262 3.0224211 4.5
0.58723712 0.18237765 2.9278474 3.1666667
-1.3072293 0.61760646 3.0185905 8.6563749
-1.1796386 0.66333747 3.141922 8.0644999
-1.6326804 1.177714 3.1070747 18.076
-1.3187283 1.0314381 2.9316454 12.500333
1.441949 1.0991096 2.8698947 11.9145
-3.4180284 1.5195714 3.0944681 14.555125
-3.198648 1.5867672 3.0161123 15.0555
-1.712445 1.2844998 2.8158627 20.07575
-1.3272088 1.4030901 3.062017 16.313126
-1.0747495 1.5527973 3.1147704 15.56925
1.3884915 1.365912 2.91573 13.31025
-3.2856574 1.625228 3.0241785 16.0555
-3.0291555 1.6960429 3.0117335 16.056278
-2.5662036 1.7492247 3.0821936 16.358301
-2.2494624 1.7840539 3.0712092 16.226292
-1.8127155 1.9140822 3.0975544 16.894751
-1.4073611 1.8782202 3.0061734 17.13102
-1.0142646 1.7663363 2.962837 18.075344
-0.71735752 1.9761581 2.8532028 20.08275
1.3465738 1.7848923 2.9657965 15
-1.3109777 2.10741 2.9932501 18.915274
-0.99286008 2.2025685 2.9942942 19.835344
-0.59859109 2.235779 3.0002513 19.708305
-0.18986978 2.2994173 2.9896672 19.99313
0.20643097 2.328613 3.0051978 19.214489
0.58559781 2.3482108 3.0222299 19.618906
1.0461547 2.3155169 2.9912786 19.969654
1.2785251 2.3166032 2.9257417 20.832874
0.25341251 2.4368539 2.89568 21.0756
0.64675677 2.4578607 2.9826801 18.461653
0.96281916 2.451472 3.0091474 19.655378
1.3013147 2.4829321 3.0127788 18.380175
0.70064741 2.9817822 2.9091244 17.758165
1.1800861 3.3363161 3.0696583 16.0935
1.3973336 3.468879 3.1120908 16.09425
1.6954269 3.5600941 3.0881424 15.095334
1.7885453 3.6453655 2.9663584 14.929418
2.078392 3.7456384 2.8619125 14.09725
-7.3551512 -3.2232001 3.4336452 10.0555
-5.2799535 -1.6184345 3.3101592 12.0595
-5.1326098 -1.5249513 3.5317721 12.0605
-3.8122489 -0.44350111 3.2773509 15.0645
-3.2230337 -0.51536864 3.5573349 3.375
-3.715461 -0.3826583 3.329474 15.065
-3.3070168 -0.063946299 3.5475235 5.75
-2.9500241 -0.2156986 3.5829196 4.4499998
-3.3736184 0.35031733 3.5779452 8
-3.0830848 0.3615877 3.5878158 7.8000002
-1.266903 0.18981986 3.4236603 4.8333335
-3.1235497 0.71865976 3.589736 9.666667
-1.3250394 0.43078032 3.5801706 7
-1.1325272 0.50316906 3.523109 7
-3.2087984 1.1238937 3.5841227 11.666667
1.4102407 1.0818304 3.5627844 9.0839996
-3.7245834 1.4024495 3.5894718 13.0555
-3.3721781 1.5095932 3.3942699 14.056
-2.980546 1.5641708 3.3609982 14.057
-2.4912839 1.5505266 3.5002275 14.0595
-1.2570127 1.5100975 3.2770662 18.078751
1.4016516 1.4045985 3.3264015 11.436625
-3.4730301 1.6708078 3.5438006 15.05625
-2.8676023 1.6856598 3.4135418 15.057834
-2.5655632 1.7619587 3.3713627 15.593166
-2.1981263 1.8271648 3.3455713 15.9175
-1.80626 1.9219654 3.4221361 16.153273
-1.4798344 1.9300021 3.3012483 16.063499
-1.3173345 2.1313498 3.3907449 17.898542
-1.0156242 2.2523527 3.3769965 19.35063
-0.60244101 2.2379396 3.4357557 18.736631
-0.20913395 2.2538884 3.3969707 18.204542
0.20603122 2.320226 3.3803568 18.102816
0.58307648 2.34144 3.3860629 19.304611
0.96147358 2.2928865 3.4182761 17.933159
1.292335 2.2293193 3.5624382 17.57925
-1.2470232 2.404232 3.527992 21.064251
-0.84492987 2.4094582 3.4006805 22.0665
-0.59620595 2.4032958 3.3704424 21.069
-0.078816943 2.4340413 3.5223956 20.970728
0.20064504 2.4916127 3.3628438 19.648928
0.62244517 2.4771764 3.3801115 17.075768
1.0527824 2.476696 3.400578 17.045218
1.3357112 2.5525858 3.3282363 15.4764
1.7444732 2.4850316 3.5686159 10.092
0.45948955 2.80497 3.5049772 17.089001
1.4846979 3.3796399 3.451088 14.926834
1.7125299 3.4465575 3.2445171 14.094749
-3.4739089 -0.45634604 3.6648362 4
-3.1556122 -0.4847424 3.7266614 3.25
-2.7552207 -0.41794032 3.8236401 3
-3.391592 -0.11595504 3.7151468 5.583333
-2.833482 -0.098597512 3.8304017 5
-2.567564 -0.24999005 3.8007519 3.7333333
-2.211365 -0.28505877 3.757129 3.4111111
-1.7673825 -0.17226222 3.6985669 3.6500001
-3.634908 0.23533262 3.7203462 7.4000001
-3.4021535 0.33912459 3.6870232 7.9441671
-2.8154044 0.38249031 3.6277452 7.5
-2.5634694 0.14189167 3.7901917 6.2200003
-2.1256361 0.19642885 3.783258 6
-1.7855732 0.1967487 3.7771897 5.7333336
-1.3512866 0.33013916 3.7512043 6
-3.6947815 0.66204154 3.7292221 9.666667
-3.391 0.72539967 3.6595562 9.9075556
-2.9652979 0.40960556 3.8299959 8
-2.5507767 0.49224663 3.8995345 8
-2.1772196 0.61457032 3.8438883 8.4092226
-1.8069944 0.67488766 3.8305743 8.4809999
-1.4731121 0.65407157 3.7669909 8.2666664
-1.1499059 0.59285045 3.7110767 7.5352502
-3.7830036 1.0598105 3.7360573 11.7915
-3.4163737 1.0121154 3.7111959 11.35475
-2.9020998 0.98611611 3.7572651 10.852834
-2.6273205 0.9091534 3.7098382 10.125
-2.2283909 0.87053865 3.8335521 10.075889
-1.8332946 0.9559266 3.7880833 10.3647
-1.3621167 1.0439918 3.7372615 10.351
-1.1819353 1.1371379 3.7407227 10.064
-4.0135422 1.4136808 3.770952 13
-3.7434955 1.402482 3.8021011 13.2446
-3.399575 1.4120325 3.7148342 13.477
-3.0229969 1.4248286 3.7365434 13.279643
-2.5743346 1.4235656 3.7750714 12.732
-2.1775041 1.4092571 3.8352532 12.75
-1.7479328 1.5062897 3.8431969 12.973958
-1.4670238 1.3779964 3.7660408 12.3755
1.2476053 1.4109017 3.6600242 10.0765
-2.5374861 1.6892592 3.7964141 14.206584
-2.2273448 1.7164963 3.7993443 14.163187
-1.7723223 1.8329575 3.830404 14.825441
-1.406795 1.8776708 3.798218 14.497634
-1.0246185 1.920804 3.9022884 15.570666
0.99482507 1.9171314 3.8922968 13.0755
1.2875645 1.8001138 3.8136814 12.411
2.1054919 1.8242561 3.8343992 6
-1.2852938 2.1537619 3.7709215 17.316811
-1.0156018 2.1482651 3.756496 17.007282
-0.60324669 2.192318 3.8018131 17.068998
-0.21354207 2.2473476 3.8387022 17.095566
0.18739457 2.2789991 3.817951 16.619541
0.58681661 2.3252187 3.8113418 16.522741
0.99701333 2.3018775 3.7744634 16.855925
1.287303 2.2945585 3.7557967 17.747335
-0.98475307 2.4121835 3.6521969 21.066
-0.090276711 2.4109054 3.9031341 21.071501
0.26178369 2.5272694 3.7458596 17.181376
0.63786638 2.4472535 3.8019431 15.304625
0.93275589 2.4662757 3.7232692 15.400167
1.3230494 2.5427504 3.838882 15.0765
1.7599802 2.6857505 3.8771887 16.079
1.2201072 3.1753066 3.8331575 14.0915
1.4895831 3.3459444 3.6516013 14.093
-6.7652526 -2.8597741 4.3809919 10.0585
-3.3419054 -0.15201074 4.0598583 5
-1.9989865 -0.22515908 4.0750446 4
-2.0826054 0.7767393 4.2008257 9.0612497
-1.7826223 0.73190284 4.1592112 8.0622501
-1.4283171 0.72427446 4.1338072 8.0640001
-3.8357553 1.0827258 4.257863 11.05625
-2.8856463 0.92988974 4.3255029 10.059
-2.6073537 0.87278795 4.2846727 9.5597496
-2.3279727 0.81620526 4.2184134 9.0605001
-3.448139 1.3440288 4.2054086 12.224083
-3.0470872 1.4614482 4.1566715 12.6586
-2.7735901 1.4462783 4.1691628 12.5595
-1.2307557 1.387175 4.280087 12.5
-2.1863801 1.7241354 4.2729034 13.06175
-1.9857736 1.7685437 4.266973 13.0625
-1.3375034 1.8930696 4.1102843 14.554749
-1.0569876 1.9595371 4.2022581 13.780357
-0.61049223 1.9242268 4.0924425 15.582251
-1.2769932 2.0590556 4.1638846 15.65075
-0.96745276 2.1484079 4.1699233 16.317873
-0.59898525 2.1416886 4.1947951 15.927608
-0.19893689 2.1985478 4.1819491 15.770183
0.19275363 2.2753813 4.1497254 15.801728
0.57872349 2.2883997 4.2135472 16.115559
0.99938875 2.2823019 4.2280698 16.363596
1.2931736 2.2168345 4.1942511 15.6798
0.2452583 2.480521 4.1163402 15.0865
0.73973107 2.4132316 4.0663033 15.0745
1.0306705 2.4655321 4.1949792 14.503215
1.4365034 2.5255034 4.3687282 13.742667
-6.7833409 -2.905529 4.6705146 10.059
-1.2154413 0.74632698 4.4913239 8.066
-1.1898698 1.0387383 4.4456077 10.066
-2.5964649 1.5396197 4.6573229 12.06075
-1.5095063 1.2756433 4.5579433 15.0775
-2.4232666 1.634794 4.7466183 12.0615
-2.2047672 1.6232326 4.5906572 12.062
-1.6776221 1.7567542 4.5375328 13.06375
-1.3767602 1.8749933 4.4833641 13.665201
-1.0307518 1.8902862 4.5097203 13.925643
-0.66322649 1.7405647 4.6281805 14.331375
-0.36988994 1.9854242 4.4469466 15.083
-1.2756335 2.1683922 4.487164 15.570125
-0.98861378 2.084271 4.6142778 14.67095
-0.55829424 2.1573908 4.5996141 14.871399
-0.18072103 2.1840017 4.5865335 14.493157
0.19201936 2.2232034 4.6295424 14.666499
0.5811789 2.2759826 4.5772772 14.42897
0.97116995 2.2830536 4.6045094 15.745082
1.3662305 2.2377748 4.5045576 15.5805
1.0034485 2.4393787 4.5686584 13.07475
1.577467 2.5415671 4.4338903 13.076
4.1625557 5.1535482 4.7472801 10.0985
-6.7409258 -2.9419153 4.9256506 9.0594997
-1.6149185 -0.037381466 4.8893538 4
-1.0871961 0.22428977 5.0072374 4
-1.0666677 1.5205806 5.0290084 12.743833
-2.0902112 1.6833014 4.9552255 12.06275
-1.7814698 1.7589922 5.0397854 12.397667
-1.4140778 1.831063 4.9883623 12.527268
-1.0012518 1.9327809 5.016037 12.61268
-0.66914588 1.9667882 5.1865158 12.068166
-1.2735858 2.206136 4.9006853 15.067
-0.98456329 2.1214414 4.9307551 14.608922
-0.58619535 2.1243892 4.946106 14.071027
-0.18368126 2.1729407 4.9753475 14.303655
0.21289682 2.2220187 5.0091176 13.873466
0.63404816 2.2635379 4.9971638 13.944718
0.96033627 2.2580831 4.9705791 14.409917
1.3309855 2.2168961 4.9596 14.479601
1.0068681 2.4459784 4.9957423 12.740166
4.0805206 5.0282564 5.1704888 10.0975
-1.1244957 0.26901883 5.3919525 4
-0.87137663 0.68230778 5.2614202 6.5
-0.65893131 0.6284914 5.2724462 6.1666665
-1.3184457 1.0678331 5.383347 9.9048328
-1.1199114 1.0145794 5.2687111 8.0655003
-0.69864458 1.1953523 5.2252431 9.0670004
-2.9970632 1.4719954 5.5130043 11.0605
-1.3104123 1.338246 5.4011545 10.4704
-1.0715517 1.4131174 5.329597 10.904832
-0.78014237 1.530334 5.2793016 10.067
-1.6206145 1.6738412 5.3249822 11.0645
-1.3197122 1.7087547 5.3514762 11.400833
-1.0056344 1.92533 5.3839483 12.06675
-0.68687439 1.989326 5.2145762 12.0675
-0.34732798 1.945671 5.3849177 13.0825
0.74660277 1.751743 5.3744626 9.5719995
0.89456505 1.7579842 5.2798471 9.0725002
-1.2373598 2.1428285 5.276989 14.069
-0.97622985 2.129741 5.392529 13.978546
-0.55022538 2.1556394 5.3844981 13.848667
-0.17710866 2.1566136 5.4087934 13.905445
0.19043954 2.1535106 5.4079795 13.461473
0.57387686 2.1877687 5.4199638 13.408501
0.97884804 2.1942005 5.4006276 13.666206
1.2826334 2.1562061 5.3903193 13.577667
1.0964949 2.4386797 5.2920895 12.07375
1.556881 2.4515257 5.3870344 11.075
4.0630307 4.982666 5.3709264 10.097
-1.151165 0.31220621 5.6801214 4
-2.9249725 1.481977 5.775969 11.061
-1.3182279 1.8562623 5.822731 11.5675
-1.0217347 1.9222679 5.8368239 11.81725
-0.56367892 1.9916918 5.7605968 11.56925
-1.2312356 2.0781252 5.9645276 13.068
-0.97888088 2.1244774 5.8234515 13.568501
-0.59819257 2.0768101 5.8141356 12.737033
-0.18832661 2.1173582 5.8102517 12.404278
0.22794709 2.1592906 5.8446498 12.460192
0.59022224 2.1904249 5.8034968 12.074772
0.95369548 2.2123935 5.7338715 12.409416
1.3068365 2.177274 5.8235378 12.479501
0.38253936 2.4192376 5.9777493 12.085
4.1504765 4.9978704 5.9063787 9.0962505
4.6424222 5.3547826 5.79983 9.0974998
0.29930192 0.23205829 6.3907447 3
-2.7009037 1.4985226 6.2388148 10.062
-1.3237014 1.252947 6.2403769 8.0719995
-0.9625963 1.4678227 6.3412008 9.0732498
-0.72891474 1.4989372 6.3283658 9.0740004
-1.3821486 1.728474 6.127162 10.067
-0.97988051 1.9400367 6.1438603 11.067833
-0.77454168 1.8897375 6.2524028 10.819751
1.1988807 1.6561854 6.3304677 9.0799999
1.4155985 1.8324401 6.3242636 9.5807495
1.7221546 1.8772905 6.0856614 8.0745001
-0.95221484 2.0787981 6.1035342 12.322124
-0.55527055 2.0837553 6.1972914 11.786571
-0.21441713 2.1110659 6.2415829 12.295556
0.22384441 2.1211383 6.1251054 12.072
0.60953778 2.1847444 6.1920385 11.275101
0.99981207 2.1815641 6.1607451 12.075954
1.3594931 2.1088238 6.1517506 11.827126
0.554501 2.5419922 6.1426029 12.0855
3.0038798 4.1718998 6.2001123 10.093
3.9135017 4.7483234 6.2965221 9.0950003
3.986903 4.8439932 6.1302047 9.0955
4.7501464 5.3000059 6.1689005 9.0970001
-2.593452 1.5031326 6.4840317 10.0625
-0.66022915 1.5019022 6.4313989 11.0805
-1.383513 1.8119969 6.5642896 11.06675
-1.0647835 1.9117972 6.561203 11.0695
-0.64097416 1.9421527 6.6108141 10.568501
1.0703349 1.9647336 6.4807787 9.0740004
-0.95158345 2.0523648 6.667994 11.571125
-0.62723017 2.0696688 6.5849476 11.627001
-0.20079559 2.1010859 6.5825782 11.906083
0.22193116 2.121335 6.6445618 11.128666
0.60324651 2.1284893 6.5767746 11.491624
1.0185107 2.1268821 6.6059761 11.075929
1.3675312 2.1284742 6.5968194 11.077499
1.7014821 2.3790941 6.4590731 10.0745
3.8933396 4.7282476 6.633131 9.0944996
5.3180552 4.994698 6.7438383 7
4.7201958 5.2308564 6.7474189 8.0959997
-1.4442453 0.65445632 6.9052005 5.666667
0.15091223 0.4415057 6.8413725 4
-1.3944043 1.0228599 6.8439088 7
-1.0776906 1.4209299 7.0541992 9.0687504
-0.73260003 1.4230542 6.9693599 9.0699997
-1.3745584 1.7709585 7.0088663 10.067
-0.90463281 1.8913624 7.0632105 10.068
-0.57501125 1.9376107 7.0143304 10.068666
-0.25383371 1.9998296 7.0221949 10.069
0.082970582 1.9762181 6.8550425 11.083
1.0319539 1.636667 6.9545846 9.0795002
1.3056489 1.823342 6.9181328 9.4136667
-1.1568018 2.0212638 6.8119526 11.073
-0.46283019 2.0718987 7.1677628 12.0705
-0.17090996 2.0749519 7.0450807 11.072
0.17367347 2.0927265 7.02035 10.698875
0.62656236 2.1083806 7.0260148 10.740251
0.98685026 2.1397374 6.9430428 10.8771
1.2460471 2.1829984 6.8787804 10.0765
3.7450025 4.5761852 7.0943165 9.0935001
4.6531873 5.1284175 6.9701405 8.0955
-2.1833076 1.5270928 7.2608805 9.0640001
-1.3356882 1.2213396 7.5323906 8.0670004
-0.87853718 1.3913529 7.3993282 8.5682507
-0.70095825 1.4134579 7.4301915 8.5687504
-1.2752477 1.8101161 7.5146751 10.06725
-1.0237925 1.8860594 7.2831669 10.069833
-0.68485904 1.9182206 7.451098 9.4043341
-0.33935222 1.9712366 7.3967919 9.6708002
0.13664193 1.9643224 7.2711658 9.0699997
-0.57061756 2.006844 7.3642893 11.07275
-0.16809662 2.042438 7.4107838 10.406111
0.16999373 2.0814345 7.3892779 10.214929
0.58802009 2.136709 7.4172897 10.185389
0.96355009 2.1675525 7.3687506 9.9747
1.3224587 2.0787516 7.4331331 10.827126
4.6289845 5.0548811 7.4596062 8.0947495
-0.97028619 1.0062019 7.9285226 9.0789995
-0.62747723 1.3277173 7.7704749 9.7468328
-0.38060227 1.5323304 7.7005272 10.081
-1.7397827 1.6906422 7.9608169 9.066
-1.4457483 1.7499651 7.7401242 9.4000006
-1.0095562 1.8298815 7.8155427 9.3546429
-0.19784465 1.8105354 7.8724775 9.5757504
0.11431792 1.984354 7.8454647 9.0719995
-0.67164522 2.0221176 7.8357139 10.405
-0.23394012 2.0213699 7.8286819 10.5715
0.27604181 2.0625343 7.7932224 10.074
0.56601924 2.0797954 7.8008828 9.6741009
1.0017223 2.1147068 7.7777762 9.6751995
1.238764 2.2355864 7.6504116 9.073
4.5581393 4.9301615 7.891571 8.0939999
-1.7393186 1.5391746 8.2040386 8.5657501
-1.4113784 1.3166242 8.2497778 8.0667496
1.2552688 1.4680227 8.0711794 8.0754995
-1.5314853 1.6078016 8.3785591 8.066
-1.002485 1.8523121 8.1877546 9.5690002
-0.56077492 1.891459 8.2188911 9.2377501
-0.19103058 1.9543043 8.1631155 9.2402506
0.21749777 1.912021 8.2976618 9.0788336
1.1547842 1.9922645 8.3288174 9.0790005
-0.88752049 2.0615604 8.0006609 11.0695
-0.50923085 2.0383139 8.1885824 10.07275
0.17487432 2.0141025 8.1586704 9.2756996
0.54870665 2.0409472 8.0652285 9.7399998
0.87324345 2.141027 8.2148495 9.5737495
1.3759148 2.0413294 8.2655115 9.5760002
-0.65370512 1.164592 8.6845551 6
-0.061651506 1.5543884 8.6363554 9.0815001
-1.4751455 1.663048 8.4554405 9.0672503
-1.0150434 1.8033975 8.6036501 8.7365837
-0.65475142 1.8774272 8.6048365 8.9457502
-0.29805347 1.9261997 8.648324 9.3207502
0.16393897 1.9728835 8.6452103 9.0727501
0.44622737 1.9750519 8.6263924 9.0734997
1.1361805 1.9673446 8.6859827 10.075
1.4163203 1.9849522 8.5630074 10.07575
-0.74368751 2.0196192 8.6151943 10.07
-0.19886704 2.0252218 8.7009668 10.0715
0.2742804 2.0221598 8.5918818 8.7383337
0.58565372 2.0700471 8.635148 8.0714998
1.0065346 2.120851 8.6222744 8.4076662
1.7591205 2.2222965 8.6144304 8.0734997
0.46165198 0.48508817 8.9553661 4
1.2969831 1.4837661 9.1681824 6
-1.2169816 1.624235 9.1745844 8.0679998
-0.99267197 1.6502988 9.0638323 8.0690002
-0.66943491 1.8059337 8.9325657 8.0692501
-0.16983327 1.8858075 8.939642 8.3202496
0.19843879 1.9527891 8.9736185 8.9716997
0.6199792 1.9484224 9.0362759 8.4076662
0.94772637 1.9441526 9.0566168 9.0745001
1.3593751 1.9409251 9.0613108 9.0755005
-0.0049507883 2.006135 8.873333 10.072
0.75810289 2.1105096 8.8991709 8.0725002
6.8667846 5.9927974 8.9489088 5.5
-1.413149 1.5472336 9.2590599 8.0664997
0.87989777 1.5477326 9.2780323 7
-0.93221128 1.859188 9.2966995 8.0740004
-0.59046292 1.8712186 9.3553591 8.4046669
-0.24103369 1.881426 9.2785339 8.0697498
0.27488998 1.9267293 9.3126106 8.072999
0.6831764 1.9232855 9.3391838 8.5757504
0.907866 1.9651666 9.3947134 8.0761671
1.4181395 1.8927124 9.2810373 9.0754995
0.78482348 2.0512364 9.5544415 8.0725002
1.0728617 2.0378699 9.4885874 8.0725002
1.413659 2.1338677 9.2639418 8.0725002
4.6834445 4.8821602 9.355176 7
-1.2633822 1.6965578 9.6092386 8.0675001
-0.55917281 1.8386997 9.7254009 8.0736666
-0.19825438 1.877569 9.8497 8.473299
0.55706918 2.0197203 9.7165413 8.0719995
-1.3231399 1.8056431 10.227223 8.0734997
-0.9955166 1.8220078 10.320334 8.0714998
-0.65770245 1.8055674 10.213253 8.0713339
-0.15081167 1.8833036 10.182174 8.0760002
0.10505175 1.8643833 10.256226 7.7163334
0.60337597 1.9110485 10.216324 7.5374999
1.0221684 1.8681769 10.283838 8.0743332
6.0772347 4.4816871 10.127822 4
1.0602288 0.46695191 10.742418 3
-0.23162435 1.7635957 10.68265 7
0.34644651 1.876371 10.461176 8.0769997
0.62618357 1.9129394 10.59013 7.5384998
1.0988591 1.9813404 10.566712 8.0784998
-1.2358408 0.78419757 10.898617 5
-1.0569583 0.78136688 10.934721 4.75
-1.1214663 1.2356772 10.922274 6
-1.0780427 1.6766682 10.934833 7
-0.5756377 1.7545592 11.049732 7.5355
-0.3263039 1.8292207 10.998863 8.0714998
0.77837324 1.9432597 11.071274 7
-1.2263906 0.93872982 11.448997 5
-1.2619339 1.5126691 11.538254 6
-1.1850014 1.5802273 11.307995 7
-0.078073829 1.8358735 11.34729 7.5359998
0.12326515 1.8504874 11.316826 7
-1.02152 1.5408072 11.696974 7
0.90651482 1.7582169 11.727686 7
1.2683446 2.1073523 11.6965 7
-1.2412528 0.35775453 12.040443 3
-1.1021237 0.39452481 12.084695 3
-1.3061616 0.79560483 12.055346 4
-1.0749774 0.58027685 12.243234 4
-1.3527042 1.1956321 12.087294 6
-1.1760852 0.91783351 12.084307 4.6666665
-1.2250612 1.34535 12.08544 6
0.72839612 1.5413095 12.239281 6
-1.3523113 1.6532675 12.06301 7
-1.0021329 1.6379924 12.069336 7
1.7660341 1.6310812 12.321324 5
