# .PCD v0.7 - Point Cloud Data file format
VERSION 0.7
FIELDS x y z intensity
SIZE 4 4 4 4
TYPE F F F F
COUNT 1 1 1 1
WIDTH 205
HEIGHT 1
VIEWPOINT 0 0 0 1 0 0 0
POINTS 205
DATA ascii
-2.2135334 0.051029131 -3.9137213 3
-1.9531363 0.053183373 -3.9477279 2.5
-2.2466154 0.26913399 -3.9109168 4.5
-1.9311352 0.28014389 -3.9311278 4.5
-2.245352 0.55733705 -3.9044905 6
-1.9184184 0.54724956 -3.9369435 6
-2.2714586 0.69387484 -3.9009316 7.5
-1.9995795 0.77447176 -3.9550109 8
-2.258678 0.91794306 -3.9204888 9
-2.0061624 0.86091107 -3.9455428 9
-2.2752662 1.1086466 -3.922847 10
-2.1428614 1.1057662 -3.937191 10.5
-2.2135029 1.9630607 -3.9134252 16
-2.2095685 2.1633196 -3.8900905 17
-2.2359798 2.2796063 -3.9001746 18
-2.0737324 0.48146355 -2.6259642 7
-2.0708547 0.63019359 -2.6333885 8.5
-1.7154353 -0.10269549 -1.8224798 7
-1.9429622 0.099789657 -1.5867369 4
-1.9113084 0.38255599 -1.5116695 12
-1.9308587 0.54485977 -1.4526538 9.5
0.95995116 0.83297771 -1.4409475 14
0.94643116 1.1161691 -1.2474139 16.5
0.83721364 1.4355742 -1.3039343 21.5
-1.8629676 -0.099476561 -1.0056959 8.666667
-1.8627602 0.86016256 -1.0998471 15
0.90971816 1.3322196 -1.0140489 21
-1.8286357 -0.3259854 -0.96965921 4
-1.8848854 -0.079118043 -0.89743012 9.5
-1.7973703 0.57819313 -0.81516701 12
0.75135839 0.77087432 -0.80117536 15.5
0.92502248 1.3843646 -0.89427733 22
-1.4459016 -0.0039746352 -0.69351244 9.25
-1.7384968 0.085030079 -0.64935118 4
0.88362461 0.12462099 -0.67755377 6.5
-1.7599671 0.27478909 -0.65404707 7
1.0709754 0.37546873 -0.77645546 4
-1.768855 0.67205548 -0.70597661 13.5
1.1119316 0.67536807 -0.7113623 10
-1.7886074 0.89927197 -0.67390132 16.75
1.0724007 0.85929716 -0.68434829 13.666667
-1.740872 1.0123268 -0.63181657 19
-1.4049056 -0.12301368 -0.57464862 6
-1.3893955 -0.080518015 -0.57929051 7.5
-1.7514082 0.15071568 -0.53917772 5
0.90956265 0.078551941 -0.50396103 4.8333335
-1.7348704 0.27675182 -0.5474472 7
-1.7464312 0.56376666 -0.44599503 12
-1.7271372 0.74027926 -0.46275505 15.333333
1.14694 0.74269515 -0.43303439 11
-1.7286942 0.85301554 -0.40761879 17.5
1.1114599 0.85615516 -0.45881167 13.5
-1.3359028 -0.10063986 -0.26918882 7.458333
-1.6756293 0.11915722 -0.23377636 4.6666665
0.95203215 0.12528354 -0.31236136 6.5
0.94350123 0.34155238 -0.30825385 13.5
-1.7075793 0.5144304 -0.20934083 12
0.66542614 0.64977312 -0.22018677 15
1.1794401 0.71515387 -0.32830596 10
1.3485999 0.60385036 -0.24076256 7
-1.7117137 0.91426408 -0.32678229 18.5
1.1511209 0.81626266 -0.30522069 12.25
-2.210849 0.15973595 -0.15036248 15
-2.1768205 0.21178067 -0.15283047 16
0.99084032 0.34809643 -0.070632055 13.5
0.98290747 0.52185929 -0.032247346 18.5
0.98219979 0.60753 -0.044582851 21
1.3456614 0.71404403 -0.16378075 9
-1.6776518 0.91925496 -0.1563347 19
1.313692 0.85158473 -0.16894506 11.6
-1.7007337 1.0517116 -0.059509955 20.5
-2.23614 -0.37215745 0.15913099 5
-1.6149867 0.003568463 0.088829339 2
-1.3095977 0.035302162 0.1261899 11
1.0095699 0.093944527 0.14267401 5.5
-1.6405252 0.30769786 0.02849458 8.5
0.98687726 0.28967232 0.032231294 12
1.0129274 0.29211652 0.12228101 11.6
0.99635011 0.58921236 0.0020694092 20
1.016852 0.47242305 0.18046452 17
1.4378353 0.57227927 0.13534421 6
0.98886448 0.61825043 0.077938117 20.5
1.4007219 0.69594109 0.15109906 8
-1.6605831 1.0222503 0.19338264 20
-1.3025087 -0.023324281 0.21722114 9
-1.2903434 0.03831055 0.33437425 10
-1.6128097 0.3749499 0.39683607 10
-1.5951349 0.21816179 0.3047522 7
1.0293578 0.22788487 0.26882011 9.5
-1.6166831 0.49201989 0.35611096 12
1.0257127 0.43183672 0.20224194 15.5
1.0004066 0.66285253 0.20792198 21
-1.6456116 0.98267263 0.30233234 20
1.4075499 0.820804 0.31154221 10
-1.6451638 1.0814047 0.29985386 21.5
-1.1388854 -0.25026545 0.52145761 3
-1.5711797 0.10153389 0.51519954 4.3333335
1.0717583 0.12977673 0.58251941 6
1.0564736 0.2168923 0.57341433 8
-1.6048002 0.48660883 0.5523681 12
1.5024722 0.66392583 0.48646057 7
-1.6301638 0.96404892 0.40016857 20
1.4530814 0.81667173 0.572689 9.5
-1.644311 1.1109111 0.41020632 21
-1.5453264 0.089495435 0.76613671 4
1.0609152 0.13943237 0.66997296 6
-1.5653119 0.26839089 0.68771338 7.5
-1.5686737 0.5770129 0.73866218 13
1.4740613 0.50458759 0.63874346 5
-1.5737216 0.65027261 0.74016982 14.5
1.4296758 0.64174074 0.66821939 6.75
-1.5933294 0.94375682 0.61884189 19
1.3864415 0.895392 0.63675517 11
-1.555213 0.18949175 0.94039404 6
-2.5565183 0.39205325 0.93639004 15.5
-2.5372193 0.49313945 0.90237057 17
-1.5530906 0.55645591 0.97099966 12.5
1.1129525 0.54793972 0.91458023 14
-1.5663755 0.89292181 0.81136507 18
1.3120087 0.80214655 0.82332021 10
-1.0875335 -0.040861741 1.1596231 6
-1.5129726 0.086536527 1.0742059 4
-2.0499985 0.35038808 1.0990553 15
-1.5320344 0.3308413 1.0171088 8
-1.508535 0.55245346 1.0681753 12
-1.5515883 0.71633953 1.0263472 14
1.1801889 0.75641716 1.1689069 16.5
-1.5189623 0.89258033 1.0683957 17
-1.533566 1.0513114 1.0293546 19.5
-1.508811 0.014311422 1.2921085 3
-1.4899668 0.30350432 1.2522424 7
1.1752405 0.56215024 1.2063056 13
1.206249 0.53603971 1.2211342 12
-1.4900668 0.72419971 1.2678226 14
1.1846489 0.6635294 1.2359207 14.5
-1.4912097 0.84910262 1.2805684 16
1.1897492 0.92428505 1.3180639 18.5
-1.4453757 0.11650827 1.5017853 4
-1.4469821 0.2888352 1.4893489 7
-1.4484565 0.50114435 1.4923584 10
-1.1461308 0.48299035 1.467962 15
-1.4474169 0.63611412 1.4466649 12
1.2393335 0.52298272 1.6124767 10.5
-1.4764282 1.1008053 1.6255969 17.5
-1.4086089 0.25279009 1.9891089 6
-1.4204359 0.51392967 1.958688 9
-1.4309446 0.71254957 1.9095318 12
-1.4087789 1.1726611 1.9946064 17
-1.3955368 1.0245931 1.9965942 15
-1.3634378 0.16738334 2.1683147 5
-1.3732667 0.34265226 2.1383734 6.5
-1.4024185 0.72110754 2.016753 12
-1.4139581 0.86567104 2.0238419 13.5
-1.4193811 1.2188245 2.0069723 18
-1.3800193 0.48614892 2.2296443 8.5
-1.3744779 0.69070631 2.2242336 11
-1.3510915 0.92637324 2.5534763 12.5
-1.3403341 1.0271193 2.5281639 14
-1.2628772 1.1209643 2.7998798 14
-1.2610191 0.96619511 2.8476284 12.5
1.4452981 0.70107031 3.0719383 9
1.4531522 0.81961238 3.0777342 10
1.470963 1.0910069 3.076158 12.5
1.4397514 1.2101772 3.1103997 14
0.60977328 1.9391096 3.7816103 16
0.54946971 2.1330774 3.7308922 17
-0.87750256 1.4550245 3.8719335 15.5
0.41693422 0.90153706 4.2658792 8.5
2.4716759 2.5883062 4.2603483 14
0.75978875 0.73365551 4.4747906 7
2.0510631 2.3111022 4.4247866 14
2.2035375 0.17334634 4.7106438 3
2.1842225 0.40138757 4.7939949 4
1.5287906 1.3425682 4.6718111 9
1.4622689 1.5167549 4.6096954 10
2.1486001 0.6500082 4.8996186 5
2.5368819 0.75923842 4.8125424 5
-0.81234658 0.15641777 6.0323601 3
-0.81727093 0.22165364 6.0243502 4
-0.84398723 0.92718756 6.0561194 7
-0.8056255 1.1140575 6.0865402 8.5
-0.82087296 1.4531169 6.0679235 10
3.3273492 1.7471859 6.5958524 7
3.162461 2.2691202 6.635735 9
3.3814416 2.3368833 6.6166453 9
3.1568627 2.5836849 6.6830082 10
0.61424696 1.8012398 7.1511202 9
3.0000865 0.69707769 7.3384504 3
3.5073435 0.68557358 7.2528491 3
3.2620089 0.94149357 7.3960681 4
3.5342076 0.98567224 7.2504067 4
3.3517294 1.1925082 7.3084898 5
3.2892983 1.4594507 7.3368006 6
2.7532997 0.69177455 7.4866533 3
2.86289 1.019971 7.4079342 4.5
2.6855812 1.4392325 7.519732 6
3.062716 1.4540056 7.4335556 6
2.4496381 0.17601269 9.9367867 3
2.5913801 0.35815966 9.9550581 4
2.690691 0.2234095 9.8933439 3
2.4603066 0.86358941 9.9722042 5
2.7071879 0.84256095 9.9461031 5
2.7050879 1.0147908 9.913063 6
2.7190232 1.3406425 9.9667892 7
2.6431646 1.812762 10.002785 8
