# .PCD v0.7 - Point Cloud Data file format
VERSION 0.7
FIELDS x y z intensity
SIZE 4 4 4 4
TYPE F F F F
COUNT 1 1 1 1
WIDTH 1167
HEIGHT 1
VIEWPOINT 0 0 0 1 0 0 0
POINTS 1167
DATA ascii
-2.2752662 1.1086466 -3.922847 10
-2.1428614 1.1057662 -3.937191 10.5
-2.2719028 1.3858278 -3.9198132 12.012
-2.268275 1.5961615 -3.9232044 14.012
-2.8321671 1.982392 -3.9300981 20.0145
-2.2327218 1.9729352 -3.918288 16
-2.0565522 1.9178185 -3.9529378 16.011
-2.5487032 2.0347021 -3.924113 21.013
-2.4363127 2.0976772 -3.9653962 21.008499
-2.3673277 2.1303096 -3.9597418 20.01
-2.1387546 2.1542091 -3.9332237 22.008751
-2.0466437 2.155916 -3.9914577 22.01
-1.8444717 2.145463 -3.9359579 21.0065
-2.2193947 2.2668133 -3.9058666 17.833332
-1.9493451 2.2575312 -3.9447057 18.0105
-1.8547342 2.2528715 -3.9423881 21.208
-1.7352955 2.2776127 -3.9556119 22.50425
-1.4059737 2.2866595 -3.9410727 23.006001
-1.3385752 2.2923765 -3.9811268 22.005501
-2.2631752 2.3245723 -3.909606 18.011999
-2.0487399 2.3453281 -3.9286277 18.011
-1.6444335 2.3914461 -3.9722645 19.009001
-1.9455975 2.4523671 -3.9417443 19.0105
-1.8529119 2.4207721 -3.9748991 19.01
-1.7569387 2.4505062 -3.9907713 19.009501
-2.0503917 2.533349 -3.928041 19.511
-2.6082172 2.0332065 -3.8541169 21.0135
-2.5404208 2.0657017 -3.8048084 22.009501
-2.4805634 2.0697308 -3.8725126 22.009001
-2.45976 2.1133599 -3.852016 20.01075
-2.3365872 2.1616981 -3.8759549 21.01
-2.2122097 2.1475039 -3.8638897 19.50375
-2.146544 2.120177 -3.8142135 22.011
-1.4042954 2.1940775 -3.8088405 22.004
-2.058419 2.2418702 -3.8070352 23.0065
-1.8922687 2.2412713 -3.8969016 21.0075
-1.7235001 2.2983932 -3.8902884 21.0065
-1.5708358 2.2576165 -3.8230269 23.00725
-1.5532744 2.3312755 -3.8378818 22.254375
-1.3197718 2.3137953 -3.8102007 23.005501
-1.2466934 2.3250756 -3.8217409 23.004999
-1.1378222 2.3449819 -3.8452308 23.00425
-1.3858635 2.4764221 -3.8091662 20.007999
-1.2126248 2.4272513 -3.8398385 20.007
-1.0235281 2.4971485 -3.8283346 21.006001
-2.2508919 2.5566418 -3.8931854 19.011999
0.14732364 2.6975768 -3.8502352 23.1355
1.0933329 2.7989385 -3.832536 20.132999
-2.658885 2.0257518 -3.7737796 21.014
-2.5671282 2.0744536 -3.723937 21.51075
-2.4051423 2.0914443 -3.798744 22.012501
-2.3179166 2.1094856 -3.7138236 22.008499
-2.2545638 2.1089621 -3.7558441 22.010498
-1.5480677 2.1807835 -3.7249577 22.004999
-1.4740684 2.1747739 -3.7454162 22.004499
-2.0932117 2.202956 -3.7041006 21.009001
-1.9097825 2.2553277 -3.7360384 23.005751
-1.8575135 2.2680736 -3.7564499 22.0075
-1.757017 2.2619193 -3.7466791 23.005999
-1.6677595 2.238241 -3.7493987 23.007999
-1.4534858 2.2884829 -3.7828748 23.0065
-1.619767 2.3231509 -3.7658701 22.006001
-1.3748347 2.3982365 -3.7592022 22.004499
-1.5634909 2.4595909 -3.7705793 20.009001
-1.4522326 2.4652379 -3.7340713 21.008499
-1.3112075 2.4085557 -3.7964876 22.004
-1.1755165 2.4964104 -3.7405603 21.007
-0.91104811 2.4727681 -3.7403853 21.005501
-2.1318502 2.5616825 -3.7009788 20.011999
-2.6690233 2.026783 -3.6652842 22.012501
-2.4575937 2.0703063 -3.6498961 22.01325
-2.3451462 2.1526856 -3.6235948 22.00975
-2.2537494 2.1834831 -3.6129425 23.008249
-1.6605186 2.1723666 -3.6657329 22.505751
-1.7084258 2.2944863 -3.6856666 22.00675
-1.4114946 2.2874649 -3.6838851 23.004
-1.4360831 2.3585458 -3.6907291 22.004999
-1.3332936 2.3118534 -3.6421549 23.0035
-1.2383279 2.4751041 -3.6559377 21.0075
-1.0811026 2.4909909 -3.6840806 21.0065
-0.72242838 2.46087 -3.6382687 22.004499
0.42775759 0.94129497 -3.5577669 13.1265
0.45630512 1.1428037 -3.5805991 15.12625
-2.5745082 1.5639744 -3.5054135 19.51125
-2.6098628 2.0609725 -3.5348556 23.0145
-2.4196932 2.0826235 -3.578047 23.009501
-2.4874563 2.1348197 -3.5041533 23.01
-2.3810737 2.1169865 -3.5846233 21.011
-2.211565 2.1756513 -3.5769174 22.01
-2.1607757 2.1019256 -3.5955756 22.009001
-1.8173634 2.139806 -3.536557 23.007
-1.9511342 2.2035692 -3.5590155 22.008499
-1.8761923 2.2538848 -3.5491178 22.007999
-1.5641062 2.2055547 -3.5258124 23.005249
-1.7273487 2.3121119 -3.5675967 23.007
-1.6167594 2.333498 -3.5881076 23.00625
-1.7595774 2.4804993 -3.573514 21.0105
-1.6656009 2.493675 -3.5668168 21.01
-1.554503 2.4785933 -3.5318973 21.009501
-1.4231817 2.4030585 -3.5390496 23.004999
-0.86261255 2.4597909 -3.5173686 22.005501
-0.79002523 2.4496033 -3.5620863 22.004999
-0.45501137 2.4884634 -3.5104496 23.003
-0.69722712 2.5093415 -3.5015526 23.004499
0.31974712 2.6437178 -3.5816154 22.636499
-2.3032544 1.0772876 -3.4881601 16.014
0.55638134 1.2022703 -3.4089508 16.125
0.43058589 1.3231866 -3.4467263 17.125999
-2.6578639 1.4876547 -3.4487307 19.011999
-2.4809043 2.0861771 -3.4248757 22.011999
-2.638135 2.1178217 -3.4448867 23.011124
-2.2816901 2.144922 -3.4611928 22.01075
-2.0426788 2.1520007 -3.4336972 22.508999
-1.7343143 2.1726003 -3.4843087 23.0065
-1.9248824 2.2296176 -3.479713 23.008499
-1.8507811 2.2576437 -3.4731104 23.007999
1.0168703 2.2449417 -3.4088356 20.133499
-1.2664341 2.4947305 -3.4754851 22.007999
-1.0828069 2.4857576 -3.4213278 22.007
-0.99737388 2.4660673 -3.4045281 22.0065
-0.60911542 2.513097 -3.4586203 23.004
0.41110602 2.5786254 -3.4675009 22.13575
0.40507999 2.6697977 -3.4936943 23.13575
0.50699878 2.6870701 -3.4407842 23.135
0.61099696 2.6045461 -3.4290957 22.134501
0.73966843 2.6424444 -3.4349942 22.133751
0.87744582 2.6790233 -3.435483 21.132999
0.4041529 0.4972218 -3.3684487 9.1265001
0.62228608 0.82280761 -3.3385835 12.1245
0.30309883 1.1219589 -3.3895404 16.127001
0.5356223 1.4326844 -3.3357458 18.62475
-1.3793968 1.9916956 -3.3319328 23.004499
-2.355988 2.1208093 -3.3601947 22.011499
-2.1129475 2.162503 -3.3705156 23.01
1.0082412 2.1798136 -3.3350699 18.1325
1.1002505 2.1495605 -3.3639641 19.132999
-2.0120597 2.205127 -3.3911963 23.009251
-1.0546293 2.4689562 -3.3610976 23.007
-0.99232662 2.4796534 -3.3964019 23.0065
-0.81699264 2.4753218 -3.3421798 23.005501
-0.73791873 2.4842057 -3.3391368 23.004999
-0.52065247 2.4742782 -3.3882103 23.0035
0.64098644 2.7049236 -3.3573329 23.134001
0.63710427 0.81285954 -3.2449718 12.124
-2.1652775 0.99916422 -3.2345326 11.0135
0.45835283 0.95520383 -3.2832172 14.1255
0.56957841 0.97458154 -3.2520804 14.1245
1.0838597 1.1025676 -3.2120159 10.13
-1.5398232 1.5322816 -3.2361679 20.0065
-2.1871271 1.6701388 -3.2434781 20.011499
-2.6867061 2.0386682 -3.2884572 23.011999
-2.2190516 2.1722388 -3.2320793 23.011
-2.1565602 2.1791987 -3.2768776 23.0105
0.74964774 2.1894245 -3.2120776 20.133499
-2.1797047 2.4629271 -3.2581084 21.0135
-1.1757389 2.4586051 -3.2197857 23.007999
0.69687986 2.69154 -3.2893407 23.133499
0.77043664 2.7211764 -3.2675714 23.132999
0.82185066 2.722158 -3.2214134 23.1325
-1.5237627 0.35744965 -3.103724 10.011
-2.0734246 0.65472221 -3.1057358 8.0135002
0.35188136 0.7202062 -3.1073303 12.126
0.43118468 0.73456484 -3.1660967 12.1255
-2.4478884 0.80432558 -3.1212678 14.0165
-1.9942448 1.1916678 -3.1196446 13.013
0.57158351 1.1131327 -3.1408479 16.124001
0.55915821 1.3439909 -3.157166 18.124001
0.69681692 1.300372 -3.1693709 18.122999
-2.4028473 1.9734559 -3.139374 23.005501
0.8369242 2.0966675 -3.169157 19.132999
-2.3209908 2.1287539 -3.1071162 23.011999
-2.2640865 2.1404142 -3.1558111 23.011499
-2.0875056 2.4978948 -3.1271484 22.0135
-1.7905493 2.5111814 -3.1051004 23.011999
0.47629312 2.5682724 -3.1669908 23.134501
0.86584949 2.6386817 -3.1116357 22.132
0.95149899 2.6580427 -3.1037078 22.1315
0.89493835 2.7522461 -3.197042 23.132
0.94348586 2.7349312 -3.1222382 23.1315
-2.0909212 0.62610036 -3.0276499 13.0115
-1.6101298 1.1953472 -3.0005937 18.007999
-1.54065 1.1890877 -3.0002933 18.0075
-2.2013464 1.2901522 -3.0989277 19.0145
-2.6382771 1.6316242 -3.0502687 21.017
0.48945859 1.6931301 -3.0540519 23.124001
-2.3782811 2.1239243 -3.078872 23.012501
-2.1395624 2.4985166 -3.0622079 22.014
-1.9315392 2.492939 -3.0225539 22.013
-1.8757839 2.4880817 -3.0909753 22.012501
-1.6760657 2.4873617 -3.062993 23.011499
-1.5915419 2.4805961 -3.0458426 23.011
-1.3518376 2.4667368 -3.0661237 23.009501
1.0292704 2.6565857 -3.0760968 22.131001
1.1178551 2.6973679 -3.0907776 22.130501
-1.5351812 0.44184822 -2.9571953 11.0115
-2.2563844 0.51560557 -2.9429545 12.0165
0.58352673 0.70014709 -2.9722731 12.1235
-0.32743511 1.0936626 -2.9922898 19.13225
0.93000185 1.250964 -2.9019673 13.1295
0.36913732 1.4197062 -2.9976239 21.125
0.78026354 2.0838356 -2.9402792 20.1325
0.47088531 2.2360644 -2.9637487 23.1315
-1.4332196 2.4645724 -2.9895153 23.01025
-1.4934036 0.52625775 -2.8082647 12.0115
-2.1910999 0.76443142 -2.8889754 15.016
0.69965029 0.76029497 -2.8757558 13.122
0.42070231 0.91482449 -2.8948572 15.1245
0.40930697 1.0150775 -2.8968921 17.1245
0.6407553 1.1590276 -2.8303716 18.122
-2.3638842 1.264731 -2.8693535 19.007
-1.7991917 1.3208258 -2.8623264 21.012501
0.6394043 1.3773789 -2.8488972 20.122
-2.0234795 1.5597596 -2.8229713 23.014
-2.2513762 1.6025993 -2.8057845 21.0135
-2.0036092 1.6935813 -2.8676531 17.014
0.37860718 1.7891704 -2.8606701 20.1325
0.85755122 2.168963 -2.8876395 20.63175
-2.1056657 2.2758753 -2.8757248 21.0145
-1.7331798 0.25236726 -2.7717237 10.011
-1.4702289 0.28489161 -2.7403307 10.012
0.47352496 0.50130081 -2.7147501 10.1235
0.47062251 0.72681665 -2.7535799 13.1235
0.53908193 0.77584022 -2.7903316 14.123
-2.0667076 0.92600578 -2.7004795 11.015
0.48286262 0.90083122 -2.797245 15.1235
0.63209426 1.1231885 -2.7115953 18.1215
-2.1308198 1.4500535 -2.7734244 21.006001
-2.1436715 1.5601844 -2.7822962 21.013
-1.5429593 1.5877334 -2.705266 23.0075
0.67941707 1.5693672 -2.7402096 19.133751
-2.0926042 1.6156882 -2.7307365 17.014999
0.83398557 1.800114 -2.7060964 19.1285
0.29098514 2.0688553 -2.7897592 23.1325
0.53966284 2.0517032 -2.7033694 23.134001
0.87719047 2.1571569 -2.7440667 21.131001
0.97930181 2.154726 -2.7001212 20.630249
0.38105491 2.3049273 -2.7657862 23.1355
-1.9161975 0.15033595 -2.6781204 8.0159998
-2.0714083 0.29240724 -2.6303062 5.5
-1.7404827 0.3389852 -2.626231 11.0115
-2.0737324 0.48146355 -2.6259642 7
-1.9706917 0.41514909 -2.623528 11.0145
-1.5672969 0.49571824 -2.6040721 13.013
-2.0688989 0.59088814 -2.6415837 8
0.49070916 0.50748497 -2.6627138 10.123
0.53134108 0.52441829 -2.6456435 11.1225
-2.116271 0.61244822 -2.6346803 8.0155001
-2.0809026 0.64255762 -2.6240282 8.7577496
0.47195104 0.62188977 -2.6433356 12.123
0.64717638 0.77796263 -2.6146681 14.121
0.70739508 0.71501392 -2.6886673 13.121
0.65954018 1.0357611 -2.6543789 17.121
-1.5965649 1.102442 -2.6190658 19.009001
0.66649818 1.1567822 -2.6753194 19.121
-1.581467 1.2578471 -2.6443408 21.008499
0.66077435 1.2791557 -2.6934028 20.121
-1.7346269 1.3318908 -2.68838 21.009501
-2.2049947 1.4536706 -2.6921828 22.007
-2.0861433 1.4472052 -2.6025453 16.015499
-1.5800066 1.4913002 -2.6775422 23.007999
-2.3057506 1.5816007 -2.6271183 23.007999
0.9686836 1.5564994 -2.686559 17.1315
-2.0923681 1.8211571 -2.6197848 19.015499
0.55500579 2.022676 -2.6251798 22.13275
0.64660203 2.0418236 -2.6395433 23.132874
0.75250471 2.0571079 -2.6117764 23.132
-2.101366 2.1304119 -2.626482 21.015499
-2.1157885 2.2462769 -2.6305535 22.015499
-2.1820254 0.45789379 -2.5540974 13.018
0.4882392 0.5924238 -2.5623345 12.1225
0.62993884 0.55995941 -2.5134618 11.12075
0.52586198 0.69205064 -2.5614369 14.122
0.49639049 0.74173659 -2.5595171 14.62225
0.53181374 0.8522712 -2.5539861 15.955083
0.79441071 0.89357603 -2.5103498 15.119
-2.131407 0.9415983 -2.5347965 12.016
-1.6703176 0.99979722 -2.5768147 18.01
0.55015874 0.97569627 -2.5157316 17.62125
-1.7450026 1.0484172 -2.5226431 20.014
0.72535324 1.0629413 -2.5967624 18.120001
-2.1505885 1.1632638 -2.5543957 13.016
0.67825139 1.153704 -2.5800264 19.120251
-2.1581225 1.26508 -2.5647023 14.016
-2.0201192 1.2134773 -2.5347404 21.012501
-2.0477576 1.3621271 -2.5598493 15.0155
-1.6239783 1.4084847 -2.5196688 23.009001
-2.1131194 1.5607136 -2.5867198 23.007
0.87697291 1.7313933 -2.5555208 19.127501
-2.1555152 1.8386669 -2.5707784 19.016001
0.55627751 1.8653972 -2.5069082 20.134001
0.47821549 2.0065384 -2.5423915 22.134501
-2.194361 0.079194471 -2.4822395 8.0190001
-1.4690292 0.069203615 -2.41552 8.0105
-1.8344209 0.25621301 -2.4941587 9.0144997
-1.7596021 0.21079792 -2.4283106 10.016
-1.5301961 0.221498 -2.431982 10.014
-2.2758408 0.37990659 -2.4186223 12.0195
-1.6945494 0.42681718 -2.4805384 12.0115
-1.5852613 0.59826297 -2.4005902 15.014
0.52501488 0.55955648 -2.4693947 12.1215
0.61509776 0.55326444 -2.4540679 12.1205
-2.1028521 0.62384993 -2.4106975 9.0165005
-1.5914658 0.63524073 -2.485939 15.0135
0.74297202 0.65819871 -2.4176779 13.119
-1.8658969 0.79473311 -2.4354448 17.012501
0.63955224 0.75208265 -2.4390175 14.62
1.2899115 0.77403313 -2.47521 8.1289997
-2.3540335 0.84474158 -2.4894311 17.015499
-2.2475009 0.88099152 -2.4450295 18.018499
0.53158736 0.84246486 -2.4278367 16.121
0.60612512 0.88653773 -2.4004824 17.120001
-2.0390205 0.96611238 -2.4118171 17.511499
-1.7225246 0.96570981 -2.4364004 19.011
0.90485394 0.96385795 -2.4729681 11.128
-2.1166492 1.0672423 -2.4100654 20.0175
1.0774639 1.0883076 -2.4623621 12.1265
-2.1165957 1.1160145 -2.4153011 13.0165
-2.01247 1.1488199 -2.4106903 19.0145
0.46493134 1.11115 -2.4318252 20.1215
0.68837643 1.150824 -2.4726806 19.619499
-2.1439807 1.2664833 -2.4232886 21.008499
0.78728068 1.2720742 -2.4682562 20.1185
-2.1420515 1.3079427 -2.4537957 15.0165
-2.0717914 1.3538953 -2.48545 22.0075
0.34153399 1.3312668 -2.4396415 19.131874
0.53857994 1.3051829 -2.4890499 22.121
-2.2534726 1.4507327 -2.4735751 23.014
0.47948512 1.4534377 -2.4490395 19.130501
0.60120094 1.457911 -2.4695561 18.129499
-2.25811 1.51094 -2.443661 23.009001
0.74662125 1.5125238 -2.4773982 17.1315
0.39299899 1.6805772 -2.4431982 23.134501
0.59277236 1.6563504 -2.4934828 18.134001
1.1961792 1.8065422 -2.4114988 18.1245
0.53222716 1.9105521 -2.4955881 21.134001
-2.2401052 2.2890306 -2.4473422 22.017
0.87708366 2.2059901 -2.4107029 23.125999
-1.4636301 0.25926113 -2.3040271 11.0105
-1.9185618 0.36501333 -2.3755686 12.014
-1.9012178 0.44197199 -2.3621588 12.01525
-1.5984635 0.45074648 -2.3715093 13.0145
-2.1309733 0.58373654 -2.3804414 15.0185
0.73549032 0.59348911 -2.3446922 12.1185
0.5851084 0.63231754 -2.3322411 9.1304998
0.66026956 0.68346977 -2.356905 11.3745
-2.0107608 0.75879902 -2.3435664 15.0155
0.56016839 0.78764808 -2.3543038 16.120251
-0.95859009 0.89775598 -2.3354278 19.007
0.63451636 0.82149982 -2.3635437 16.119499
0.79900885 0.83794868 -2.3763301 15.118
0.55097198 0.92498457 -2.3982346 17.620501
0.68087 0.94995862 -2.3527789 15.124
1.1639149 0.9126792 -2.3772721 10.129
-2.2708731 1.0686942 -2.3469069 20.015499
-1.6843798 1.001991 -2.3299789 20.011
-2.1392984 1.1469778 -2.3239346 20.009251
0.4053832 1.1442412 -2.3109825 17.131001
-2.1221416 1.2278215 -2.3315287 17.513
1.1343632 1.2264371 -2.3116519 14.1285
-1.7333455 1.3564968 -2.3864112 23.0105
0.73667824 1.374696 -2.3571377 18.1315
1.0538582 1.3020191 -2.329277 15.129
0.17889449 1.4294503 -2.3808198 21.132999
0.74695182 1.4200212 -2.3016925 23.1175
0.96542537 1.5597825 -2.3349006 19.129499
0.49658158 1.7534152 -2.3098629 23.129
0.52006912 1.8365703 -2.3110559 21.633499
0.87236273 1.9170784 -2.3791978 22.129999
-2.1633186 0.075326309 -2.2167065 9.0205002
-1.5569234 0.068304896 -2.2546759 8.0120001
-1.7678283 0.13491079 -2.2144442 9.0174999
-2.2069516 0.29674751 -2.2133298 12.0205
-2.1318142 0.22892347 -2.2362039 8.677
-1.8732922 0.24082737 -2.2419901 11.018
-1.5493177 0.201932 -2.2060091 10.0155
-1.7593066 0.39816082 -2.2729983 13.013
-1.5899961 0.44390762 -2.2670298 13.0115
0.75126195 0.49380204 -2.2244995 11.1175
-2.0352619 0.56673151 -2.295378 15.015
0.6138761 0.56088489 -2.2788444 8.1300001
-2.0721221 0.60500193 -2.2545567 9.0170002
-1.8827667 0.64924592 -2.2649345 14.51525
-1.6286912 0.65617067 -2.2464304 16.011499
0.57906926 0.68465769 -2.2727396 15.1195
0.62297797 0.69986922 -2.2594199 10.1295
0.70145404 0.63473272 -2.2368224 13.618
0.8030901 0.67135149 -2.2694662 13.61725
-2.0879591 0.75588107 -2.2813752 10.517
-1.7800723 0.78830117 -2.2377064 18.013
0.82788742 0.70719391 -2.2057862 14.1165
-1.761225 0.8169257 -2.2562838 19.016001
0.58821779 0.87296939 -2.2564068 17.619125
0.71563458 0.84203172 -2.2750456 14.12325
0.94988042 0.8916539 -2.2295015 11.12625
-2.0458658 0.94432408 -2.2228508 19.009501
0.47180983 0.94347364 -2.2144766 20.120001
0.58629048 0.93642455 -2.2490566 19.118999
0.70297837 0.96121711 -2.2393973 18.11775
0.7346248 1.0684984 -2.2672372 16.622749
0.48320797 1.1429708 -2.2694087 17.129999
0.58778715 1.1572143 -2.2714629 21.118999
0.71088386 1.1498039 -2.2336068 21.1175
-2.1230543 1.2313712 -2.2114367 22.01
-1.9110477 1.2023455 -2.2005963 23.017
-1.7877848 1.2146453 -2.2134597 23.011999
0.95341837 1.2011188 -2.2682965 14.126
1.1655756 1.3971689 -2.2177744 16.124001
0.32212663 1.4314451 -2.2590594 22.134501
0.6411134 1.4841025 -2.2666533 19.128
0.62697995 1.5872642 -2.2015498 19.1325
0.55103934 1.6840028 -2.2018027 22.128
1.2826631 1.6795368 -2.2249475 18.122999
0.53670979 1.7525973 -2.2052138 21.132999
0.58839905 1.8839767 -2.2506037 22.1325
0.89635861 2.0846303 -2.2447109 23.125
-1.9649351 0.15455845 -2.1423604 8.0100002
-1.7735569 0.10817648 -2.1685948 8.5170002
-1.6016632 0.16970658 -2.1780083 10.0125
-1.504638 0.15884015 -2.1612673 9.5117502
-2.2105742 0.2644217 -2.1555476 11.021
-2.132005 0.21080792 -2.1568975 8.0109997
-1.9028221 0.26568034 -2.1111286 10.017
-2.1181371 0.37917474 -2.1451788 11.011
-2.1182272 0.44675598 -2.1391993 12.011
-2.0547986 0.40038377 -2.1201501 13.02
-1.6636258 0.43641371 -2.1939747 14.0125
0.75323582 0.47941494 -2.1658547 11.117001
-2.0482154 0.56276435 -2.1478047 9.0174999
-1.7817515 0.53911823 -2.1562364 15.0135
-1.6435893 0.51705354 -2.1745834 15.01225
0.66854042 0.55653626 -2.1581962 9.4584169
0.66366315 0.65924877 -2.1341116 11.402555
0.82727599 0.6186654 -2.1386244 13.116
0.60167348 0.71597111 -2.1767797 15.1185
0.84501863 0.7145468 -2.1163135 14.1155
-1.7130234 0.83497977 -2.1288338 19.012501
-1.6759273 0.80568373 -2.1647139 18.011999
0.62182176 0.80518305 -2.1030817 17.1175
0.72365749 0.82523698 -2.1058135 17.116501
-2.0682058 0.9093346 -2.1501095 12
-1.9459326 0.9481554 -2.1932316 20.014
0.71974039 0.97415215 -2.1435578 19.116751
1.0343398 0.95807809 -2.1579273 13.1285
-2.2575083 1.073494 -2.1452882 20.011499
-2.1085556 1.0058992 -2.1351242 20.014999
0.44316325 1.0471239 -2.1869762 21.120001
0.54438716 1.0707922 -2.1201699 15.878625
0.65616578 1.0730252 -2.1646516 20.6175
0.78763413 1.0726078 -2.1935127 14.127
-2.0471606 1.156106 -2.1007042 22.0105
-1.9909737 1.1254101 -2.1648529 21.009501
-1.8225528 1.1210257 -2.1143415 22.013
-1.7990811 1.1585274 -2.1520791 22.012501
-1.6729684 1.1364765 -2.1955721 23.014999
0.71825337 1.1489339 -2.1281471 21.116501
0.96067178 1.1675992 -2.1910148 15.12725
1.0257895 1.1786232 -2.1860504 15.6285
-2.0440254 1.2534642 -2.1421404 19.01375
0.66424143 1.2326185 -2.1432216 18.131001
0.94916624 1.2642896 -2.1550233 17.12875
0.3623367 1.3482732 -2.132591 22.133499
0.7587415 1.3357826 -2.1844435 23.116501
0.65987289 1.4246441 -2.1047397 18.132
0.96235025 1.468944 -2.1718042 19.1285
-2.0926011 1.5059378 -2.19504 18.0175
0.66313344 1.5366644 -2.1325099 19.795168
0.75770295 1.5217371 -2.1260047 19.129499
0.92138302 1.5373535 -2.1623492 19.125
0.779176 1.7075652 -2.114347 21.129
0.65487766 1.876107 -2.1721826 22.129999
0.52236319 1.9531715 -2.1573749 23.1325
0.84324586 1.9823079 -2.1653137 22.1285
0.9063046 2.0423071 -2.1819715 23.1245
-1.5627741 -0.042199653 -2.0583262 7
-1.648659 0.051945202 -2.0608287 8.5157499
-1.5343943 0.091935262 -2.0680103 9.0144997
-1.9855828 0.16241828 -2.0001123 8.0115004
-1.8220553 0.16931783 -2.0549979 10.019
-1.7244749 0.1143991 -2.0769901 9.0152502
-1.2572987 0.17284578 -2.0443032 9.0105
-2.2052636 0.23548494 -2.0903444 11.0215
-1.9701309 0.23921105 -2.0326495 9.0109997
-1.6389664 0.25930679 -2.0860193 12.017
-2.0180523 0.36875772 -2.022135 13.0205
-1.7798959 0.35649535 -2.0386493 13.0145
-1.6711502 0.35488394 -2.061955 13.515375
-1.597831 0.34067363 -2.0584695 13.0135
-2.0691912 0.48846444 -2.0695508 15.017
-1.8874651 0.4318935 -2.0501976 13.017
-1.6414747 0.47181785 -2.0525942 15.016875
0.45809993 0.42687827 -2.0782015 11.6195
0.81203115 0.44724825 -2.0349612 10.11525
-2.2076659 0.55545121 -2.0487802 13.51225
-2.0771642 0.53477055 -2.0441911 14.0115
-1.7712233 0.50374717 -2.0706308 15.014
0.71979177 0.57216614 -2.0870371 13.1165
-1.6647359 0.60768706 -2.0399988 17.013
-0.81987226 0.69307536 -2.0060606 19.0065
0.68615556 0.66805077 -2.0575445 15.1165
0.7159332 0.60584539 -2.0539255 8.6274996
0.82667923 0.6145255 -2.0337579 13.115
-2.2664974 0.73003292 -2.0493333 18.0215
-1.9663994 0.72999775 -2.0516872 11.0175
-1.7024509 0.70763493 -2.0594406 18.013
-1.009233 0.72607774 -2.0341966 19.009001
0.65452933 0.77002376 -2.0850186 17.117001
0.71494997 0.75049889 -2.0863223 11.1275
1.2041692 0.72647297 -2.0385692 8.1269999
-2.181989 0.86505818 -2.0867803 19.017
-2.0456505 0.89883405 -2.0487046 12.018
-1.9671518 0.82785296 -2.0951688 17.0165
-0.89330798 0.87301707 -2.0430987 22.007
0.73458791 0.83324206 -2.0632815 17.115999
0.81248701 0.88119704 -2.0679634 17.11525
0.9498533 0.82572192 -2.0386515 11.125
-0.66572571 0.96534234 -2.0160637 23.0035
0.69523466 0.98741239 -2.0342 19.615999
0.73955607 0.97536415 -2.0431154 14.1265
1.0224965 0.95139521 -2.0699847 13.128
-2.2558694 1.063122 -2.0359089 20.012501
-2.0547051 1.0334933 -2.0532696 13.518
-1.9380594 1.0270065 -2.0787387 19.016001
0.59139884 1.0495609 -2.0166917 16.127501
0.67271787 1.0534437 -2.0580215 17.290167
1.0692489 1.0916317 -2.0732675 13.124
-2.3118291 1.1487677 -2.0064197 22.0215
-2.030077 1.1044307 -2.0348473 22.011
-1.981738 1.1151083 -2.0868306 23.014999
0.68301111 1.1837648 -2.0669787 22.616249
0.74966013 1.1516238 -2.0532846 21.782166
0.97538793 1.1336774 -2.0243781 16.12775
1.2065793 1.1019475 -2.0261385 13.1265
-2.1194584 1.2964442 -2.0930517 23.011
0.74231958 1.2434883 -2.0258374 23.11525
0.72309321 1.3631303 -2.0550704 18.62775
0.97830915 1.3648001 -2.0939634 18.128
-2.1418283 1.4615952 -2.0957844 23.0165
0.68787873 1.446944 -2.0581357 18.1315
0.95867527 1.4198943 -2.0833631 19.128
0.59610188 1.5912194 -2.0608599 22.126751
0.59444058 1.8582543 -2.0544646 22.6315
0.92742503 1.9362293 -2.0363486 23.123501
-1.6866614 0.061077476 -1.9961582 9.0144997
-2.096755 0.17551446 -1.99845 8.0122499
-1.8169948 0.13924961 -1.9899502 10.0195
-1.7897846 0.17212023 -1.9478579 9.0174999
-1.6466461 0.14883809 -1.9577038 9.5172501
-2.138073 0.26846984 -1.9944372 10.0125
-1.9284184 0.23369157 -1.9063506 10.012
-1.8762745 0.26979196 -1.9889588 10.01075
-1.7433388 0.27974883 -1.9658184 11.51575
-1.6669078 0.24683009 -1.9262607 12.0185
-1.4321429 0.27496943 -1.9862061 12.0125
-2.1272714 0.35558116 -1.9362047 13.022
-1.7583941 0.38334012 -1.9132429 14.015
-2.1117082 0.44617632 -1.9931927 12.01225
-1.9615996 0.49805424 -1.9153709 14.012
-1.6836565 0.43394542 -1.9645562 14.516
-1.3978813 0.49442896 -1.9325204 16.011999
0.77765369 0.47559538 -1.9752033 11.115
-2.118845 0.51244122 -1.9137304 16.018499
-1.9853728 0.50952053 -1.9050757 8.0185003
0.49372491 0.59471267 -1.9127779 16.11725
0.7549715 0.56630403 -1.9717106 9.7894173
-1.7338041 0.6027711 -1.9717468 17.014
0.68002772 0.64397615 -1.9447947 15.1155
0.75403589 0.66382915 -1.9359407 11.23339
1.0275604 0.6588909 -1.9601188 8.1239996
-2.0343838 0.78550416 -1.9455059 11.0185
-1.9460071 0.72094518 -1.9227237 19.016001
0.74451828 0.73758876 -1.9704826 16.115
0.94215214 0.75746131 -1.917267 9.1269999
-2.0207412 0.88744611 -1.935987 12.0185
-1.9909233 0.87426972 -1.9659626 19.011499
-1.8097054 0.80107665 -1.9505022 20.0145
0.75067949 0.85798943 -1.9565315 18.11475
0.84544897 0.86077422 -1.9704051 17.114
-1.7478147 0.99268728 -1.9087329 23.018
-1.5423487 0.99599928 -1.9113073 23.012501
0.77690554 0.94405234 -1.9519494 13.6255
0.84858936 0.96864593 -1.9563954 13.62675
-2.0474663 1.0692637 -1.9837502 21.514
-1.8394965 1.0723146 -1.9760257 23.014
0.61954772 1.0807918 -1.9341834 17.126499
0.75318885 1.0048062 -1.9492519 20.447832
1.0535302 1.085889 -1.9286671 14.123
-2.2906485 1.1286795 -1.9266593 23.021999
0.40506953 1.1519151 -1.9590399 20.13225
0.68381774 1.1118091 -1.9755173 16.626249
0.73629212 1.1976186 -1.9282553 22.781
0.82020748 1.1656967 -1.9648119 18.87125
0.94533491 1.1417317 -1.9008336 16.627001
1.0047826 1.1006038 -1.9866288 14.1275
-2.1250274 1.2178053 -1.9943278 23.011999
-2.0336201 1.2409343 -1.941071 16.018499
-1.9928206 1.210452 -1.9504685 23.011499
0.42081088 1.2248392 -1.9523083 21.131874
0.65304029 1.2264731 -1.9429343 18.125999
0.74110132 1.2333057 -1.9437099 16.796165
1.1188296 1.2922202 -1.9108549 15.126
0.73664725 1.3898323 -1.9479098 18.130499
0.93789124 1.3262846 -1.9223645 19.127001
1.1283739 1.3335608 -1.9111941 16.122
1.268608 1.3937777 -1.9009361 16.121
0.69634914 1.4474195 -1.9847813 19.131001
0.76336133 1.4336505 -1.9614743 19.1285
0.66834307 1.5540553 -1.9467075 21.003063
1.1789213 1.5612046 -1.9805202 18.122
1.0058261 1.6506305 -1.9325125 19.126499
1.2299825 1.6504281 -1.9703348 18.1215
0.60379148 1.8068628 -1.9668992 23.131001
0.93534362 1.8852689 -1.9685659 23.122999
0.81932187 1.9203961 -1.9649044 23.127501
-1.7154353 -0.10269549 -1.8224798 7
-1.7068563 -0.02012603 -1.8544517 8.0200005
-1.7393229 0.064649411 -1.8446414 8.7675629
-1.6752113 0.036386702 -1.8593631 8.6848335
-1.5802821 0.043413237 -1.8750534 9.0185003
-1.2811579 0.091181189 -1.8409555 9.0124998
-2.1268768 0.16610913 -1.8993051 11.0225
-2.0689931 0.1798151 -1.8341435 8.5970001
-1.7506132 0.15648966 -1.8295186 9.0179996
-1.6285567 0.14615411 -1.8793726 10.516624
-2.1633611 0.29174116 -1.8974979 10.0135
-1.7573847 0.29129916 -1.8333536 13.51575
-1.4230844 0.2647987 -1.8579247 12.0135
-2.066628 0.373972 -1.8617207 12.01325
-1.5620515 0.36522529 -1.8829341 14.0145
-1.9953672 0.49411315 -1.8313624 8.0190001
-1.7368064 0.43815747 -1.8528807 15.51725
-1.4424118 0.46298 -1.8155613 16.0135
0.86829644 0.44877568 -1.839255 10.779334
-2.1574919 0.53489041 -1.8656259 14.01375
-2.0686662 0.52565736 -1.880121 14.013
-1.8028185 0.55362546 -1.8020729 16.011999
-1.7208254 0.51307613 -1.8218019 16.514999
0.54412556 0.53292775 -1.8488617 14.116
0.78071094 0.53142279 -1.8068254 8.125
0.84482527 0.55882561 -1.8359256 13.11275
-2.2173486 0.68066818 -1.8561084 18.022751
-2.1428735 0.65087295 -1.8858933 16.515999
-1.9587545 0.65211475 -1.8332931 10.01875
-1.6680011 0.66152072 -1.8614769 19.014999
0.77381659 0.65618831 -1.8256083 13.783834
0.90247524 0.67800969 -1.8869534 14.11275
1.0179421 0.65749705 -1.8899624 8.1234999
-2.0596321 0.78669029 -1.8631198 18.013
-1.90675 0.70614278 -1.8339055 17.018
-1.8459495 0.79452491 -1.8384144 20.015499
0.89089513 0.79564965 -1.8589022 17.112499
0.91799808 0.72644955 -1.8419032 9.1295004
-1.964489 0.86578882 -1.8216138 19.015499
-1.7924553 0.85635453 -1.8168112 21.014999
0.51761359 0.81878209 -1.845265 20.116001
0.67354214 0.85026377 -1.8870423 15.1295
0.77648091 0.80923706 -1.862345 12.125
-2.0316787 0.99606961 -1.8871541 22.01725
0.86383164 0.94921839 -1.8694271 13.625999
-1.9661658 1.0742788 -1.8260036 18.515751
-1.8621311 1.0363593 -1.8582958 23.014999
0.46771166 1.0238304 -1.8956068 23.117001
0.6756857 1.0362843 -1.848871 17.127125
0.75682557 1.008116 -1.8613601 18.119125
0.93494213 1.084527 -1.8207428 16.126499
-2.1155419 1.1309794 -1.8876448 22.013
-2.0378242 1.1428682 -1.8403254 23.013
0.43760002 1.1612176 -1.879627 20.63125
0.66869754 1.1562341 -1.855619 17.62525
0.76317239 1.1409292 -1.840772 18.621918
0.84639037 1.1050917 -1.847101 21.612499
0.9359253 1.1579027 -1.8377436 16.624748
-2.025763 1.2516637 -1.877115 23.0175
0.73499286 1.2771598 -1.8628805 19.1245
0.77355558 1.3421608 -1.8597383 18.1285
-2.0036573 1.4849989 -1.838352 19.018999
0.69827211 1.4803615 -1.8376663 21.62425
0.70808709 1.4320436 -1.8126484 23.1355
0.69484091 1.5262955 -1.8461955 20.129999
-2.0463643 1.6450788 -1.8853581 20.018999
1.0220597 1.6858559 -1.8134508 20.1255
0.63278615 1.7828499 -1.8599919 23.130125
0.8378185 1.7849376 -1.8790038 22.127001
0.91464841 1.8068912 -1.8801796 23.122499
-1.8268498 -0.051162243 -1.7045854 8.0179996
-1.7482384 -0.017083988 -1.7183553 8.4359999
-2.0801444 0.093982652 -1.7088032 10.024
-1.9451703 0.02923462 -1.7583277 9.0194998
-1.7567946 0.018026423 -1.7251003 8.5200005
-1.6764022 0.070009634 -1.785645 8.0179996
-1.2774185 0.072798342 -1.7822876 8.0129995
-2.0984313 0.13318825 -1.7723093 8.0144997
-1.711412 0.14198655 -1.7195163 9.0124998
-1.6423727 0.18380101 -1.7985618 11.0195
-2.1105235 0.25692713 -1.7713985 9.6811666
-1.9386448 0.26278329 -1.7287326 13.0225
-1.8610693 0.21092165 -1.7688887 10.013
-1.8122543 0.37814766 -1.7735988 14.5165
-1.765918 0.34609884 -1.7499721 13.9194
0.50190473 0.33913699 -1.7906989 11.116
-2.0851314 0.45492679 -1.7292348 14.519
-1.9431715 0.44916433 -1.7355289 10.5165
-1.7447543 0.45223817 -1.7852885 15.684169
0.58030796 0.44484019 -1.7356095 9.6297503
0.67206991 0.44994086 -1.7529745 9.1289997
0.72939247 0.46719879 -1.7510368 12.112875
-2.1371028 0.52463949 -1.7532868 14.01475
-2.0460277 0.55068988 -1.7098036 17.019751
-1.6890491 0.59951454 -1.789609 18.016001
0.55311847 0.53350443 -1.7089422 15.447499
0.64417458 0.53209406 -1.7934899 10.1295
-1.7291002 0.65436482 -1.7595961 19.0165
0.58393729 0.64969522 -1.7730293 17.1145
0.7826274 0.62168074 -1.7506479 12.11825
0.96052527 0.67917871 -1.7530699 8.1285
1.0289938 0.66191065 -1.7571771 8.1222496
-2.116379 0.73147511 -1.7442367 19.023001
-2.0237296 0.71283805 -1.7591138 17.014
-1.8349345 0.78295177 -1.7574817 20.516001
0.49589196 0.72328824 -1.7758255 19.115499
0.50632989 0.71067011 -1.7448125 19.115
0.65083027 0.76823074 -1.7836449 14.129
0.87684947 0.74024671 -1.7364361 16.36125
0.95431793 0.77815294 -1.7512863 13.866625
1.0156769 0.74512386 -1.7345219 10.122
-1.9439331 0.83495653 -1.7280624 20.01375
0.52360755 0.82187814 -1.715091 16.129499
0.7318697 0.81014872 -1.7179778 14.1275
0.85552788 0.86386079 -1.7428373 11.627083
0.91539621 0.87111968 -1.7955939 18.1115
-1.9949032 0.91353679 -1.7806449 22.018
-1.8808037 0.95946038 -1.7411834 23.02075
-1.7723703 0.94639742 -1.7396922 23.0175
0.74970609 0.94539189 -1.7411534 17.618
0.83626491 0.95074922 -1.7512647 14.348583
0.96279848 0.9461059 -1.7462859 14.62575
-2.1854644 1.0233147 -1.7805941 21.0145
-2.0584476 1.0712315 -1.7805052 18.51675
-1.8804684 1.0435236 -1.7472031 23.013
0.48283482 1.0606244 -1.7660222 20.129999
0.77837229 1.0369864 -1.7295418 22.11175
0.84053952 1.0698662 -1.7534115 17.620251
0.43639827 1.1788566 -1.7911651 22.130501
0.73613393 1.1828071 -1.7867947 18.124001
0.96751845 1.1342381 -1.7067475 16.1215
0.67844772 1.2450957 -1.7269442 21.127501
0.75746214 1.2725043 -1.7532408 18.875376
0.95596552 1.2040054 -1.7999976 18.125999
1.1009704 1.362114 -1.7745521 17.121
0.75650489 1.4186586 -1.7523568 19.129
0.88176477 1.4589497 -1.7787478 21.125999
1.1569744 1.4394193 -1.7686224 18.120501
0.71563959 1.5331694 -1.7513463 22.123249
0.65191787 1.6582131 -1.7484434 22.129375
0.69370949 1.765887 -1.7407708 23.12875
0.77252018 1.8035091 -1.7487911 23.126499
-1.8989493 -0.002776267 -1.6223638 8.5205002
-1.7237786 -0.029905573 -1.6091268 8.0225
-2.0725946 0.059567377 -1.6483157 10.0245
-1.8926302 0.066772953 -1.62778 10.0235
-1.7714373 0.074585974 -1.6105059 10.518
-1.3066841 0.034078971 -1.6724179 8.0144997
-2.1245658 0.14595908 -1.6114221 8.3496675
-1.8640893 0.1715326 -1.6424499 9.0144997
-1.7550994 0.15988423 -1.6396514 11.685666
-1.6882386 0.12600106 -1.6647323 8.0129995
-2.0592499 0.25774023 -1.6583018 11.51975
-1.8039465 0.22840443 -1.6050371 13.018
-1.7615033 0.21566787 -1.6954439 11.019
-1.6819365 0.22540282 -1.6721838 13.021
-1.4271301 0.25557169 -1.6979153 13.015
-2.0599508 0.38920215 -1.6738046 12.01525
-1.8484355 0.37136662 -1.6543308 15.51775
-1.7329607 0.38076866 -1.6594399 15.186916
-1.6533338 0.35357279 -1.6051314 15.018
0.5199424 0.3054944 -1.654309 10.114
0.81362319 0.31927919 -1.6216009 9.1105003
-1.9506687 0.45290318 -1.6668211 13.353001
-1.8012527 0.49021918 -1.6634154 17.017
-1.6341606 0.48142025 -1.6102087 17.0175
0.57419831 0.46259427 -1.6310326 12.784833
0.66604161 0.46533316 -1.6258816 9.3777504
0.86869591 0.47885364 -1.6655506 9.0552502
0.90029907 0.44506845 -1.6780444 11.1105
-2.0440524 0.51916045 -1.6791232 15.015
-1.9050572 0.57345772 -1.6737289 10.0195
-1.8229152 0.55030179 -1.6826544 17.015251
0.57822561 0.5706715 -1.6132903 16.445833
0.84395123 0.59942901 -1.6457472 8.6227503
0.92344642 0.58103919 -1.6605226 13.443334
-2.0550373 0.65237248 -1.6507933 17.519501
-1.9762132 0.63592899 -1.6585799 10.02
-1.8734113 0.66846311 -1.6586368 18.51825
0.53941703 0.66601831 -1.652547 15.871125
0.67325151 0.65713966 -1.6363161 13.1275
0.77074409 0.60967195 -1.6396115 15.111
0.88786817 0.6490413 -1.6211748 15.10975
0.96046567 0.65019566 -1.6717906 8.1280003
1.0547067 0.67392981 -1.6739278 9.1212502
-1.9645312 0.78335929 -1.632658 19.514999
0.56940222 0.77788973 -1.6565447 18.12075
1.0268852 0.71968126 -1.6347609 10.121
-1.9230084 0.83417112 -1.6464434 16.019501
-1.8192729 0.87374228 -1.6254025 23.0215
0.82763195 0.86229992 -1.6556658 13.1225
0.95096284 0.8596046 -1.6758319 12.1265
-2.0516448 0.97599179 -1.6920195 17.5175
-1.9098511 0.94851089 -1.644029 23.01725
-1.8826371 0.9608928 -1.6799054 23.018
0.57396007 0.92332631 -1.6110559 23.112249
0.79772985 0.95184726 -1.6366981 21.1105
0.83247721 0.95627421 -1.6720581 14.6225
0.94239408 0.91546673 -1.6310072 13.789166
-2.2292652 1.0550473 -1.6908743 22.019749
-2.0178115 1.0581093 -1.6964802 15.02
-1.9979316 1.0225127 -1.6087906 15.0205
0.53055471 1.0316627 -1.6594576 20.1285
0.76963586 1.0337142 -1.6480455 15.128082
0.84680235 1.0387081 -1.6336501 16.621899
0.9471122 1.0163163 -1.6393744 18.117001
1.029367 1.0788288 -1.6384957 15.1205
-2.0254612 1.1209412 -1.6917608 23.0145
0.68423831 1.172236 -1.6624658 19.123249
0.76190192 1.137226 -1.6846735 16.627001
0.83071709 1.1656433 -1.652503 16.461334
0.91996384 1.1362772 -1.6599072 17.625
0.46442634 1.2140387 -1.6712494 22.879
0.69141328 1.2621739 -1.6699502 21.126751
0.76086271 1.2406507 -1.6815631 20.3785
0.9556998 1.2849395 -1.6608872 18.121
0.66722369 1.3152884 -1.6862891 19.129499
0.7295391 1.3623236 -1.6796705 21.122749
1.0825545 1.3124982 -1.651727 17.120001
1.1362443 1.3913648 -1.6952431 18.120001
0.97956634 1.4887917 -1.6822089 19.125
0.72844803 1.5888036 -1.6060231 22.12775
0.98332882 1.5521195 -1.636112 20.1245
0.77072418 1.6809403 -1.6087313 23.1255
0.81652278 1.6861207 -1.6596386 22.623501
0.9442023 1.6496645 -1.6560051 22.120501
-1.9280938 1.8544835 -1.6909518 23.019501
-1.8330606 -0.044634126 -1.565981 8.3525
-1.735368 -0.047799505 -1.5236456 8.5211258
-1.9429622 0.099789657 -1.5867369 4
-1.7723601 0.023302875 -1.5740006 9.354125
-1.6562674 0.077815786 -1.5640845 9.3526669
-1.3475517 0.0037737023 -1.5598316 8.0162506
-2.1090162 0.15508321 -1.5247498 8.5172501
-1.9637711 0.15236637 -1.5931368 9.0157499
-1.811903 0.1623847 -1.5351949 12.518875
-1.7492043 0.15304334 -1.5743872 10.519
-2.0639062 0.29687119 -1.5586994 14.025
-1.9121828 0.23214078 -1.5792236 11.519751
-1.8279194 0.23517872 -1.5636334 11.0205
-1.7870057 0.27072501 -1.5788333 11.01475
-2.0358136 0.39486599 -1.5755644 13.016251
-1.8578072 0.35297117 -1.5480955 15.51255
-1.7285738 0.32320929 -1.5058589 15.023
-1.4503422 0.38322681 -1.5934489 16.016001
-2.0475092 0.43399858 -1.5784829 16.0245
-1.966512 0.41713515 -1.5068433 16.0215
-1.8261467 0.46795642 -1.524088 17.018499
-1.6064863 0.42551452 -1.510494 17.018499
0.54740596 0.43296599 -1.5482318 14.112
0.61824334 0.47152624 -1.53585 14.111
0.87790787 0.4154458 -1.5503272 11.109
-2.1179895 0.55439746 -1.5855244 15.0165
-2.0153503 0.51577157 -1.5810032 15.016
-1.9802281 0.55645525 -1.5453236 15.51975
-1.8463578 0.54196519 -1.5772105 18.018
-1.7395508 0.53875756 -1.5895541 16.018999
0.64639568 0.56776828 -1.5381403 15.777333
0.94679976 0.57361275 -1.5005713 14.10775
-1.6915256 0.60533744 -1.5857053 19.018
0.5456183 0.64657837 -1.5651574 14.128
0.68668842 0.6902622 -1.557586 14.1265
0.86207712 0.63022584 -1.5397046 12.615125
1.0569378 0.67372561 -1.5970008 9.1204996
-1.9556351 0.74648237 -1.5696323 12.0205
-1.8867764 0.74368519 -1.5730726 21.018
0.63367176 0.72970068 -1.5233598 19.1105
0.92418551 0.75718516 -1.5526401 14.781333
-2.0559921 0.85889208 -1.5476067 20.0165
-1.9498274 0.8403722 -1.5437367 21.016001
-1.8796879 0.86746925 -1.5350853 23.023001
-1.7973362 0.81996292 -1.5677321 22.017
0.54296958 0.86012983 -1.5409381 20.619499
0.60000098 0.8710745 -1.5131768 22.443832
0.95118314 0.85343158 -1.5699931 12.8755
0.54540741 0.99795264 -1.572603 20.127501
0.76165771 0.93998939 -1.5544095 16.961748
0.82592803 0.94095904 -1.5631136 17.615376
0.94112861 0.94487929 -1.5566146 16.495377
-2.196281 1.0538313 -1.5637763 22.017
0.74358928 1.0916971 -1.5388416 17.125999
0.8347069 1.0958896 -1.5055473 17.120501
0.93150175 1.078928 -1.5115448 17.623501
1.0132525 1.09426 -1.5520921 15.61975
1.185387 1.0058765 -1.5749874 13.119
0.75853395 1.1464759 -1.5713438 19.128666
0.86620897 1.1483088 -1.5574584 17.375626
0.96652067 1.1027244 -1.5943809 16.120501
-1.9588336 1.2801973 -1.5707431 18.0205
0.48773545 1.2300686 -1.5536268 23.127501
0.68950367 1.2632797 -1.5678958 22.12575
0.72607952 1.2307653 -1.5652996 19.457251
1.1940205 1.2241135 -1.5972147 15.119
0.6751318 1.3833761 -1.5464888 22.12175
0.78431219 1.3254079 -1.5665632 19.749313
0.8376959 1.3135412 -1.5532138 20.125626
0.6991961 1.4286093 -1.5653119 21.125999
0.77002668 1.4191206 -1.5887997 20.127501
0.96875608 1.4897139 -1.5491854 20.124001
0.95995605 1.5854965 -1.5549629 22.119499
1.1142888 1.5926502 -1.5432973 20.1185
0.72532618 1.6984328 -1.5996704 23.127501
0.82140148 1.6279153 -1.5664923 23.120501
-1.9719373 1.7714901 -1.5132164 23.021
-1.9810652 1.8286507 -1.5893208 23.0205
-2.0268288 -0.037172474 -1.4658726 8.5262499
-1.8553437 -0.07182496 -1.4462756 8.1871672
-1.741846 -0.067348376 -1.4479647 8.0244999
-1.6202562 -0.0043772734 -1.4262213 8.02075
-1.3793389 -0.019098854 -1.447762 8.0179996
-1.810896 0.089844078 -1.4259573 11.52
-1.741751 0.050411012 -1.4374933 10.020374
-1.6432074 0.037175622 -1.4446257 9.5205002
-2.1001439 0.14596722 -1.4394681 8.0182495
-2.0884728 0.17203133 -1.4990065 12.026
-1.9287715 0.15353726 -1.45828 7.2337222
-1.8476014 0.17388657 -1.4418461 12.525
-1.6390226 0.15743414 -1.4823868 10.02
-2.0467885 0.2615982 -1.445901 11.687332
-1.926616 0.25687152 -1.4198977 14.02075
-1.8920133 0.27429429 -1.4193864 11.0175
-1.7444291 0.28274742 -1.4019983 12.017
-1.5307665 0.27012172 -1.4170578 14.51925
-1.4682605 0.27016428 -1.4277035 14.518499
0.53835034 0.26887831 -1.477319 10.111
-2.0061893 0.39307147 -1.4227405 16.025999
-1.9366388 0.38908142 -1.4724283 8.0105
-1.841332 0.31501868 -1.4247293 15.353168
-1.7730271 0.33147198 -1.4389977 15.021
0.68751609 0.3792882 -1.4135745 9.8668747
0.82014471 0.31955886 -1.4570265 9.3581247
-2.0475702 0.4287903 -1.4766879 13.0175
-1.9925619 0.40005267 -1.4187942 13.018
-1.7375371 0.46765879 -1.4579279 16.016001
0.63246632 0.43397272 -1.4916091 9.46
0.87383163 0.43152475 -1.412997 12.107
-2.1228533 0.55963284 -1.4516842 17.022125
-1.9409467 0.55314428 -1.4551212 14.872286
-1.8196093 0.58507532 -1.4737582 17.0205
-1.7744569 0.51214641 -1.4001625 16.021
-1.581252 0.54045421 -1.4238908 20.018999
0.5702126 0.58239931 -1.4486198 13.1265
0.63408667 0.54272681 -1.4116467 16.442081
0.8529892 0.52729177 -1.4519539 8.1206245
1.0344781 0.55909395 -1.4123973 8.1234999
-2.1195393 0.65816367 -1.4662559 19.775875
-2.0469055 0.64256388 -1.4129956 20.025999
-1.9227071 0.62246668 -1.452934 14.51925
0.55478829 0.69613087 -1.4469069 15.1265
0.85623801 0.66164595 -1.4599559 10.1205
0.93034989 0.64750409 -1.4674389 9.2509995
1.0488634 0.66307336 -1.4302193 9.1203337
-2.049041 0.79618275 -1.4637001 19.0175
0.76704514 0.73006618 -1.4513979 14.1245
0.8345989 0.74901181 -1.4565539 12.62225
0.93957442 0.74081939 -1.4693685 15.113
-2.0857966 0.88821954 -1.4042878 23.025999
-1.9342641 0.84329194 -1.4620861 19.019167
-1.8580967 0.80622691 -1.4003628 23.0245
0.64300048 0.89333224 -1.4657626 18.1255
0.78803355 0.86455446 -1.4422489 18.1325
0.86364985 0.84145278 -1.4474338 13.456416
0.96491051 0.83432525 -1.4646254 13.092125
1.034106 0.82411289 -1.4334351 17.606251
-1.9359719 0.91155195 -1.4546305 14.02125
-1.8778651 0.95630413 -1.4352009 23.017
0.56818044 0.93683505 -1.4438858 19.125874
0.77447909 0.95592982 -1.4209466 15.874875
0.83198714 0.94789678 -1.4947124 14.127
0.95023274 0.91831237 -1.4286569 15.622625
-1.9676974 1.0477279 -1.4457564 16.0215
-1.8713306 1.0429884 -1.4605803 23.02
0.76281297 1.0903852 -1.4242733 17.62475
0.92069441 1.0450735 -1.4297023 16.311249
1.1673832 1.0072926 -1.485443 13.11825
0.77425766 1.1188238 -1.4894675 22.132999
0.88194633 1.1602825 -1.4787025 16.5
0.90716767 1.1281343 -1.4383643 18.120998
1.1578481 1.156352 -1.4740208 15.118
0.83582622 1.2657763 -1.4590477 20.5242
1.0098222 1.2260143 -1.4887857 17.618999
1.1038491 1.2380999 -1.4085679 17.1175
0.72634214 1.3049011 -1.4315004 22.372002
0.68765402 1.4172647 -1.4518833 23.120501
0.76472539 1.470549 -1.448912 21.404055
0.96124721 1.44844 -1.4868662 20.123501
0.77111924 1.5391035 -1.4652058 22.1245
1.0920714 1.5878035 -1.4366555 21.1175
0.76705849 1.6367471 -1.4563442 23.125999
-1.9543869 1.7791405 -1.4343818 23.0215
-1.9886568 -0.18214256 -1.3422346 6
-2.0113363 -0.02680108 -1.3546922 8.6940002
-1.7473396 -0.065581225 -1.3575592 8.5239172
-1.5869372 -0.023575135 -1.3714143 8.0209999
-1.3908416 -0.032962993 -1.3675944 8.0192499
-1.8362901 0.062484518 -1.3288562 10.773875
-1.7559979 0.029042691 -1.3319929 10.025875
-1.6155564 0.068254039 -1.3526227 9.0212498
-2.0892124 0.14461322 -1.3754559 8.5190001
-1.8343073 0.16278298 -1.331543 10.852666
-1.643443 0.1145731 -1.3908904 10.021
-2.0278535 0.2507337 -1.3748416 10.51875
-1.8642548 0.2740986 -1.3463506 13.687416
-1.6759908 0.26935259 -1.3775289 13.021
-1.5308044 0.2695089 -1.3324556 14.770375
-0.948048 0.26191491 -1.3881766 15.0115
0.5790695 0.24876016 -1.3304956 9.6079998
0.86088669 0.2812427 -1.33859 8.1059999
-2.0383811 0.37315369 -1.3521825 16.027
-1.9077445 0.3909438 -1.3362559 8.0220003
-1.8788362 0.32749167 -1.3551812 15.607229
-1.7571709 0.30394709 -1.3045752 13.0185
-1.5733879 0.34422433 -1.3417325 16.0205
0.61540151 0.37015778 -1.3266873 12.1075
0.71644342 0.34161282 -1.3395593 11.107
0.9048481 0.3190974 -1.3863494 9.1064997
-2.0034599 0.42155606 -1.3451662 14.019
-1.9247644 0.45792243 -1.3436167 9.0220003
-1.885672 0.44393286 -1.3863126 14.688083
-1.7620822 0.46797663 -1.3060715 16.021999
-1.573263 0.48515406 -1.3534307 19.02
0.62522 0.46366829 -1.3471516 14.73275
0.91274321 0.44113865 -1.3044677 6
-2.1445088 0.59230614 -1.3427141 19.0275
-2.0804422 0.51194024 -1.3654053 15.019
-1.9838957 0.53017938 -1.3698505 16.018499
-1.8248768 0.57738304 -1.32736 18.354166
0.65825272 0.53789485 -1.3490475 14.116
0.71860266 0.50029331 -1.3574321 14.773834
0.99804378 0.56301093 -1.3367293 8.6230001
1.0147393 0.55003232 -1.3848271 13.10575
-1.9240255 0.60491657 -1.3530072 11.022
0.65587956 0.6734128 -1.3668799 19.10775
0.88491142 0.62978995 -1.3548717 9.8689995
0.93368405 0.65683925 -1.3412969 12.61525
-1.9294611 0.76058036 -1.3440629 22.355667
-1.8931485 0.72356129 -1.3227634 12.022
-1.7991785 0.72884685 -1.3790817 20.021
0.58395606 0.72844666 -1.3601588 16.125
0.84884924 0.74597692 -1.3462551 13.789667
-1.9342858 0.82103491 -1.3219999 22.686834
-1.8984599 0.88361394 -1.3254634 14.022
0.55252308 0.88902223 -1.356993 19.125
0.815736 0.83169276 -1.3398006 14.1215
0.95497566 0.85345352 -1.3357427 14.404572
-1.8741655 0.93678391 -1.3595335 23.018
0.66647494 0.92852604 -1.3744402 23.107624
0.76020932 0.99666142 -1.3329847 17.124001
0.8036896 0.93323869 -1.3715563 17.878
0.9378078 0.96462184 -1.3601249 16.453417
-2.1240759 1.0459268 -1.3285117 23.019501
0.7649039 1.0660579 -1.3198354 17.623751
0.85527533 1.0237484 -1.3562275 18.122917
1.0234339 1.0824177 -1.3480191 16.1175
1.1486411 1.0498819 -1.3401444 14.61675
0.77153659 1.131101 -1.3635601 19.251501
0.87696618 1.1515114 -1.3405834 19.625124
1.0965098 1.1896561 -1.3047433 17.116501
-1.9361516 1.2844222 -1.3573313 19.021999
0.69768798 1.2969097 -1.3792086 21.1245
0.77569354 1.2037747 -1.3182775 19.123501
0.87964517 1.2204459 -1.3589922 19.373375
0.90236032 1.2728039 -1.3073361 19.124001
1.1002169 1.2128967 -1.35414 17.117001
0.74508417 1.3099219 -1.3698099 22.121124
0.86400938 1.3480046 -1.310488 20
0.79367971 1.441986 -1.3426175 21.625
0.83721364 1.4355742 -1.3039343 21.5
0.95089924 1.4040296 -1.3025253 21.117001
0.84536064 1.5494133 -1.3453224 23.118
-1.9284781 1.6746744 -1.3462052 23.021999
0.79613316 1.6010687 -1.3703051 23.125
0.99066377 1.6955607 -1.3705013 23.11725
-1.9236597 -0.12543076 -1.2527163 3
-1.8428149 -0.11852897 -1.2738633 8.0222502
-1.7569834 -0.14111087 -1.2246089 7
-1.9858371 -0.05503254 -1.2357494 8.3619995
-1.852621 -0.060981169 -1.2658486 9.1889582
-1.6408702 -0.056153119 -1.2298685 8.0235004
-1.5679121 -0.015299742 -1.2252865 8.0225
-1.4121997 -0.038607381 -1.2007692 8.0220003
-2.0149698 0.047504321 -1.2500799 10.0285
-1.8579475 0.059562329 -1.2425271 8.909667
-1.7608868 0.035119146 -1.2104893 10.5275
-1.6287415 0.023084547 -1.2195308 9.5233755
-1.5961175 0.061722439 -1.2477119 9.0222502
-2.0797672 0.13582137 -1.236851 8.52075
-1.9153092 0.13751444 -1.2481526 12.525249
-1.8570285 0.18739593 -1.2038267 10.0205
-1.5687969 0.1932749 -1.2585604 13.022
-2.0111494 0.26591867 -1.2414365 13.024375
-1.8521574 0.26249602 -1.2575046 14.12395
-1.6460559 0.24537171 -1.2441511 13.02225
-1.5602863 0.2328137 -1.20929 13.688916
0.73063076 0.28720865 -1.2220852 9.4381666
-1.8848521 0.3210662 -1.2392583 16.022125
-1.7970283 0.37263665 -1.2484816 17.0235
-1.5753732 0.3755967 -1.2326806 17.688665
0.67637074 0.39212179 -1.2307129 11.114
0.79905021 0.3523657 -1.2854996 11.1055
0.84261769 0.33542725 -1.2092931 10.13
0.91142738 0.33490992 -1.2299387 9.1040001
-1.9705096 0.40822932 -1.2600585 14.02
-1.8834721 0.46985325 -1.2544068 17.576666
-1.7351407 0.43634897 -1.2385921 16.021
0.59056437 0.48568138 -1.2538282 16.106251
0.68388575 0.45282596 -1.2403455 12.364
0.75964296 0.46823487 -1.2874783 14.10575
-2.0903382 0.53999698 -1.2505815 15.5205
-1.9492877 0.54742289 -1.2982936 18.020374
-1.8519759 0.57267123 -1.2351915 11.0225
-1.7633103 0.55980468 -1.2173907 18.688667
0.57552373 0.5231111 -1.2624493 17.106501
0.62485242 0.53692746 -1.2713475 12.790333
-2.054949 0.64669478 -1.2482129 20.528
-1.9335172 0.62304127 -1.2358433 21.021999
-1.7745491 0.65076542 -1.2689575 20.018999
-1.5881467 0.64609915 -1.2303418 23.0215
0.69464374 0.63293487 -1.2169185 18.10475
0.88732904 0.66657794 -1.2689657 10.620375
0.9397974 0.61442572 -1.2674892 10.119375
1.0600266 0.64330781 -1.2639765 8.6199999
-2.1178489 0.78562808 -1.2625327 22.028
-1.9634058 0.75825554 -1.2403738 22.858042
-1.7600677 0.79533505 -1.2106689 22.022249
0.66530287 0.75371969 -1.2599121 18.61425
0.86680752 0.73652464 -1.2310464 12.620001
1.0220294 0.78630942 -1.2413806 11.785361
-1.9070196 0.86105061 -1.2751179 18.021
-1.8476682 0.88179064 -1.2438238 19.021126
0.69156027 0.88007939 -1.2610431 23.105499
0.86333573 0.84293598 -1.2596469 14.792168
0.94582033 0.86130017 -1.2561331 15.31725
0.55973083 0.91290265 -1.2898021 20.124001
0.76458317 0.93002743 -1.2557524 20.777666
0.84872341 0.94476032 -1.2727065 18.12425
0.94420475 0.93966031 -1.2143605 16.120876
1.0764694 0.93048942 -1.2518082 19.6035
-1.9001909 1.0427685 -1.2704113 16.022499
-1.836473 1.086031 -1.2873747 17.021999
0.66429424 1.0170338 -1.2587414 21.122499
0.89067864 1.0190785 -1.2160693 16.123501
0.95429343 1.0350276 -1.2311926 15.746667
1.1369109 1.0132246 -1.2899311 14.11625
0.76568413 1.1353327 -1.2309232 19.122749
0.88225538 1.1288613 -1.2205231 20.370377
0.91609079 1.160184 -1.2602793 17.635668
1.0883394 1.1640376 -1.2546632 17.115999
0.8803255 1.2344501 -1.2411628 19.787001
0.78806329 1.3372399 -1.2763397 22.11775
0.88003635 1.3590273 -1.2058074 21.122999
0.96230519 1.3869539 -1.2636418 21.116501
0.85106528 1.4800695 -1.2030121 22.122999
-1.9181877 1.5409927 -1.2531275 21.522751
