# .PCD v0.7 - Point Cloud Data file format
VERSION 0.7
FIELDS x y z intensity
SIZE 4 4 4 4
TYPE F F F F
COUNT 1 1 1 1
WIDTH 1164
HEIGHT 1
VIEWPOINT 0 0 0 1 0 0 0
POINTS 1164
DATA ascii
-0.06945172 2.4419744 -5.8901215 17.1315
0.23925444 2.4089031 -5.653976 18.129999
-0.48196381 2.3304205 -5.3699641 18.6334
-0.19480526 2.320297 -5.440702 18.132
-0.0018958151 2.4063141 -5.5324159 18.131001
-2.5017421 0.62816209 -4.8841457 9.0105
-3.0935359 1.9703052 -5.0193224 17.509251
-2.6278491 2.0640008 -4.9424677 18.009251
-2.2999575 2.080328 -5.0397511 18.009501
-0.59571218 2.3477569 -4.896575 20.133999
-0.13112071 2.3680751 -4.9790654 19.7314
-0.34616473 2.4073815 -4.877027 21.1325
0.091205925 2.4350686 -5.0881643 19.880249
-2.5375643 2.070456 -4.5929875 18.884998
-2.1814132 2.1657481 -4.5625792 19.2082
-1.8481519 2.2075162 -4.5601196 19.5075
-1.5316429 2.2388146 -4.4688063 20.00625
-0.91184425 2.3339784 -4.4832721 22.136
-0.60721129 2.3453836 -4.6265855 21.384085
-0.3416293 2.3270404 -4.7618685 20.1325
1.599501 2.9657068 -4.64504 18.129999
-2.2584157 0.49594453 -4.1726909 9.0109997
0.43007085 1.4005669 -4.147758 15.1275
-2.8833265 1.9857731 -4.2831745 19.01375
-2.617656 1.9952041 -4.3815308 18.0105
-2.8434808 2.0234141 -4.1994786 20.01
-2.564821 2.0607519 -4.227519 20.295856
-2.2155678 2.1539807 -4.1848149 20.350775
-1.8528787 2.2081585 -4.1774335 20.799042
-1.4526149 2.3010869 -4.1931205 21.2057
-1.0005915 2.3336508 -4.1847906 22.57
-0.55807525 2.3780162 -4.3226843 23.008751
-0.22030577 2.3981991 -4.2925701 22.6315
-0.13254306 2.4112339 -4.3285279 22.630936
0.21991725 2.5784483 -4.2209764 21.96546
0.43971762 2.7557211 -4.2006011 21.134501
1.1088278 2.7567205 -4.1356373 19.133751
1.0629246 2.8826528 -4.2121449 20.13125
1.2653778 2.9306097 -4.1999149 19.630249
-2.1601207 0.21249144 -3.9246111 4
-1.9709667 0.31453818 -3.9430945 4.5
-2.1427028 0.60200483 -3.9207184 6.75
-1.956057 0.54502892 -3.9390657 6.5
-2.1694667 1.0287343 -3.9261076 9.8000002
-2.2700889 1.4909947 -3.9215088 13.012
-2.8321671 1.982392 -3.9300981 20.0145
-2.1542463 1.9503142 -3.9380443 16.005501
-2.5323503 2.0658679 -3.7850492 21.411633
-2.2167611 2.174283 -3.8030429 21.342358
-1.7818249 2.256469 -3.8367901 21.649893
-1.4282682 2.2888193 -3.7927325 22.505001
-1.1378222 2.3449819 -3.8452308 23.00425
-2.1443779 2.5505579 -3.8407352 19.511665
-1.8518162 2.4412153 -3.9691381 19.01
-1.3606244 2.4520271 -3.7676804 20.674
-1.0477989 2.4893293 -3.7483401 21.00625
-0.72242838 2.46087 -3.6382687 22.004499
0.14732364 2.6975768 -3.8502352 23.1355
1.0933329 2.7989385 -3.832536 20.132999
0.4041529 0.4972218 -3.3684487 9.1265001
-2.2342658 1.0382259 -3.3613462 13.51375
0.30309883 1.1219589 -3.3895404 16.127001
0.51824135 0.97033644 -3.4054027 13.696786
1.0838597 1.1025676 -3.2120159 10.13
-2.6161861 1.5258145 -3.4770722 19.261623
-1.5398232 1.5322816 -3.2361679 20.0065
0.51455295 1.3477064 -3.3817921 17.625126
-2.1871271 1.6701388 -3.2434781 20.011499
-1.3793968 1.9916956 -3.3319328 23.004499
-2.5658419 2.0912721 -3.4600234 22.868607
-2.1797335 2.1530333 -3.4287789 22.373728
-1.8123468 2.2378414 -3.5296907 22.757469
-1.5641062 2.2055547 -3.5258124 23.005249
0.74964774 2.1894245 -3.2120776 20.133499
1.0417873 2.1914384 -3.3692901 19.132999
-2.1797047 2.4629271 -3.2581084 21.0135
-1.7125891 2.4870872 -3.5701654 21.01025
-1.4147062 2.4587941 -3.5154774 22.0075
-0.99749726 2.470593 -3.3803842 22.578001
-0.63499171 2.4864981 -3.4600093 22.8375
0.31974712 2.6437178 -3.5816154 22.636499
0.61353576 2.6602852 -3.4017007 22.689888
0.84964824 2.7005906 -3.3284483 22.13275
-1.5237627 0.35744965 -3.103724 10.011
-2.1529574 0.64021492 -2.9913287 12.014375
-1.5142924 0.48405299 -2.88273 11.5115
0.35188136 0.7202062 -3.1073303 12.126
0.57145387 0.73166895 -3.0047085 12.457001
-2.4478884 0.80432558 -3.1212678 14.0165
-1.8021873 1.1935074 -3.0601192 15.5105
-1.54065 1.1890877 -3.0002933 18.0075
-0.32743511 1.0936626 -2.9922898 19.13225
0.51058704 1.0505155 -2.9407423 16.623751
-2.1962366 1.3715477 -2.9304173 20.345167
-1.7991917 1.3208258 -2.8623264 21.012501
0.36913732 1.4197062 -2.9976239 21.125
0.63179314 1.3405806 -3.0584781 18.789667
0.93000185 1.250964 -2.9019673 13.1295
-2.5205622 1.8025401 -3.0948215 22.01125
-2.1274927 1.6480904 -2.8367188 19.01375
0.37860718 1.7891704 -2.8606701 20.1325
0.48945859 1.6931301 -3.0540519 23.124001
-2.267256 2.1672421 -3.0543811 22.512625
0.62557441 2.15995 -2.952014 21.632
0.84723771 2.1328154 -3.0283983 19.882374
-2.113534 2.4982057 -3.0946782 22.01375
-1.8184844 2.4948909 -3.0704055 22.512251
-1.4588662 2.4706352 -3.0338275 23.010252
0.47629312 2.5682724 -3.1669908 23.134501
0.96714973 2.6896427 -3.1169164 22.46475
-2.1805365 0.25050279 -2.5103893 8.5128336
-1.7967765 0.24173987 -2.599709 9.6137991
-1.4898181 0.19186442 -2.5292776 9.3455
-2.1121995 0.58800036 -2.5711455 9.4130993
-1.8437127 0.5455665 -2.5131705 13.346168
-1.5813414 0.57640737 -2.4968672 14.346833
0.56217939 0.64125001 -2.5931623 12.621812
1.2899115 0.77403313 -2.47521 8.1289997
-2.1273992 1.0020902 -2.4783823 15.815249
-1.712615 1.0046414 -2.5119526 19.011667
-1.5965649 1.102442 -2.6190658 19.009001
0.61027271 0.99985707 -2.563015 17.454264
0.9911589 1.0260828 -2.4676652 11.627251
-2.1485646 1.4131504 -2.5716679 20.011143
-1.6793026 1.3701878 -2.6040244 22.009251
-1.5681443 1.4456269 -2.6757164 22.341333
0.34153399 1.3312668 -2.4396415 19.131874
0.64659703 1.4273775 -2.5658903 19.377438
0.9686836 1.5564994 -2.686559 17.1315
-2.1134958 1.758504 -2.6404331 18.348833
0.39299899 1.6805772 -2.4431982 23.134501
0.5604257 1.8107666 -2.4986598 19.800667
0.96904588 1.7793499 -2.5577052 18.793501
-2.1524198 2.2219064 -2.568126 21.682669
0.33602002 2.1868913 -2.7777727 23.133999
0.59622842 2.0349069 -2.6267121 22.704538
0.91119194 2.1726243 -2.6182969 21.629084
-1.5627741 -0.042199653 -2.0583262 7
-2.1482646 0.25745553 -2.1545429 10.475376
-1.7810361 0.20872083 -2.1242831 10.215087
-1.4998034 0.17321602 -2.1455967 9.8253441
-2.0982363 0.58239776 -2.1811941 13.266147
-1.755206 0.5699482 -2.1532929 14.889313
-1.5942298 0.44732705 -2.3192697 13.013
-0.91455263 0.70957655 -2.0201287 19.007751
0.65873265 0.62934601 -2.2015541 12.023368
0.82366371 0.62892193 -2.1331518 13.032584
1.2041692 0.72647297 -2.0385692 8.1269999
-2.1375818 1.0303167 -2.1304269 18.69173
-1.8294178 0.99326187 -2.1633854 20.263584
-0.92594904 0.88538653 -2.1892633 20.507
-0.66572571 0.96534234 -2.0160637 23.0035
0.64951372 1.0045429 -2.1889145 17.849165
0.98955178 1.0042925 -2.153044 13.501083
1.2065793 1.1019475 -2.0261385 13.1265
-2.1011596 1.30724 -2.1928315 19.888563
-1.810726 1.2578292 -2.2668223 23.013166
0.28778595 1.4030561 -2.2574902 21.800333
0.69391108 1.4260153 -2.1390462 20.067543
0.99924451 1.3641907 -2.2075841 17.127636
0.58262849 1.81174 -2.1974344 22.130999
0.88101119 1.9452052 -2.19362 22.460669
1.2826631 1.6795368 -2.2249475 18.122999
0.9013316 2.0634687 -2.2133412 23.12475
-1.7754852 -0.023023015 -1.7045398 8.2421665
-2.0934289 0.23289983 -1.8011929 10.261874
-1.7531704 0.1954868 -1.7863195 11.135382
-1.4112439 0.1752546 -1.8244618 10.63925
0.51092356 0.32231569 -1.7225039 10.615
0.81362319 0.31927919 -1.6216009 9.1105003
-2.0945251 0.60150981 -1.8052673 15.683736
-1.8329601 0.55600524 -1.7791438 15.32234
-1.4201465 0.47870448 -1.8740408 16.012749
0.66136944 0.59134501 -1.7779572 13.170088
0.9293865 0.64206213 -1.769013 11.14454
-2.0936763 1.0519673 -1.8088064 20.016798
-1.8923841 0.93877637 -1.7726202 20.816589
-1.5423487 0.99599928 -1.9113073 23.012501
0.66865933 1.0280893 -1.8013852 18.298201
0.88872546 1.0009998 -1.75807 15.325364
-2.0470171 1.2988505 -1.9127164 20.26675
-1.9928206 1.210452 -1.9504685 23.011499
0.69522393 1.3616279 -1.8300424 19.938671
1.0459297 1.3851902 -1.7825408 18.123154
1.268608 1.3937777 -1.9009361 16.121
-2.0463643 1.6450788 -1.8853581 20.018999
-1.9280938 1.8544835 -1.6909518 23.019501
0.67626917 1.7424157 -1.7852578 22.878843
0.90136284 1.7506541 -1.8237667 22.013279
1.2299825 1.6504281 -1.9703348 18.1215
-2.0190825 -0.031986777 -1.4102824 8.6101246
-1.7969135 -0.071445785 -1.370796 7.9189835
-1.4674459 -0.025908818 -1.3225653 8.0205507
-2.0538816 0.23578614 -1.389195 11.548434
-1.8118864 0.1966963 -1.3959112 11.915442
-1.5191861 0.24228378 -1.3547889 13.790845
-0.948048 0.26191491 -1.3881766 15.0115
0.6623444 0.33277848 -1.3273377 10.45881
0.86001152 0.31829917 -1.3463707 9.1937914
-2.0803325 0.58289504 -1.4026492 17.43914
-1.8749826 0.56663984 -1.3827826 16.874516
-1.5808872 0.55723578 -1.3358878 20.686834
0.63865352 0.57167315 -1.3873121 15.021144
0.93094921 0.65759498 -1.3914607 11.282909
-2.1036274 0.94115239 -1.4783578 21.619099
-1.8982784 0.89638466 -1.3852731 19.747589
0.70744312 0.99587119 -1.4070444 19.420488
0.9383015 0.97772622 -1.3810742 16.133097
-1.9377242 1.3685374 -1.393734 19.521749
0.72953683 1.3420173 -1.4750805 21.294119
0.92813259 1.3518847 -1.3895932 20.150549
-1.9502919 1.7483953 -1.4321086 23.0215
0.76389408 1.6432488 -1.4706659 23.126125
0.92895561 1.6490151 -1.40844 23.118082
-1.8659761 -0.080116235 -0.99561 8.9733458
-1.5040745 -0.022041913 -1.0116038 8.6919994
-2.0239527 0.2024623 -0.99810928 12.839813
-1.8077111 0.21191846 -0.99137229 13.299998
-1.5391895 0.15285733 -0.98738414 13.211737
0.68212283 0.28646898 -1.0492361 9.3925781
0.84942389 0.30932257 -1.0170753 9.9568195
-2.058486 0.59705943 -0.98913723 19.76486
-1.8353111 0.55771393 -0.99178058 17.396088
-1.5761865 0.4832021 -0.95241964 21.276501
-0.5257985 0.5094102 -1.1151142 20.006001
0.1743286 0.66707706 -1.1655523 18.132999
0.70435596 0.59225124 -0.97929579 15.715436
0.93965888 0.62501615 -0.97697181 12.377902
-1.8397155 0.95016152 -0.97866774 19.56357
0.72021002 0.99784797 -1.0220867 19.549866
0.94402772 0.98820275 -1.009179 17.291199
-1.8321955 1.3315123 -0.97582948 21.124825
0.71682668 1.2319967 -1.0354682 21.454
0.92002946 1.3708847 -1.0140948 21.621111
-2.0256183 -0.15048733 -0.50081164 8.3561668
-1.8423699 -0.084985748 -0.59121382 9.1939335
-1.4515839 -0.051710628 -0.58875453 8.7843056
-2.0620384 0.21907316 -0.52098268 14.437073
-1.7895995 0.1912656 -0.64409494 13.21792
-1.5188434 0.15929213 -0.57344681 14.176695
0.72962743 0.33180696 -0.61643976 9.5153131
0.89214706 0.30161753 -0.58170468 10.042665
-2.0768201 0.5825485 -0.59662461 20.623199
-1.7742406 0.56433225 -0.59835362 17.489872
-1.5695783 0.45400271 -0.63145 20.002459
0.72127151 0.62161893 -0.59084362 15.03579
0.95315677 0.62763143 -0.60272837 14.241819
1.2490532 0.75614214 -0.50752443 10.320392
-1.7684274 0.96756107 -0.63464284 18.838722
0.71226138 0.98782063 -0.57238322 21.181192
1.0056463 1.0010372 -0.58526826 17.399107
1.2302835 0.96627188 -0.45718467 13.855499
-1.7842954 1.3573302 -0.62951547 22.69496
0.76776159 1.2554219 -0.7331931 22.116501
0.99877077 1.3545426 -0.62212968 21.72035
-2.0974057 -0.11186022 -0.16149248 9.4296427
-1.8756331 -0.087558419 -0.184128 9.0969124
-1.3916341 -0.067485437 -0.16862637 8.5178499
-2.0998595 0.2143537 -0.20955618 14.347582
-1.8011489 0.19568543 -0.18630326 13.963471
-1.4671896 0.17002723 -0.20141236 14.213662
0.64449221 0.3187429 -0.20321155 8.9340277
0.94461405 0.30552998 -0.21488954 10.113656
-2.1245172 0.58113205 -0.22130707 19.762255
-1.7604002 0.58614397 -0.22607194 17.791355
-1.5266461 0.48098361 -0.18239696 21.733644
0.66498172 0.57781839 -0.21166855 14.568944
0.97711116 0.59657127 -0.19948345 13.929325
1.3137518 0.67965537 -0.1893407 8.6117067
-2.0893841 0.97402364 -0.21545398 22.438696
-1.7213085 0.96580154 -0.18182909 20.016483
0.6536507 0.96045625 -0.19220337 21.469038
1.0180111 1.0093518 -0.22032194 17.610189
1.2831227 0.96180964 -0.14349042 13.248208
-1.7058693 1.2565672 -0.19390328 23.033449
1.0391698 1.3128428 -0.17240813 20.902601
1.2103831 1.3064229 -0.0017417669 18.1
1.1393595 1.6078912 -0.099592507 22.10125
-2.2025876 -0.13103974 0.22235999 8.9646749
-1.8677015 -0.07092718 0.19366889 9.1910181
-1.3982329 -0.066508226 0.15380354 7.5282817
-2.1791315 0.20201485 0.20495249 13.943728
-1.8202769 0.23358038 0.2198524 13.150819
-1.387097 0.15889737 0.19978498 13.245304
0.58972776 0.31924 0.15359184 9.1389637
1.00686 0.28448436 0.1741613 9.2339954
-2.4159594 0.68061805 0.31878993 22.0445
-2.1407795 0.5787524 0.17015074 20.428238
-1.785414 0.58241916 0.18217072 16.587454
-1.4679641 0.52398801 0.21128973 20.092081
0.39449969 0.72947669 0.25563917 20.098999
0.60440588 0.56205028 0.19537534 13.841605
0.98201954 0.60980195 0.18854648 14.118926
1.3482995 0.71734893 0.19634041 9.020916
-2.0087857 0.87493956 0.1750654 19.539249
-1.7577263 0.95975035 0.19332929 20.394554
0.37222573 0.90620965 0.35315529 22.8475
0.65756685 0.98641574 0.17330325 20.496096
1.0111604 0.92485225 0.20005092 16.126554
1.2841842 0.99547982 0.21242338 13.698162
-1.6636909 1.2304564 0.18389936 23.038549
0.70709878 1.3080766 0.21068235 22.995602
0.97072709 1.3362768 0.19240414 21.381889
1.2592357 1.286417 0.29293323 16.847
1.1625831 1.6011809 0.014176667 22.1
-2.4607177 -0.081644394 0.71589565 9.0480003
-2.2550371 -0.12798594 0.55813652 9.0473747
-1.871264 -0.094273515 0.52549607 8.1328182
-1.3962057 -0.11295762 0.65771276 6.8867145
-1.17056 -0.15125465 0.42241955 4
-2.4514096 0.27447915 0.63358706 15.2475
-2.1494226 0.20396996 0.5672285 13.82264
-1.7930058 0.24283862 0.6064716 12.030542
-1.3815055 0.24085401 0.58947557 13.613593
-1.1748422 0.034739871 0.66724044 8.224
0.3807908 0.25999439 0.6934374 8.0911255
0.6062572 0.3367154 0.61016494 8.4173412
1.0653812 0.28309825 0.56343287 8.6926184
-2.5046959 0.77523792 0.47666565 22.046
-2.1083753 0.53540301 0.57628554 18.836535
-1.7775656 0.60704374 0.59324324 15.8058
-1.4490219 0.58894616 0.6363048 18.72365
0.3796156 0.60166609 0.57868159 15.5935
0.6499272 0.54577553 0.5964759 11.369379
1.0056536 0.61054862 0.57140952 12.644021
1.4260184 0.70556682 0.59281886 8.0127211
-2.4720228 0.84004474 0.50310183 23.046499
-2.136327 0.98668516 0.66349995 23.053375
-1.7714205 0.95465684 0.56375587 20.30505
-1.5413507 0.94728494 0.67791635 20.402969
0.37278214 0.97954655 0.45457432 23.096001
0.64288193 1.0176318 0.56791979 19.021957
1.0231998 0.92001098 0.59302938 16.299639
1.3308794 1.0292003 0.58383423 13.090015
-1.7588118 1.2431566 0.67675626 22.29475
-1.5740948 1.2456152 0.6394074 23.044802
0.56288391 1.2597256 0.64985734 22.292654
1.0406674 1.4548801 0.5788663 21.42355
1.341753 1.3026261 0.64086699 15.427501
0.78999698 1.6550875 0.69380713 23.09075
1.0994688 1.7482054 0.6694178 22.378321
1.268504 1.6832074 0.699076 19.59375
-2.479125 -0.092227675 0.96699941 9.0501251
-2.3503015 -0.15413746 0.82480288 8.0495005
-1.4207931 -0.020326426 0.98068041 8.059083
-1.0894133 -0.045250662 1.1700289 5
-2.5365367 0.24649507 0.93229473 13.674845
-2.1439364 0.28043696 0.96652937 14.079134
-1.7384528 0.22660361 0.93574607 11.162036
-1.4220581 0.24286661 0.98491544 11.917806
-1.1544014 0.20156646 1.010551 10.615798
0.5753364 0.31645733 1.0105475 6.7256665
1.015848 0.31657517 0.8684051 5.6976666
1.2138196 0.31066832 1.1148391 6
-2.6281798 0.55194801 1.0560951 16.900715
-2.1524932 0.58602393 0.96931785 17.780638
-1.7181444 0.61022258 0.96255827 15.419988
-1.4436742 0.58148849 1.0077395 15.989087
-1.1716032 0.54279923 1.1724458 15.062
0.30121848 0.45664304 0.84123385 12.089
0.62482041 0.54083955 0.98975307 10.142478
1.0943689 0.65444142 0.94537812 13.917259
1.4373692 0.69268471 0.99385768 7.8243003
-2.6537569 1.0521936 0.92386198 23.050001
-2.222122 0.98363161 1.0549423 21.888666
-1.7638435 0.97342509 0.9934023 20.271624
-1.5266498 0.93321437 1.0163562 18.917532
0.33475822 0.86198521 1.0138662 18.088749
0.57565308 1.0197842 0.94101989 17.278601
1.1297022 0.996086 0.99940121 17.585215
1.4002304 0.9663505 1.0273726 10.93902
-1.7809275 1.4006466 1.0426983 21.714834
-1.546067 1.2879959 1.0300052 22.249401
0.37169877 1.4445828 1.0159342 22.885298
0.45964354 1.3068959 0.94136065 22.590424
1.0954616 1.3950455 0.96308458 18.552193
1.4806314 1.3971182 1.0822804 15.0915
1.0558691 1.7852079 1.0113518 22.660786
1.2700673 1.8304241 0.95844662 20.341873
1.1574771 2.0562787 0.9658007 23.091499
1.9665464 2.7670546 1.1413419 23.099501
-2.4747634 -0.46047786 1.2481899 4
-1.9406091 -0.37953743 1.2443773 4
-0.98763037 -0.008126514 1.3750317 5.5
-2.6284811 0.18982224 1.3742673 12.05275
-2.2021365 0.29822206 1.3315474 13.6552
-1.8523245 0.3135944 1.4707167 11.55675
-1.4263797 0.27070618 1.3791503 10.766248
-1.0934566 0.28071404 1.3367072 11.329149
0.57907706 0.25557148 1.2476059 5
-2.7479961 0.68055874 1.2875781 18.052
-2.1931639 0.61853391 1.3542016 16.931875
-1.6777611 0.6474492 1.4062577 14.306283
-1.3950193 0.61541855 1.3708704 14.988791
-1.1633655 0.54846793 1.4686869 15.396149
0.54524189 0.5720011 1.3151196 10.837376
1.1505286 0.68981493 1.34385 12.011688
1.2868447 0.63735431 1.3740819 11.316813
-2.8248403 0.83483386 1.4743938 18.552999
-2.7538691 0.8040092 1.2705392 19.052
-2.2948279 0.96982229 1.4174112 20.656801
-1.723785 0.93722743 1.3637681 17.508453
-1.4916916 0.9800905 1.3872392 17.851187
-1.1857179 0.85129827 1.3891135 19.396584
0.33402148 0.8727811 1.5612841 13.0795
0.65603733 1.1002784 1.3117805 16.587999
1.1292794 0.99597174 1.325508 16.189127
1.3411298 0.94990951 1.3658348 13.084422
-1.9099934 1.3224986 1.4645256 23.061501
-1.5021042 1.3432256 1.3522297 21.552723
0.28353849 1.4930952 1.3835258 21.331188
1.106191 1.447679 1.3898404 18.179499
1.3998418 1.30864 1.4127005 14.181863
-1.7589066 1.6296495 1.3680489 22.425062
-1.4207309 1.6773028 1.3917475 23.052999
0.22362992 1.6090103 1.5770223 22.08
1.0355048 1.7233635 1.3389359 21.091166
1.4054354 1.8247254 1.4332161 18.0895
1.9498496 2.7378376 1.3245889 22.431585
-2.6753764 -0.40295637 1.9795264 5
-2.717937 -0.079439707 1.8724449 8.5550003
-2.3737376 -0.29800218 1.8397429 5
-1.4648434 -0.2918269 1.767869 3
-2.8682482 0.17510864 1.8640651 11.0545
-2.4341371 0.16025908 1.6989744 10.054
-1.7158296 0.36518532 1.8462273 11.561501
-1.4831094 0.29119781 1.7148319 9.2990007
0.34572259 0.3378554 1.8888459 6
0.40895724 0.24655353 1.8892765 5
-2.8982115 0.58110577 1.8688354 14.55475
-2.5887649 0.56793624 1.9573282 13.388167
-2.2404754 0.69092399 1.7503982 17.058167
-1.6578939 0.75066483 1.6512041 13.0515
-1.4373574 0.58747721 1.824101 11.805583
-1.0508031 0.54950041 1.7744676 13.922214
0.50825495 0.58371162 1.7653748 8.0797501
0.85087204 0.44996294 1.9390726 5
1.2612574 0.54483473 1.7553215 10.564501
1.8905195 0.54901785 1.8881285 4
-2.8701992 0.90485001 1.6538117 19.054001
-2.4068637 1.0835085 1.9152931 20.0585
-2.2451174 0.92450887 1.7688468 18.559313
-1.7151186 1.0174094 1.6679256 15.55125
-1.4431885 1.008534 1.8017378 16.474758
-1.1989146 0.9174813 1.6581144 20.063999
0.31745496 0.82041669 1.6340797 12.079
0.59533191 1.1259975 1.6021578 16.0875
1.334764 0.96264619 1.8151273 11.532612
-3.0514064 1.4175031 1.7699414 22.304251
-1.691354 1.2425286 1.7363932 18.914356
-1.4686084 1.3437082 1.7699832 19.623285
0.20974103 1.2948282 1.6517067 18.079
1.0455041 1.4606079 1.6992241 16.253084
1.3823307 1.4014559 1.8402847 16.231073
-1.6884563 1.7714105 1.7967021 21.55225
-1.4663506 1.6966014 1.8720827 22.0555
1.1350818 1.7813982 1.7810971 19.289
1.4741356 1.729875 1.6581318 16.088499
-1.7713375 2.0332193 1.8421605 23.052
0.98727542 2.3077128 1.8667274 23.078499
1.294921 2.1101987 1.6601987 20.087999
1.2737205 2.6828117 1.8858714 23.0875
1.9124603 2.6862757 1.7811855 21.295502
-2.0584242 -0.26008645 2.3739481 5
-1.333776 0.27399105 2.1431165 8.0319996
-2.5836573 0.71103448 2.155519 15.057
-2.180759 0.57441074 2.1682405 14.0605
-1.78131 0.52814573 2.2201188 12.0645
-1.3801836 0.58702379 2.2130067 10.139654
-1.0466571 0.72471756 2.3055933 14.067
-2.4890931 0.84447902 2.2088454 15.05675
-1.6641413 1.0830281 2.0823219 15.053
-1.3933847 0.9950037 2.1843214 14.153765
-1.0881153 0.93745732 2.2215042 17.066833
0.12730524 0.94143605 2.1714859 12.57625
1.0548475 0.80789554 2.0344951 8.0830002
1.3276978 1.0196812 2.113349 13.08275
1.6092919 1.1493247 2.0174356 11.0895
-3.0657654 1.39203 2.112149 21.056
-1.8380512 1.3812529 2.1396503 18.558498
-1.3843288 1.389853 2.1648092 18.515404
0.049003094 1.3984019 2.1252449 17.0765
1.1124425 1.4642298 2.2484651 15.086
1.2821189 1.3694568 2.0141292 20.084999
-3.2560391 1.6637862 2.3157141 22.05625
-2.9004648 1.8008035 2.2801342 23.057335
-1.7210578 1.8692167 2.0974774 21.052999
-1.4235135 1.8013152 2.194346 21.772142
1.3709323 1.6056782 2.0399821 15.086
-1.654099 2.2299922 2.1432176 23.053749
-1.4068757 2.2470236 2.2419956 22.912785
-0.99784374 2.2821383 2.3114841 23.058599
-0.6271255 2.2995934 2.3364229 23.061251
-0.23611638 2.3220296 2.3513398 22.864048
0.19589412 2.2910464 2.2095535 23.067249
0.5910604 2.3705401 2.239696 22.65325
0.9744671 2.3551619 2.2480226 21.822248
1.3408537 2.3088179 2.3412766 20.588249
0.37817129 2.4428446 2.369972 23.08
0.60597229 2.4441988 2.3264449 23.082916
1.0319197 2.5555699 2.2534664 22.920519
1.3263065 2.5665371 2.2102816 21.946573
1.8947711 2.7178779 2.3087208 20.342875
2.2618985 2.7550669 2.195653 19.094749
2.4625604 2.791337 2.1675386 19.095501
-1.4451743 -0.14007053 2.6274259 4
-2.2927697 0.62905419 2.4022117 13.062
-1.3320159 0.66884422 2.5640256 9.8943338
0.71498704 0.59877861 2.7575905 6
-1.6066654 1.0921917 2.609071 13.0545
-1.3702335 1.0292798 2.6141024 14.028796
-0.048672944 0.91034085 2.78073 11.074
-1.3191062 1.4142103 2.5339029 17.561001
-3.2203395 1.6519666 2.4542177 22.056999
-3.0073237 1.6886857 2.6404376 21.558849
-2.6246681 1.7841485 2.6404397 22.334047
-2.2250001 1.8775802 2.6161811 22.730776
-1.819057 1.9299917 2.6293769 23.066416
-1.3379207 1.7820941 2.4351094 21.060499
1.3886019 1.7962978 2.5184484 21.0835
-1.6274148 2.063288 2.6545935 23.068501
-1.3491997 2.1237571 2.6222494 22.480875
-1.0090491 2.2029519 2.6325371 22.285696
-0.59769231 2.2180936 2.6913114 22.498304
-0.1787301 2.2752275 2.6841395 22.295641
0.20124176 2.3351336 2.6483996 22.265213
0.55335647 2.3539984 2.6099198 22.044783
0.9730022 2.3118582 2.59393 20.321281
1.3395566 2.2194803 2.5940194 21.078251
0.33538923 2.4301231 2.5710998 22.27915
0.67742068 2.4355688 2.6018801 22.451481
0.95704007 2.5240402 2.5823548 21.952065
1.358966 2.637033 2.5372977 20.975861
1.7746322 2.6697154 2.7089925 19.690699
2.7696199 2.780745 2.6917958 17.09425
2.8327403 2.8206027 2.5508218 17.094999
1.4494722 0.30431128 3.0628333 5.5
-1.2392998 0.60007155 2.8999329 8.8127499
1.4313545 0.56397456 3.0449662 8.0410004
-1.242821 1.0615106 2.9228954 12.850299
1.4531739 0.9872427 3.0957117 11.5
-3.3863926 1.5726631 3.1494663 19.05875
-1.2906082 1.3143792 3.0573664 16.31625
1.4574314 1.4155922 3.0077827 15.721667
1.7434942 1.4640352 3.0368447 11.0865
-2.9926591 1.6621313 3.0275934 20.060249
-2.5463498 1.7638825 2.9261177 21.490965
-2.1760409 1.8509811 3.0340631 21.922108
-1.7971843 1.9347636 3.0178366 22.167318
-1.4162583 1.9626613 3.0143461 22.067659
-1.1468174 1.7917875 3.1495397 19.068251
1.4170961 1.8184224 3.080266 17.5795
-1.3518399 2.0926359 3.0186608 21.747932
-0.97708106 2.138581 3.0457401 22.006874
-0.58128786 2.1968412 3.006068 21.905394
-0.21790539 2.2499111 2.9880438 21.766205
0.20963809 2.3197026 3.0164249 21.466656
0.61141855 2.3287926 3.0002451 20.521194
0.97732532 2.3011196 2.9831836 19.64584
1.3858001 2.295908 3.0341897 21.893126
0.30325666 2.4005396 3.0995121 20.077749
0.59408009 2.4415879 3.0113606 21.117054
0.99742222 2.4829502 2.9746988 19.992931
1.366424 2.5643663 3.0407925 19.335958
1.7600169 2.5893304 3.0039558 18.087751
2.1414058 2.6596119 3.0020092 17.690998
2.7095613 2.7659192 2.9118609 16.59325
3.8950927 2.9527323 2.9942596 14.096001
-2.5461349 -0.41716373 3.2123735 4
-0.64637995 0.07947503 3.2092972 4.5
-0.034535497 0.28406775 3.473706 6
0.24005803 0.29261863 3.5796909 5
-1.1818023 0.5923233 3.3673029 8.06425
-0.49121654 0.5553354 3.4556665 8.2871246
-0.25705892 0.74629772 3.5150504 10.07575
-3.324069 1.0624995 3.4479332 15.0595
-1.028301 1.0101405 3.2880192 12.0665
-0.50248009 1.0188483 3.5089538 12.408
-0.18123603 1.0557693 3.5022681 12.243251
-3.2543783 1.5646055 3.2858062 18.55975
-3.1400106 1.5766219 3.207088 19.059999
-0.98381948 1.3293157 3.330898 15.56925
-0.55247951 1.4362686 3.3284984 16.074062
-0.31003067 1.5342997 3.4155796 16.0765
0.08509174 1.2069708 3.5862298 12.07825
-2.9873793 1.6463984 3.3125443 19.311127
-2.5611014 1.714625 3.3738389 19.126375
-2.246052 1.7911175 3.4206841 19.465666
-1.8089174 1.8945172 3.3896198 20.001516
-1.3831773 1.958909 3.4016249 20.403269
-1.1545399 1.9591233 3.3669274 19.669399
-0.72024703 1.9078226 3.4327514 19.407835
-0.25818989 1.6395973 3.5217972 15.40775
0.030308247 1.7125438 3.5732441 16.578501
1.0882612 1.7791048 3.3114598 18.07925
1.2783535 1.8363912 3.2939472 18.0805
-1.3614008 2.1663644 3.39011 19.560835
-1.0024515 2.1077187 3.4082112 20.300642
-0.60111839 2.1955833 3.3874564 20.383718
-0.17661771 2.2480617 3.4278808 20.145044
0.19288382 2.275871 3.4238584 19.882402
0.56189096 2.3125777 3.3815079 19.607836
0.91576993 2.3471503 3.3472266 20.180775
1.3896759 2.3275084 3.3739486 19.45125
0.67094874 2.4231851 3.3645046 20.414749
1.0669234 2.4772258 3.3922784 18.750282
1.3778716 2.528559 3.3813162 18.085077
1.8120818 2.5948925 3.3856528 17.253708
2.3772593 2.5524349 3.4299421 16.09
2.5441186 2.6882586 3.3603024 16.091099
3.0633245 2.6590161 3.491755 14.09225
3.1049225 2.886533 3.4962008 15.0925
3.4144621 3.0007381 3.2923157 15.094
3.710989 2.886035 3.4141016 14.09425
7.3203788 3.48404 3.5714924 9.0994997
-0.61344069 0.21167591 3.9003785 6
-0.13392133 0.15843756 3.642628 4
0.52956402 0.29542637 3.6548877 4.5
0.96238577 0.30210462 3.7758534 4
-1.0208013 0.54382265 3.7911639 9.0690002
-0.69451332 0.40709344 3.7451963 8.0705004
-0.65717864 0.95870554 3.8776364 11.573625
-0.31660625 0.99976677 3.7575839 10.072
0.21226828 0.93837512 3.6540539 10.078501
0.59277338 1.1075975 3.7842171 10.080501
-3.0891609 1.5547562 3.8917658 16.894501
-2.7723529 1.563352 3.9774649 16.061001
-0.91727209 1.4353914 3.8327119 15.368584
-0.61194384 1.4390006 3.7888756 14.940066
-0.18844648 1.4242169 3.7993517 14.258545
0.19418629 1.4588369 3.8070436 13.364535
0.57540625 1.4058666 3.7994273 12.080714
0.98170739 1.4381191 3.900521 11.5825
-3.2024441 1.6028745 3.8147695 18.061501
-2.8853593 1.6192421 3.6475921 18.0625
-2.5017245 1.6848012 3.8613536 17.563835
-2.174665 1.7351707 3.7847707 18.003187
-1.7830833 1.8358865 3.8438947 18.188835
-1.3997365 1.9035128 3.7995548 18.66375
-1.0805987 1.9163672 3.8501456 18.403814
-0.56658345 1.6973284 3.6932352 16.072666
0.25754532 1.8085719 3.6772251 16.22257
0.5466733 1.7577397 3.8917313 14.567166
1.2781971 1.6891662 3.9568398 12.084
-1.3475338 2.2069561 3.7708366 18.662199
-0.96382397 2.1581995 3.7729499 18.629282
-0.59708846 2.1297815 3.802464 18.721575
-0.21196015 2.1794302 3.7745025 18.721264
0.18723948 2.2436447 3.8105428 18.708212
0.5866214 2.2812552 3.7843511 17.757723
0.98232245 2.2743006 3.8575499 16.914042
1.3080781 2.2547746 3.8261063 15.823999
2.0311499 2.3610318 3.9952688 15.073
0.77497303 2.421164 3.7081037 19.081249
1.0378848 2.4589944 3.7568481 17.706936
1.4284233 2.4918778 3.8118885 16.441
1.7319956 2.5360053 3.7894721 16.486099
2.2619407 2.599781 3.8586304 15.374285
2.629318 2.6731429 3.7433951 15.090216
2.9003849 2.6448085 3.788393 14.090799
2.9040461 2.8141308 3.6169326 15.0915
3.5262599 2.8156753 3.7704377 13.092751
7.1104202 3.4615831 3.787482 9.7655001
-0.61098188 0.18991095 4.0602021 5
-0.17560235 0.24756089 4.201488 5
0.088561386 0.27589756 4.2983704 5
-0.54563534 0.56643718 4.0495453 8.0737495
-0.16674809 0.61759758 4.2121263 7.8606005
0.19811219 0.67200238 4.2438483 7.4136248
0.62072825 0.65743417 4.3027797 6.7596664
1.1661693 0.63883716 4.2654772 6
1.4370029 0.4919467 4.2159538 4.75
-1.0824255 0.98507339 4.2236433 11.072
-0.6357736 0.92223072 4.1601453 10.407001
-0.24800934 1.1244951 4.2960296 11.07575
0.23365459 0.90640253 4.2449594 8.7922134
0.55914003 1.0544069 4.2934747 9.4854288
2.8639882 0.92196143 4.2205377 5
-3.4450238 1.4201775 4.0994625 16.060999
-2.9545975 1.5325915 4.1903028 16.06225
-2.6967766 1.4554658 4.1832232 15.396999
-0.10151789 1.2167858 4.360136 11.0765
0.21098502 1.5958055 4.1447024 13.412
0.59749728 1.3533863 4.2985725 11.079999
1.0026864 1.355774 4.3190074 10.58175
1.3286012 1.4418465 4.2453294 10.416667
1.7415985 1.4514433 4.3516874 9.5847502
2.3016739 1.5884962 4.3726201 9.58675
2.6874948 1.5824249 4.3948207 9.0880003
-2.598964 1.6476636 4.2078314 16.398613
-2.1835847 1.725872 4.1544347 17.2668
-1.8348531 1.8114834 4.2000928 17.496927
-1.3276321 1.8825955 4.1894803 17.180836
-1.0389955 1.9627616 4.1933823 17.358356
-0.6135211 1.8961163 4.2766056 16.407667
0.30603546 1.6789052 4.1077852 14.07925
0.62051094 1.7548615 4.1329703 13.83075
1.0082039 1.7511995 4.114594 13.3325
1.4605262 1.6925273 4.1608911 11.584249
1.8267473 1.732963 4.2491951 11.0855
2.0745978 1.7933955 4.3378096 11.08625
-0.93585485 2.1439936 4.1578584 17.232584
-0.60976905 2.1005967 4.1620822 17.671833
-0.2278187 2.1053495 4.2080698 16.949015
0.16836272 2.2308283 4.1284022 17.740833
0.65395808 2.2677493 4.2204585 16.177134
0.99823803 2.2681444 4.2511001 16.130737
1.4175732 2.2222464 4.2335939 14.617385
1.7832426 2.283246 4.1618733 14.628889
2.224426 2.1558733 4.3474736 12.753667
2.5584242 2.1707458 4.3708115 12.088
3.0649068 2.3684478 4.3110113 12.08975
1.0697495 2.4299521 4.2118678 16.08
1.4038205 2.4639504 4.1928754 15.415416
1.7913769 2.4385109 4.1928239 15.086
2.1599221 2.5427537 4.2345634 14.753943
2.5353115 2.6058376 4.2375226 14.07375
2.9227273 2.7025423 4.3693595 14.0895
3.3267481 2.7660949 4.207571 13.091
3.8525126 2.8654914 4.3514137 12.092
4.2883019 2.9433813 4.341166 12.093
5.0585814 3.1022742 4.364583 11.0945
5.538383 3.177587 4.2866392 11.0955
5.6962738 3.1793182 4.206574 10.096
6.2734241 3.3073621 4.1114964 10.097
-0.94240201 -0.26434243 4.4807 3
-0.97212219 0.25700253 4.460474 6
0.52542102 0.31696844 4.4429245 4
2.2757413 0.32610595 4.7400832 3.25
-0.5218752 0.64299726 4.6499338 8.5719995
0.12702565 0.48529604 4.6407838 6
0.78080142 0.69526404 4.4614458 6.5
1.5246021 0.57499534 4.4329772 5
1.7236871 0.50174409 4.7739258 4
0.91924822 1.0421798 4.4424181 8.4809008
1.3720148 1.0494553 4.5693426 7.5495005
2.2396855 1.1444224 4.6343184 8.0722504
2.5812495 1.0169364 4.4676151 5.7777781
2.8270595 1.0812684 4.6504445 5
-3.6368713 1.4307179 4.4065943 15.061
-3.3668532 1.4063871 4.4428439 14.81075
-2.9887457 1.4532559 4.4919486 14.662199
-2.5376682 1.407855 4.4624901 14.564
-1.2782524 1.3630441 4.5130243 14.06925
-1.0159839 1.3683211 4.5955429 13.403834
-0.67927641 1.285861 4.7216735 12.072
-0.10850477 1.3772678 4.5634151 12.076667
0.21853699 1.3588992 4.638555 11.078
0.42545116 1.3086874 4.5758314 11.079
1.1129278 1.2617239 4.6592469 9.081666
1.4478278 1.3872977 4.5867319 9.5831242
1.8040851 1.3845078 4.6687007 8.9998331
2.232317 1.476073 4.6223326 9.2041254
2.4834092 1.3906702 4.484838 8.4158335
2.9753742 1.2475038 4.4348006 7
3.3889399 1.4952724 4.4716415 7
-2.8026681 1.6070861 4.5758386 15.0655
-2.5142417 1.6554822 4.6033773 15.565937
-2.2029824 1.6728824 4.5676637 15.232166
-1.7827811 1.7924696 4.58073 15.94375
-1.3825151 1.8346958 4.7245374 15.641286
-1.006374 1.9225448 4.6519771 15.904792
-0.67687052 1.9749106 4.542592 17.07275
-0.23927532 1.918645 4.6212559 15.408666
0.28667894 1.9108225 4.4813499 14.079
0.59589785 1.9884585 4.5758328 14.08025
1.1090405 1.9171426 4.4326739 13.0825
1.3973601 1.8161509 4.6361861 11.875
1.7025676 1.8647375 4.7166419 11.746333
2.1787364 1.6827663 4.5916619 10.086
2.5582404 1.8193995 4.592093 10.087286
3.027983 1.6724873 4.5278473 8.5887499
-1.2272222 2.1484756 4.736753 15.059
-0.92286944 2.1479976 4.6562328 15.814499
-0.58467519 2.114435 4.6292396 16.25168
-0.1541694 2.1831169 4.589787 16.446062
0.18018351 2.1841915 4.5975513 15.762218
0.61143577 2.2308898 4.63305 15.526486
1.0009416 2.2400653 4.6353378 15.078238
1.3594571 2.2157257 4.597261 14.82875
1.8386706 2.1614599 4.6413283 13.080001
2.1044943 2.1569314 4.6603522 12.5125
2.6169758 2.1189137 4.5743198 11.4877
2.9207807 2.1115136 4.6191154 10.8385
3.4466121 2.3817103 4.6433458 11.09
1.4031736 2.4796538 4.5114746 15.832875
1.7431917 2.5347071 4.6390305 14.5825
2.2542338 2.5061235 4.6253772 13.486
2.6432698 2.4629047 4.5775938 13.087999
3.2268467 2.7326474 4.4838901 13.09
-0.2048351 0.24238187 4.8362827 4
0.048544019 0.32750383 5.1435809 4
0.68763602 0.2213379 5.1437516 4
2.3259125 0.35236225 5.1245561 3
-0.97672534 0.73690134 5.0058103 9.0719995
0.3952668 0.53176057 4.8302736 6
1.3386269 0.57633746 4.9096041 5
1.7554132 0.59817463 4.9491005 4
2.1818321 0.65679491 4.8769283 5
2.4838247 0.74721903 4.8414817 5
-1.0204153 0.97010994 4.9206309 10.072
1.477212 1.1390491 4.8345027 8.0827503
1.6825579 1.1935686 4.8249817 8.0834999
-3.8335915 1.3485804 5.0096798 14.061501
-3.3832633 1.3261529 5.0969887 13.0605
-2.9938605 1.4567769 5.0792665 13.31275
-2.6271653 1.5597284 5.0576496 13.864599
-1.1072825 1.3286324 5.1258659 12.072
0.50716805 1.37691 4.8042979 11.079
1.8244538 1.3698596 5.0270844 8.8236876
2.1913886 1.3512766 4.9669213 8.2769995
2.4611621 1.4185781 4.9319077 8.0860004
3.0362136 1.5217406 5.0807776 7
-2.811106 1.627539 4.8403225 15.065
-2.5940142 1.6216109 4.9925027 14.81625
-2.2516131 1.7001107 4.9118466 15.353429
-1.7465789 1.7667634 4.8882928 15.0687
-1.3457367 1.8339027 5.0251856 14.8718
-1.0195783 1.8557388 5.0422864 14.786643
-0.59840775 1.9114008 5.1499653 14.198125
-0.30018237 1.974317 5.0299182 14.073833
0.74304461 1.6449778 5.167459 11.08
0.89036739 1.6405154 5.1979904 11.0805
1.542973 1.8020372 4.9318366 11.0765
1.8514998 1.7529066 4.9425049 10.6733
2.2590559 1.8266841 4.9625506 10.245416
2.5918417 1.781871 4.9787178 10.0775
-1.2451749 2.0867014 4.9217019 14.059
-0.8488521 2.0466378 5.0130677 14.735001
-0.6411227 2.1257086 5.031146 15.005437
-0.16145185 2.1252346 4.9536891 14.937335
0.13949692 2.183048 5.0004129 15.072476
0.56476492 2.20928 5.0323324 15.123901
0.90624708 2.2390687 4.9784203 14.909416
1.4220295 2.161345 5.0273356 14.408584
1.6690168 2.1879318 4.9355125 13.744499
2.2728553 2.2645597 4.8556252 13.07225
2.5556376 2.0614166 4.9376559 12.073
3.007477 2.06791 5.1984501 10.0875
1.1969372 2.4325771 4.8366942 14.079
1.3901874 2.4800804 4.9632387 14.2804
1.8010466 2.4881077 5.0440989 13.796572
2.1515229 2.5179236 4.9386907 13.227073
2.6278076 2.7158034 5.035008 13.0835
-3.7594717 -0.32251021 5.4681258 5
-3.9312949 0.32669681 5.5611143 8.0614996
-1.0433592 0.14257985 5.3578029 5
-4.0715432 1.1211525 5.3616238 12.06125
-3.9050963 1.1967591 5.505703 13.062
-0.96470296 1.0704219 5.4139237 9.0679998
3.0923877 1.1325316 5.2578936 5
-3.6789048 1.2907071 5.4172549 13.396
-3.3821876 1.3951106 5.4705405 13.730416
-2.9852934 1.4068918 5.5742354 13.06525
-2.6581347 1.5122734 5.471705 13.399666
-0.95052189 1.5635811 5.334383 12.068
3.9424388 1.5274301 5.22369 6
-2.4556584 1.6226261 5.3211675 14.067
-2.1951332 1.6735398 5.2982821 14.400833
-1.7854036 1.7588539 5.3827209 14.402388
-1.477971 1.7859833 5.4525418 14.070551
-1.0313622 1.8608168 5.3853068 14.070499
-0.63805723 1.8615249 5.5034342 13.4718
-0.25695848 1.9701588 5.4812908 14.324375
0.6197716 1.6722518 5.2039504 11.0795
1.1076736 1.6243038 5.2064238 10.58125
3.5607512 1.6246707 5.2943082 7
-0.97269863 2.0988612 5.3261862 14.565375
-0.59071946 2.1047451 5.3079705 14.317875
-0.2305 2.1090868 5.3359857 14.471799
0.20311378 2.1511545 5.3873906 14.406134
0.59144783 2.2364171 5.3647952 14.790786
1.0267969 2.2265933 5.4392285 14.076908
1.3308953 2.2130189 5.3900318 13.537115
1.7504337 2.1764479 5.393939 13.5745
2.178308 2.1614087 5.4821849 12.071
2.5618908 2.2936368 5.2596436 12.0725
3.2447925 2.1773098 5.2925138 10.088
1.5439636 2.4200003 5.3184962 13.748333
1.8644785 2.4797606 5.3650031 13.082001
2.2484691 2.5395081 5.4376607 12.58275
2.6052847 2.6313877 5.398325 12.08275
2.8354764 2.6817453 5.3583999 12.0835
-0.8332231 0.039835967 5.9896684 3
-3.2301292 1.3517599 5.6348729 13.0645
-1.7952706 1.6677765 5.7878342 13.070001
-1.4075437 1.7578694 5.7254691 12.820999
-1.0212318 1.8415675 5.8402696 13.29439
-0.56536061 1.8730896 5.8284597 13.3245
-0.22404122 1.9471536 5.7718954 13.07625
0.042266905 1.9511065 5.8962531 12.0735
-0.89022136 2.0590534 5.7525005 13.5645
-0.61020523 2.0966673 5.7772412 13.736833
-0.19023448 2.1156521 5.8365011 14.072299
0.17742328 2.1128595 5.7759013 13.57375
0.60697603 2.1472118 5.716845 13.82225
1.0195234 2.1897047 5.7920322 12.7
1.2950971 2.2583117 5.7441225 12.277201
1.476208 2.4029822 5.6417375 13.081
1.8149273 2.4667516 5.7405725 13.082
2.1814311 2.5147152 5.8886137 11.831875
2.5032184 2.5688279 5.850956 11.08175
-0.83844519 0.22670481 6.0364566 4
-0.82632083 0.62196469 6.0348544 5.5
-0.7791521 0.63142395 6.055222 6
2.6022022 0.41912714 6.1498413 3
-0.87555736 1.0684831 6.0488672 8.2842503
-0.79417807 0.81419384 6.075727 7
-2.4760532 1.531737 6.2699332 12.56775
-2.3053889 1.5148108 6.3529778 12.06875
-1.9409703 1.5892805 6.188303 12.0695
-0.81271613 1.3768419 6.0795374 9.5
-0.60330707 1.4766725 6.2472267 10.071334
-0.39270523 1.5650572 6.1430488 11.0705
-1.7929161 1.6224195 6.2924004 12.07075
-1.4190794 1.7054868 6.1888719 12.072
-0.95906281 1.8272748 6.1369839 12.396055
-0.7172116 1.7781779 6.2115765 12.070499
-0.37283078 1.9237994 6.2970414 12.072
0.4669897 1.9995896 6.1263375 12.0785
1.7657552 1.7703427 6.1448426 10.069
-1.0530626 2.0240502 6.0680079 12.564
-0.62365514 2.0836666 6.071147 12.780428
-0.16283245 2.0960405 6.1899562 12.063
0.21484344 2.0975318 6.2753344 12.447001
0.60934371 2.1155958 6.1901622 12.254818
0.95897555 2.1632209 6.0816131 12.32725
1.4741607 2.1496997 6.3245754 12.244166
1.7846189 2.231914 6.2299523 12.329249
2.3857198 2.539711 6.1207228 11.081
-0.99445736 0.42494926 6.7353292 6
-0.59077442 0.47647914 6.7800984 5
-4.0231481 1.1238887 6.7807608 11.0635
-3.8074148 1.1660786 6.703052 11.064
-0.72638965 1.1924418 6.7066045 10.072
3.3610499 1.1601665 6.7602334 4.3333335
-3.6000731 1.2073793 6.6273746 11.0645
-3.4371672 1.3331637 6.585278 11.815
-2.8995855 1.3812591 6.4737329 12.0665
-2.7218139 1.4197299 6.4024014 12.067
-2.1170607 1.571162 6.4282284 12.06975
-0.76365376 1.3855132 6.4180183 10.074
3.6933014 1.296086 6.6842175 4.5
-1.2811316 1.7719734 6.5132475 12.072
-0.98585802 1.7998163 6.4315071 12.07325
-0.66330028 1.86768 6.5260348 11.567499
-0.25870347 1.9056927 6.6002407 11.907417
0.016552195 1.9360241 6.5598869 12.075
3.325808 1.7456192 6.5833559 7
-0.50093001 2.0659328 6.6216993 12.07025
-0.21631093 2.0764749 6.4906883 12.57125
0.26023936 2.0444016 6.6990824 11.57
0.59157109 2.0578551 6.7045689 11.826375
1.0589091 2.1445558 6.627563 11.739417
1.3982811 2.1735754 6.564074 11.404
1.7962011 2.3304298 6.5475578 11.080167
2.6998911 2.151309 6.749856 9.0807495
3.0073235 2.1346955 6.6867771 8.5407505
2.1536183 2.4431071 6.5810757 11.07975
2.7486145 2.4167724 6.7747793 10.081
3.0285473 2.4551497 6.6931291 9.7907505
3.2820854 2.4700198 6.6497288 9.5
-0.82301491 -0.20184793 6.9165096 3
-0.40343511 -0.19438241 7.0251393 3
-0.23257643 0.11348107 7.0759306 3
-0.18946898 0.52215028 6.9074211 5
1.0962948 0.92720431 7.0110121 6
1.8133029 0.97391564 7.0308223 5
-3.2793548 1.3930234 7.1175213 11.066
-1.2054279 1.3437719 6.8202028 10.069
-0.9749884 1.4335598 6.8583341 10.06975
-0.7481612 1.5451121 6.9652567 10.0705
0.2431051 1.2812097 7.0893774 8.0732498
0.69334424 1.3219937 7.1212273 8.0745001
1.7473358 1.3832406 7.0541968 7
-0.5057959 1.7827008 7.0082889 10.819875
0.21120071 1.8157809 7.039669 10.0735
0.60007823 1.8190072 7.1343989 9.4308758
0.99952745 1.9476857 7.1713991 10.07575
1.532109 1.6313562 7.0723009 8.0675001
1.7073317 1.62361 7.0199327 8.0679998
-0.1939756 2.0242472 6.9995127 11.06275
0.057923526 2.0637591 6.8671446 11.0635
1.0707462 2.1443644 6.880002 11.07825
1.4328436 2.2259958 7.0409226 11.07925
1.772812 2.1052494 6.9588971 11.075999
2.5175467 2.2330556 6.8357477 9.5802498
2.9346664 2.5468194 7.0183282 10.0835
-3.8026245 0.50315571 7.4418302 8.0617504
2.8588262 0.66783404 7.4347749 3
3.3055327 0.79655671 7.3266392 3.25
2.4106448 0.90743142 7.5984941 5
2.964551 1.051586 7.4266925 4.5555553
3.5173674 0.82618868 7.2802429 3.5
-3.1752751 1.4023426 7.3677974 11.0665
-2.2370853 1.5056739 7.4813194 11.06925
-1.9791702 1.5221443 7.4875007 11.07
2.7884705 1.4345613 7.4524679 6
3.088706 1.448377 7.3821311 6
3.4342515 1.3477241 7.2965994 5.5
0.28665531 1.920096 7.5414295 11.0755
0.44180551 1.940323 7.3795867 11.076
-0.63658214 2.0013804 7.4437475 10.0615
0.31335947 2.0307672 7.2371774 11.073
1.4345773 2.1775839 7.3114433 10.410167
1.7037861 2.2483497 7.431685 10.07275
2.1453149 2.3396182 7.2891469 10.081
2.4428661 2.3993263 7.4656892 10.0795
2.3212097 2.409162 7.5377531 10.08025
2.6915355 2.4323819 7.506525 10.082251
3.0974073 2.4358544 7.4456511 9.58325
2.6127396 0.93817955 7.8620658 4
-2.9563735 1.3435466 7.9147034 10.5675
-2.3539684 1.4190978 7.6790075 10.069
-0.5846417 1.3352 7.749157 8.0614996
-0.39709643 1.39733 7.7547817 8.0620003
-0.86991417 1.6324283 7.7762856 11.072
0.537413 1.8965896 7.965713 10.076
1.019744 1.9908161 7.7513313 10.409167
1.8136533 1.986114 7.8308749 9.5725002
2.1013336 1.8026937 7.7794361 8.0684996
-0.17379194 2.0641232 7.8658819 11.0715
0.49553978 2.0192692 7.6010542 11.0735
1.3941348 2.1487515 7.8413353 10.06675
1.8267077 2.2297161 7.9352956 9.0775003
2.0719557 2.2731245 7.8042369 9.0782499
2.6130261 2.3461909 7.9124722 9.0795002
-4.0497956 0.97253418 8.3260059 9.0649996
-3.8123388 1.0337272 8.242301 9.0655003
-3.4863119 1.1322927 8.1603556 9.5662498
-3.000814 1.3282824 8.0963573 10.0675
-1.8912976 1.4897045 8.1787434 9.5690002
0.14518571 1.3223338 8.2795591 8.0745001
-0.50424731 1.6511425 8.1661415 10.073
-4.3809414e-05 1.7834798 8.3705425 9.0725002
0.20882261 1.8060971 8.1692114 10.075
0.7176308 1.9891109 8.2005777 10.074
1.3804948 1.9543393 8.3346958 10.07575
1.7242584 1.9843259 8.2366409 10.07675
2.2392178 1.9359268 8.3020277 10.078
-0.49265641 2.0464363 8.1363354 10.06625
-0.36547461 2.0099673 8.2558165 10.071
0.00077436888 2.0363319 8.0694723 11.072
0.65584445 2.0574098 8.2704906 9.5647497
1.0423076 2.111105 8.1241636 10.06575
1.5409679 2.1317151 8.2910376 9.0764999
1.6780366 2.1637743 8.0480433 9.0769997
2.1887023 2.2590361 8.2246094 9.0802498
2.4590445 2.2433379 8.0195713 9.0799999
-0.4937188 -0.045595068 8.5771551 4
-4.7968683 0.79576254 8.577776 9.0635004
-4.5390162 0.86285722 8.5019732 9.0640001
-3.5508835 1.1448122 8.6803064 9.0664997
-2.7482929 1.1531317 8.5576162 9.0655003
-3.314256 1.2012129 8.6334944 9.0670004
-3.114691 1.2635127 8.6441164 9.0675001
-2.2378461 1.2649487 8.6191521 9.0667496
-0.19606438 1.8343542 8.6151371 9.5717497
0.10204291 1.9602818 8.6144409 10.07225
1.0339561 1.940709 8.6309357 9.0749998
2.087014 1.9165987 8.4828072 9.0775003
0.30910945 2.0194185 8.5073671 9.4001665
0.93193203 2.0048873 8.5779142 10.0745
1.2273022 2.0319257 8.6880465 9.0754995
1.8192269 2.1088769 8.5799704 9.0789995
-3.6899161 0.87983352 8.9387865 8.0635004
-3.4447911 0.94932806 8.8607674 8.0640001
-2.7198749 1.2283528 9.1071539 9.0695
-1.7856838 1.324623 8.9339571 9.0679998
-1.593299 1.3718714 9.0755281 8.0684996
-1.1575828 1.4258898 9.1787024 8.0695
-0.77180314 1.5405847 8.847331 9.0705004
-0.12714452 1.5530555 9.0065508 8.0719995
-0.21590331 1.9608276 8.9885778 9.0669994
0.10170624 1.8554462 8.9232674 9.072999
0.55516297 1.871358 8.8935423 8.7371664
1.0598451 1.9560311 9.0598202 8.5747499
1.5947402 1.8784895 9.04072 9.0760002
1.7787396 1.905506 8.9208126 9.0764999
2.0472229 1.896155 9.1973572 9.0769997
2.6952717 1.7901127 8.8710403 7
1.0978258 2.0599482 9.1176357 9.0655003
1.4337518 2.0369778 9.093174 9.0720005
-2.4472206 1.3052479 9.4625044 9.0695
-1.3711094 1.3581839 9.2879219 8.0690002
-0.55839396 1.5730174 9.4201984 8.0710001
-1.1826819 1.6440468 9.2034016 9.0725002
0.58162248 1.8880663 9.4765205 9.0759993
0.98487067 1.8318113 9.410635 9.0764999
1.3049605 1.9136491 9.3416557 9.0762501
2.4838283 1.8806924 9.2094126 9.0780001
1.5050985 2.0423729 9.2698565 8.4059992
2.344187 2.1935496 9.5085087 8.0775003
2.5516846 0.26036838 9.915823 3.3333333
-2.0490158 1.1296308 9.7906065 8.0675001
2.5779021 0.95877516 9.9609632 5.5
-2.1630616 1.2322232 9.9271536 8.0710001
-1.8265249 1.2027968 9.6366587 8.0679998
-0.0014390945 1.496811 9.894351 8.0740004
2.5593624 1.3206167 9.9752836 7
0.42210224 1.7861708 9.8623962 8.4070005
0.97019845 1.8979911 9.6474752 8.4101667
1.4049803 1.9699584 9.7627392 8.0790005
2.0851691 1.8536024 9.7812328 8.0777493
1.8480614 2.0273702 9.757575 8.0799999
2.1268377 2.0879743 9.9049339 8.0804996
-5.0185852 0.61814249 10.061242 8.06425
-4.6675487 0.65724051 10.15581 8.0649996
-1.9202701 1.2879593 10.194271 8.07125
-0.43155429 1.368697 10.168382 8.073
-0.21462719 1.4428803 10.073444 8.0734997
2.5119579 1.3805879 10.016907 6.6666665
0.10433157 1.8428674 10.074715 8.0722504
0.67473584 1.8452618 10.089438 8.0734997
1.3284371 1.8464487 10.079472 8.0769997
2.2253137 1.8443244 10.144018 8.03825
2.4856651 1.7933846 10.036857 8
-4.2524319 0.74590862 10.583357 7
-1.7228343 1.3065289 10.458048 8.0717497
-1.496814 1.3332608 10.714651 8.0722504
-0.17258385 1.9311122 10.461937 8.0625
0.73740494 1.6655806 10.580508 8.0754995
1.0485098 1.7361276 10.529263 8.0752506
-1.2104821 1.4128553 10.956673 8.0725002
0.35891268 1.960423 10.817497 8.0635004
0.97737914 1.8148041 11.152748 8.0740004
1.4090581 1.7972099 10.888798 7.7171669
1.8145264 1.773458 10.978024 8.0757504
0.93537784 1.9849334 11.248642 8.0644999
-1.87552 1.0577139 11.794777 7
-1.542806 1.1310929 11.90047 7
0.77850068 1.6535434 11.777387 7
4.6382504 1.9003224 11.699159 5
-4.9196582 0.39215147 12.136625 6
-4.6984134 0.40517971 12.289665 6
0.51421642 1.5979849 12.280578 7
0.81201482 1.7202657 12.15426 7
2.1200857 1.7754877 12.121112 7
2.4899065 1.750412 12.374402 7
-0.70341599 1.2629254 12.572861 6
1.3629321 1.7702439 12.403724 7
-5.3586407 0.25356758 13.028512 6
0.14464626 1.4142944 13.025664 6
1.8303071 1.673128 12.863813 7
-4.8389878 0.59841359 13.25652 6
2.0085387 1.7334892 13.439829 6
2.7328317 1.5516618 13.723086 6
2.4859762 1.520569 14.111208 6
-5.6297302 0.19597039 14.739427 6
2.2338283 1.4899119 14.41167 6
0.94404536 1.6137266 14.441704 6
2.6471832 1.7148366 14.771029 5
1.6439118 1.5753763 15.130362 6
-5.4068956 0.2220614 15.203074 5
1.9962271 1.4977185 15.268711 6
1.7292306 1.4772187 15.743599 5
5.1349373 2.3146756 15.885625 5
2.6927032 1.375882 16.7474 5
2.3524559 1.6475112 16.732176 5
2.8273222 1.4680496 16.9571 5
-2.2666101 0.14250605 17.236755 4
-1.6368502 0.36849272 17.582888 4
1.7053783 1.5686142 17.501884 5
-0.19052562 0.58235192 19.762306 4
