# .PCD v0.7 - Point Cloud Data file format
VERSION 0.7
FIELDS x y z intensity
SIZE 4 4 4 4
TYPE F F F F
COUNT 1 1 1 1
WIDTH 1208
HEIGHT 1
VIEWPOINT 0 0 0 1 0 0 0
POINTS 1208
DATA ascii
1.5077267 0.34642115 -1.4482503 8.1254997
-1.6509752 0.62827265 -1.4717661 11.571428
-1.6511059 0.71629262 -1.434314 13.00975
-1.63067 0.80793774 -1.4967309 14.019
-1.5789512 0.86301094 -1.4471513 15.019
-1.6132245 0.91680694 -1.4548187 16.009499
-1.5576257 0.9229269 -1.494812 16.018499
-1.5806129 1.016495 -1.4360702 17
3.0374339 1.0084839 -1.4985045 12.1185
-1.5576074 1.1631513 -1.4560393 19.018749
-1.5605735 1.2201561 -1.4320475 20.018999
-1.5553364 1.3373388 -1.4835365 21.018499
1.0409358 1.3114221 -1.4526101 23.129749
1.3687702 1.3374021 -1.4317595 22.126499
1.4165862 1.336984 -1.4218893 22.125999
13.08564 1.9249382 -1.423537 7
5.6678934 2.1566315 -1.401817 14.1135
6.4949412 2.2602043 -1.4516393 13.113
4.2728262 2.3742435 -1.4530758 18.115499
4.9464583 2.3382056 -1.4490706 16.1145
2.987951 2.4454496 -1.4015409 23.118
3.5687835 2.4782777 -1.4852643 21.117001
3.6234016 2.4632609 -1.4090661 21.116501
3.7537308 2.450305 -1.4692262 20.116501
-1.5737863 0.39877275 -1.3261684 9.0200005
-1.6323543 0.41055325 -1.3060402 9.0205002
-1.5755098 0.49992973 -1.3235874 10.02
-1.6349534 0.69339031 -1.3713516 13.02
-1.6679426 0.7963506 -1.3410382 14.0205
-1.645324 0.8586219 -1.3605907 15.26
-1.6330122 0.92972553 -1.3619521 16.176666
-1.6231487 1.0736592 -1.309857 18
-1.5702369 1.2104853 -1.3252749 20
-1.5551919 1.3467345 -1.3065494 22.02
10.004726 2.113786 -1.3195294 9.1110001
6.5438271 2.2549715 -1.3102797 13.1125
4.003952 2.3711708 -1.3674861 19.115499
4.1661491 2.3513196 -1.314199 19.115
4.386621 2.3440158 -1.3882632 18.115
5.0532331 2.3535872 -1.3588248 16.114
5.6689644 2.3662639 -1.3989553 15.1135
3.0714347 2.4621744 -1.3523779 23.1175
3.2320037 2.462507 -1.3486047 23.117001
3.7474511 2.440156 -1.3692287 20.615999
3.8591599 2.4147496 -1.315363 20.115499
-1.6781006 0.078579254 -1.2739388 3.5
-1.6494458 0.51903296 -1.2657092 10.271
-1.6120385 0.67189485 -1.2924919 13.0205
-1.5889843 0.86274993 -1.2767242 16.0205
-1.6236538 1.1654607 -1.2711027 19.02075
-1.5802929 1.2123919 -1.2513506 20.010376
-1.5776503 1.3257841 -1.2644339 21.0205
19.040888 1.8538269 -1.2622793 6
5.7335963 2.169759 -1.2829075 14.113
9.362958 2.1487443 -1.2201459 10.111
4.3372869 2.3171949 -1.2741762 18.1145
4.4999571 2.3371902 -1.2066642 18.114
5.1494732 2.3548176 -1.2623416 16.113501
5.6341681 2.3402741 -1.258109 15.113
3.4043763 2.4764247 -1.2391806 22.115999
3.7762814 2.4457796 -1.2830871 21.115499
3.838383 2.4298329 -1.2094947 20.115
4.7950101 2.4015028 -1.2843462 17.114
-1.7115973 0.53476661 -1.195666 11.022
-1.6702192 0.67150646 -1.1550549 13.022125
-1.5229198 0.73094726 -1.1426208 14.52125
-1.5791456 0.82632041 -1.1345782 16.021749
-1.700536 1.0261605 -1.1914744 17.021999
-1.6360104 1.0640644 -1.1224468 18.511
-1.6173613 1.2210743 -1.1519558 20.261
-1.5982451 1.218022 -1.1235273 21.021999
-1.6184644 1.3455266 -1.1316741 22.021999
5.8244967 2.1929851 -1.1673038 14.1125
6.6172695 2.2474334 -1.1723515 13.112
4.0941892 2.3565099 -1.1991307 19.1145
4.5603352 2.3385439 -1.1300526 18.113501
5.205565 2.3483663 -1.1537486 16.113001
5.6351829 2.3300245 -1.1273518 15.1125
3.3004065 2.4643295 -1.1267222 23.115499
3.78387 2.4334939 -1.1936181 21.115
3.8843424 2.4234319 -1.1429085 20.1145
-1.7383624 0.44543225 -1.0278964 9.5237503
-1.634241 0.42111927 -1.0389616 9.5229998
-1.5719597 0.49689609 -1.0498959 11.0225
-1.7135684 0.55962825 -1.0369087 11.0235
-1.6779718 0.54644251 -1.0672368 11.023
-1.7012354 0.69114113 -1.0307446 13.0235
-1.6592658 0.69833994 -1.0125748 14.0235
-1.5723113 0.72619343 -1.0823174 14.3555
-1.6328669 0.83411378 -1.092369 16.022499
-1.6377702 0.95513725 -1.0847119 17.51125
-1.6314723 1.0313026 -1.0368425 19.023001
-1.6194514 1.1519271 -1.0336432 20.023001
-1.6313677 1.2361656 -1.0869106 21.022499
-1.5908078 1.2112976 -1.011912 21.023001
-1.6242291 1.3279746 -1.0599884 22.022751
9.9615002 2.1395292 -1.0880522 9.1105003
5.9102798 2.2152011 -1.0477792 14.112
6.7115641 2.2530847 -1.0354608 13.1115
7.5412078 2.2415402 -1.0010538 12.111
3.9294429 2.3974159 -1.0549492 20.114
4.0459557 2.3695705 -1.0879191 19.114
4.6146712 2.3848426 -1.033995 18.113001
5.2514114 2.3349133 -1.0590918 16.112499
5.6588387 2.3300245 -1.0017096 15.112
3.3281553 2.4393954 -1.0541685 22.115
3.6235592 2.4753153 -1.0629768 21.1145
-1.7120824 0.1210775 -0.92376691 4.6999998
-1.7314792 0.43293703 -0.93891096 9.5122499
-1.7011667 0.55862558 -0.98550159 11.024
-1.6749681 0.5397625 -0.91546029 11.0245
-1.7083647 0.6630851 -0.91660464 13.375
-1.6581646 0.65100741 -0.95478636 13.524
-1.7085203 0.76628888 -0.98369718 15.024
-1.6640598 0.82369852 -0.95816022 16.024
-1.6628176 0.99932534 -0.95796108 18.25
-1.6147153 1.0989119 -0.99756765 20
-1.6351339 1.1109035 -0.99295884 20.0235
-1.6128066 1.223469 -0.9818188 21.011749
-1.5949092 1.2157614 -0.92179084 21.75
-1.6307595 1.330766 -0.98802793 22.5235
14.427982 1.8931556 -0.95242763 7
5.9554405 2.2236164 -0.91911912 14.1115
3.9842863 2.3914797 -0.97505105 20.113501
4.0632014 2.3484006 -0.95368534 19.113251
4.5941558 2.3275583 -0.9162432 18.112499
4.699791 2.3388245 -0.93703604 17.112499
5.3230629 2.3317208 -0.95060438 16.112
3.4689643 2.4711399 -0.97257775 22.11425
3.6678879 2.456892 -0.98767972 21.114
3.7140629 2.441448 -0.91804296 21.113501
-1.7261858 0.57694733 -0.82583219 12.02575
-1.7021421 0.67216426 -0.83845556 14.0255
-1.6887678 0.6420266 -0.85427243 13.025249
-1.7323619 0.74711072 -0.80990714 15.026
-1.7122601 0.81200761 -0.80076939 16.025999
-1.7327514 0.92830515 -0.87507105 17.025249
-1.6913656 0.9863714 -0.83413512 18.025499
-1.7071086 1.0104679 -0.88792938 18.025
-1.6778123 1.0204265 -0.84818614 19.025249
-1.6448617 1.1156176 -0.86097854 20.025
-1.6127579 1.2329968 -0.84068328 22.025
-1.6387265 1.3225248 -0.82958639 23.025249
17.772562 1.8295039 -0.81113023 6
9.9246511 2.1438963 -0.89210004 9.1099997
5.9803295 2.2524939 -0.80000341 14.111
6.7747316 2.2493048 -0.89123017 13.111
7.5845132 2.2038958 -0.83590025 12.1105
4.0399408 2.3682714 -0.84234846 19.779333
4.6351762 2.3160391 -0.81779164 17.112
5.3923998 2.3232267 -0.83943415 16.1115
5.6116314 2.3029363 -0.86509651 15.1115
3.8109217 2.4484701 -0.84586287 21.113001
-1.6963056 0.12739111 -0.74226427 4.5
-1.7095358 0.44358808 -0.71039116 10.027
-1.597102 0.43481246 -0.78520745 10.0255
-1.7287376 0.57957494 -0.73788297 12.026751
-1.7044489 0.61350888 -0.70412242 13.027
-1.6958789 0.61404562 -0.76804286 13.02625
-1.7278545 0.77591437 -0.74226302 15.01325
-1.6955363 0.79702866 -0.74514216 16.026501
-1.7118034 0.93770772 -0.7521584 17.693167
-1.6879399 0.97320449 -0.76461732 18.526249
-1.6890781 1.0305078 -0.78507352 19.025999
-1.6567616 1.127403 -0.77220446 21.025999
-1.6292441 1.2429169 -0.74973273 22.276127
-1.6125582 1.3219672 -0.74940133 23.025999
5.8288293 2.284456 -0.78233385 15.111
6.755909 2.2267218 -0.75787568 13.1105
4.0995531 2.3473034 -0.73053706 19.112
4.3516774 2.3389316 -0.76666397 18.112
4.8085341 2.3276873 -0.73794746 17.1115
5.4393735 2.3109791 -0.72298437 16.111
3.146275 2.4174154 -0.77443987 23.113501
3.2094297 2.4329944 -0.71501255 23.113001
3.8703091 2.4460504 -0.77528584 21.112499
-1.7443862 0.48880798 -0.65679038 11.02775
-1.6970459 0.44484383 -0.66137934 10.0275
-1.6897933 0.56402129 -0.63644338 12.52775
-1.7000313 0.69625479 -0.62452692 14.5
-1.7236837 0.79593265 -0.66960239 16.0275
-1.6805929 0.70934129 -0.63499385 15.02775
-1.7551889 0.96184623 -0.64088947 17.763874
-1.6812192 0.91786671 -0.61414355 18.028
-1.7109559 1.0084575 -0.6492005 19.01375
-1.626737 1.2405562 -0.67466021 22.527
14.277894 1.883101 -0.61878335 7
7.7306557 2.1953895 -0.6786409 11.11
10.298141 2.1107776 -0.67625451 9.1094999
5.710628 2.2735782 -0.62799078 15.1105
6.0089192 2.2565765 -0.65813237 14.1105
6.8776832 2.2428989 -0.60574633 13.11
4.1268353 2.3290699 -0.64089096 19.1115
4.8960061 2.3394976 -0.65601057 17.111
3.7612891 2.4947166 -0.66419309 21.112
3.9351754 2.4235594 -0.65196705 20.11175
-1.7144388 0.30823347 -0.56343812 8.0287495
-1.6796129 0.4600389 -0.55145133 11.028749
-1.7061752 0.5689227 -0.56424487 12.362
-1.66843 0.56265885 -0.52948159 13.029
-1.7011008 0.68308586 -0.57846373 14.0285
-1.6888115 0.70544755 -0.55981004 15.01425
-1.7236851 0.92543769 -0.56710023 18
-1.6847739 0.98781705 -0.53024286 19.028999
-1.7161196 1.0449756 -0.51918179 20.029249
-1.6567394 1.1657945 -0.52088952 22.028999
-1.6379154 1.2312937 -0.5941577 22.666668
7.8755426 2.1860657 -0.51543182 11.1095
8.8998041 2.1920393 -0.58773863 10.1095
6.1565967 2.2791567 -0.55131859 14.11
7.7681227 2.2277379 -0.50672323 12.1095
3.9981899 2.3975 -0.52584666 20.111
4.1912317 2.3194513 -0.55612427 19.111
4.9740696 2.3462107 -0.55406713 17.1105
5.7232308 2.3039815 -0.50047511 15.11
3.8650324 2.469326 -0.59625429 21.1115
3.4504237 2.5032091 -0.53684855 23.1115
-1.6525037 0.45614609 -0.4829109 11.0295
-1.7211508 0.5057264 -0.46113834 11.03
-1.6498044 0.5480805 -0.42403743 13.030251
-1.7092152 0.69595891 -0.49908322 15.0295
-1.6727687 0.63345915 -0.45787576 13.779875
-1.748381 0.78922915 -0.44950706 16.030251
-1.6691625 0.70217526 -0.40546051 15.0305
-1.678241 0.98651648 -0.44992232 19.030001
-1.7106059 1.0385022 -0.44016641 19.765251
-1.7133373 1.1445429 -0.45996338 21.029999
-1.6705493 1.1740735 -0.48986563 22.029499
-1.6465904 1.2741838 -0.46104431 23.029751
20.909218 1.6856011 -0.42438942 5
10.206261 2.0904064 -0.47457251 9.1090002
9.5858469 2.143997 -0.43137804 10.109
6.0497208 2.2633808 -0.41005981 14.1095
6.3827767 2.235147 -0.42065251 13.1095
4.0396204 2.3954291 -0.45289484 20.1105
4.1601291 2.3629923 -0.45647109 19.1105
5.0788422 2.355725 -0.44338888 17.110001
3.4792342 2.487833 -0.46269411 23.111
3.8989594 2.4518239 -0.42957655 21.1105
-1.6263866 0.43530896 -0.37890974 10.53075
-1.7590425 0.53481436 -0.34719202 12.0315
-1.6495394 0.55394113 -0.36795521 13.010417
-1.6586413 0.65393472 -0.35587749 14.697833
-1.7439759 0.72185522 -0.30872384 15.032
-1.6815467 0.80943859 -0.33526787 17.0315
-1.7269861 0.96385854 -0.34353447 19.015999
-1.698752 0.96360219 -0.33991426 19.0315
-1.703884 1.0429546 -0.35566244 20.343834
-1.6934048 1.2467539 -0.35563868 22.53125
7.9536815 2.1588862 -0.35603738 11.109
5.6360135 2.2966542 -0.38446683 15.1095
6.9107885 2.218183 -0.32148689 13.109
4.0549965 2.3701291 -0.36323443 20.110001
4.247714 2.3176806 -0.37143525 19.110001
4.3342404 2.3127122 -0.38264075 18.110001
5.1177745 2.3415542 -0.34854564 16.109501
3.4715126 2.4197285 -0.30436695 22.110001
3.9245703 2.4292545 -0.34425169 21.110001
5.2172561 2.4384003 -0.34557429 17.109501
3.5992069 2.5359538 -0.39774102 23.1105
-1.5724444 0.33480081 -0.20828836 9.033
-1.6261866 0.48312032 -0.25297591 12.032499
-1.5902673 0.47924668 -0.24446338 12.0325
-1.617473 0.56931627 -0.24889722 13.4325
-1.7267469 0.62900704 -0.26480222 14.0325
-1.6288975 0.64914626 -0.21548654 15.033
-1.7403297 0.70891887 -0.26819852 15.0325
-1.6742278 0.82183331 -0.25759616 17.032501
-1.6855141 0.97321892 -0.24671037 19.365999
-1.7055296 1.0590641 -0.28099373 20.532249
-1.6911178 1.0276234 -0.22342581 20.033001
-1.6826108 1.239054 -0.26055652 23.032499
10.103726 2.0927169 -0.24426512 9.1084995
5.7444258 2.2907555 -0.2562184 15.109
6.1343131 2.2700663 -0.28386265 14.109
4.0934815 2.3630822 -0.27478814 20.109501
4.2777114 2.3176165 -0.29186022 19.109501
4.3534436 2.3063447 -0.29366937 18.109501
5.0417366 2.3375013 -0.23240192 17.108999
5.1773505 2.3315833 -0.22047251 16.108999
3.7142763 2.5388775 -0.25055191 22.109501
-1.5380565 0.29498196 -0.13437699 8.5340004
-1.7423087 0.48152903 -0.18809335 11.0335
-1.6091578 0.42588308 -0.14108884 11.034
-1.584893 0.457643 -0.12773225 11.350334
-1.6292126 0.55430686 -0.12559529 13.53425
-1.592854 0.51061857 -0.1245453 12.767
-1.7124312 0.60912991 -0.11636792 14.0345
-1.6436876 0.6343174 -0.17887521 14.5335
-1.6798325 0.7264483 -0.14947219 16.034
-1.6619818 0.83832794 -0.1471554 18.034
-1.7110304 0.96776021 -0.12881438 19.03425
-1.6900663 0.96385074 -0.1888935 19.033501
-1.7647015 1.0468804 -0.15305941 20.034
-1.6845416 1.0416088 -0.14653201 21.034
-1.7070146 1.1885965 -0.13134375 22.03425
-1.6848226 1.2501353 -0.18411128 23.033501
8.1482344 2.1683536 -0.183571 11.1085
5.4951711 2.2952595 -0.12920882 15.1085
6.4758954 2.2350106 -0.15908313 13.1085
7.4642029 2.2571728 -0.17764716 12.1085
4.1306138 2.3604176 -0.19142592 19.108999
4.3817377 2.3011105 -0.1975804 18.108999
5.1153703 2.3876402 -0.11157378 17.1085
5.2057409 2.3188314 -0.12224222 16.1085
3.3953955 2.4735451 -0.15606281 23.108999
4.0436525 2.4188204 -0.18521227 20.108999
3.7356195 2.5170863 -0.16901574 22.108999
-1.628258 0.056877904 -0.037072591 4
-1.466837 0.031149961 -0.033469304 3
-1.5795274 0.39078474 -0.017684162 10.035749
-1.5713141 0.41905174 -0.066783711 11.035
-1.6225264 0.50766706 -0.054975163 12.03525
-1.5648614 0.54042047 -0.05759415 13.3685
-1.7247107 0.68900061 -0.076907456 15.035
-1.662142 0.7199474 -0.033658545 16.0355
-1.6681134 0.86564255 -0.055429861 18.03525
-1.711846 0.97570527 -0.074164592 19.035
-1.6865177 0.98743153 -0.018114902 20.035749
-1.7680166 1.060385 -0.076001525 20.535
-1.6842155 1.0901254 -0.0012760755 21.035999
-1.705889 1.1531913 -0.075384595 22.035
10.709356 2.0344908 -0.024249315 9.1079998
6.9570713 2.1835384 -0.013509098 12.108
8.315938 2.1702483 -0.0026348133 11.108
9.2378387 2.163326 -0.017478835 10.108
6.0851302 2.2712057 -0.0047440827 14.108
6.4853745 2.2154391 -0.0049573155 13.108
4.1390715 2.3426187 -0.099360906 19.1085
4.3597322 2.3132534 -0.054317608 18.10825
5.0819402 2.371958 -0.004209626 17.108
5.2965407 2.3285837 -0.0064292336 16.108
3.7117808 2.4588466 -0.040277135 22.10825
-1.5326383 0.2626085 0.098445468 8.0375004
-1.6929209 0.39836162 0.03840024 10.0365
-1.5791566 0.35390785 0.066874295 10.037
-1.4725065 0.31264484 0.066840969 9.0369997
-1.6349682 0.4753699 0.038433161 12.0365
-1.5925734 0.47775024 0.0018827345 12.036
-1.6613612 0.58223617 0.036967598 13.0365
-1.5514144 0.54927588 0.044628039 13.37
-1.6218083 0.62993765 0.019429423 15.03625
-1.5842634 0.60007727 0.034083761 14.0365
-1.6504549 0.75438064 0.036451004 16.536501
-1.6664267 0.87718719 0.036659192 18.036501
-1.701911 1.0851198 0.038731445 21.036501
-1.6922557 1.005429 0.056744754 20.036751
-1.7001288 1.196993 0.036346976 23.036501
-1.6674676 1.1091501 0.070482679 22.037001
-1.6811508 1.2001709 0.073156975 23.037001
5.7766147 2.235065 1.8750317e-05 15.108
4.0746288 2.3731833 0.062641993 20.053749
4.145093 2.3369789 0.04985648 19.303749
4.3828502 2.3168378 0.085108869 18.1075
5.1164761 2.3880529 0.099086598 17.1075
3.9118748 2.4582374 0.075638957 21.1075
3.4882612 2.5573969 0.070091411 23.1075
-1.2583373 0.20122519 0.13887955 8.0384998
-1.5707477 0.32014835 0.17159334 9.0384998
-1.6069466 0.46683839 0.17822888 12.0385
-1.5948718 0.41323921 0.17532144 11.0385
-1.7009745 0.57206386 0.14975905 13.038
-1.5776644 0.55580711 0.12163115 13.53775
-1.6192801 0.64600837 0.1412126 15.038
-1.5841384 0.65325731 0.15729424 15.53825
-1.6280484 0.72770929 0.1232711 16.53775
-1.7253695 0.80153334 0.19197191 17.0385
-1.6983349 0.80548012 0.15080687 17.038
-1.6762034 0.98807877 0.18307617 20.0385
-1.7245609 1.0685 0.11315489 21.0375
-1.6755456 1.0339499 0.14792688 20.371332
-1.7267641 1.156742 0.15254757 22.038
-1.6714537 1.1465652 0.14671604 22.038
-1.6848463 1.2347865 0.14817753 23.038
6.5053358 2.1948972 0.13953525 13.1075
9.0161114 2.1644802 0.18435402 10.1075
5.6358266 2.2669826 0.11418244 15.1075
8.0178957 2.2202544 0.17287472 11.1075
4.1497207 2.3391511 0.17135651 19.607
4.367847 2.3023782 0.18919308 18.107
5.3342395 2.3162148 0.11228964 16.1075
-1.5458953 0.015486985 0.20539381 3
-1.436249 0.29887736 0.21864457 9.0395002
-1.6927072 0.34161493 0.22252117 9.0389996
-1.5518569 0.34955382 0.23814492 10.0395
-1.4861699 0.34350556 0.26210105 10.04
-1.6000597 0.4047989 0.20692019 10.039
-1.156225 0.49181765 0.28203815 15.0415
-1.6910937 0.57089329 0.24142106 13.039249
-1.5301483 0.51538479 0.27213007 13.04
-1.644986 0.66505015 0.21771193 15.039
-1.5863523 0.66350806 0.26378253 15.03975
-1.6276549 0.71401197 0.250191 16.039499
-1.6360372 0.89574015 0.21225758 19.039
-1.6558338 0.91743749 0.27444711 19.039749
-1.6697781 1.0629302 0.23843057 21.039249
-1.721525 1.1906527 0.22951771 22.039
-1.6476539 1.1822395 0.2526674 23.039499
-1.6666962 1.2124311 0.29379272 23.040001
9.9217882 2.1116896 0.2184083 9.1075001
5.6175218 2.2514591 0.23891716 15.107
6.6202054 2.2115228 0.28922227 13.107
4.199688 2.3049493 0.26766163 19.106501
4.4214082 2.3151772 0.28327942 18.106501
5.3866549 2.3059254 0.23344311 16.107
3.2361844 2.4049747 0.28491774 23.106001
3.7983692 2.4741714 0.24263929 21.106501
-1.5492954 0.34364489 0.34339198 9.5410004
-1.7178962 0.58368623 0.34368241 13.0405
-1.6631838 0.67740321 0.34368825 14.707334
-1.6518579 0.72866148 0.38530788 16.04125
-1.6508857 0.93624705 0.36733532 19.041
-1.7209407 1.1489389 0.30433479 22.040001
-1.6667684 1.1260988 0.37131819 22.041
-1.6459478 1.2363958 0.36373538 23.041
19.437611 1.4593543 0.34592754 5
8.8664799 2.1886616 0.37955758 10.107
4.4174438 2.2959263 0.38910031 18.106001
5.7382698 2.2907555 0.36667562 15.1065
5.9586182 2.2556753 0.37546313 14.1065
4.2075467 2.3087473 0.36256814 19.106001
5.4438615 2.3030632 0.35748488 16.106501
3.3116565 2.4484725 0.35551661 23.105499
3.7477007 2.4825675 0.32318953 22.106001
3.8783255 2.4175696 0.33460063 21.106001
5.269176 2.4274211 0.32981694 17.106501
-1.7130772 0.29662347 0.41697583 8.0415001
19.395065 0.27093321 0.46983138 3
-1.609219 0.31169623 0.45229435 8.5422497
-1.5660224 0.39748523 0.49098739 10.043
-1.6618452 0.43187541 0.40617713 11.0415
-1.4405646 0.47018924 0.4185043 12.0425
-1.733328 0.59479219 0.44551435 13.04175
-1.681787 0.67248583 0.46301711 14.3755
-1.5542413 0.64732951 0.48895109 15.043
-1.7270924 0.77255082 0.46513155 16.042
-1.6669712 0.73997408 0.48787025 16.0425
-1.6709652 0.8573209 0.44690856 17.542
-1.6371113 0.9600122 0.47788182 19.0425
19.379465 1.0001849 0.48314247 4
-1.6528774 1.1593045 0.4446733 22.042
-1.6608801 1.263134 0.42516997 23.04175
10.943483 2.0186443 0.48059011 8.1070004
7.1099486 2.1688545 0.4505775 12.1065
9.7656717 2.1355848 0.40640858 9.1070004
5.2817388 2.2861776 0.41252339 16
4.2331867 2.3102186 0.45330831 19.105499
4.456069 2.3067071 0.47843993 18.105499
3.2476258 2.4085605 0.49663749 23.1045
3.6558285 2.4817452 0.43819636 22.105249
3.8891866 2.4128101 0.42087311 21.105499
3.9183567 2.4140899 0.42565739 20.105499
-1.586446 0.28955516 0.55916399 8.0437498
-1.5893843 0.32242975 0.53690612 9.0434999
-1.5582093 0.4344416 0.56893122 10.544
-1.7303092 0.60589814 0.58834159 13.0435
-1.6977232 0.68097836 0.53720456 14.043
-1.4605472 0.68166155 0.54904741 16.04425
-1.6685505 0.73359877 0.53068852 15.7715
-1.6682872 0.80583012 0.56311142 17
-1.6316097 0.98489296 0.55660236 19.043501
-1.6539396 1.182078 0.52386761 22.042999
-1.6476436 1.2371758 0.55996931 22.793501
19.484161 1.4554032 0.50148213 5
8.6132393 2.1937277 0.56166714 11.1065
8.8012238 2.1681962 0.55641752 10.1065
4.2182999 2.296243 0.55398297 19.105
4.4350209 2.2854011 0.58357298 18.105
5.4105797 2.2906699 0.56697512 15.6
5.9249277 2.2575817 0.51569927 14.106
6.6434102 2.2642689 0.56157225 13.106
3.179244 2.3855722 0.55192584 23.104
3.9468601 2.4086008 0.51741719 20.105
5.1969848 2.4029539 0.5347507 17
5.2085419 2.4087648 0.54853964 17
-1.5732116 0.2808066 0.63155127 8.0447502
-1.6704313 0.37822711 0.64924866 9.0444994
-1.6019734 0.43200409 0.61994684 10.0445
-1.5802325 0.43370008 0.63483876 11.04475
-1.7159653 0.60533583 0.62328804 13.044
-1.6863015 0.69850671 0.61729938 15.044
-1.694278 0.70640755 0.65605289 14.77225
-1.6708157 0.81379229 0.66176689 16.272499
-1.6309106 1.0302668 0.65735626 20.04475
19.410488 1.0616641 0.64833874 4
-1.6215497 1.2510489 0.62996036 22.711166
19.445396 1.4417357 0.64983541 5
4.4777369 2.2998438 0.67644447 18.1045
5.3503489 2.2705159 0.63225508 16
5.4336643 2.2896979 0.63345271 15
5.85882 2.2636299 0.64184994 14.1055
8.1253376 2.2164125 0.69713819 11.106
3.9772367 2.3841236 0.69525462 20.104
4.2399344 2.3058956 0.64644587 19.1045
5.1264091 2.3788943 0.67550123 17.105
5.3802552 2.3493097 0.69903499 16.105
3.4092491 2.4488096 0.67541498 23.1035
3.50243 2.4678192 0.61331838 22.104
3.9724002 2.4022546 0.61052293 20.1045
-1.6237359 0.29121277 0.71621311 8.0454998
-1.6491809 0.33980235 0.75459957 8.7124996
-1.6087489 0.43374479 0.75133049 10.379333
-1.578021 0.46400112 0.78328025 11.023251
-1.5139405 0.57787478 0.78960025 13.047
-1.7190933 0.64254951 0.75167024 13.27275
-1.6967497 0.69837826 0.70124584 14.045
-1.4380656 0.66561967 0.7897535 15.0475
-1.697672 0.73762429 0.73749387 15.045375
-1.6662107 0.81397343 0.76802206 16.295876
-1.6244671 1.0903794 0.78033817 20.046249
-1.6092135 1.2181213 0.77560598 22.046249
-1.5847448 1.2433707 0.74077266 23.046
4.2084942 2.2849734 0.73806602 19.104
5.5557766 2.2833469 0.72172242 15.105
6.5267282 2.2698479 0.70885092 13.1055
7.3779311 2.2007673 0.79874647 12.1055
3.9686801 2.3640375 0.78468829 20.1035
4.0524201 2.3575096 0.79373229 19.1035
5.1242628 2.3841956 0.77515697 17.1045
3.1925979 2.423871 0.77517539 23.102501
3.3707595 2.4524636 0.74603152 23.103001
-1.6704125 0.34854296 0.85302424 8.3801661
-1.5735537 0.34134978 0.86147583 9.0474997
-1.6220825 0.41657162 0.8139503 9.7733746
-1.5785859 0.48109373 0.82364959 11.047
-1.7297428 0.62951595 0.80551082 13.046
-1.6850207 0.68463504 0.85540593 14
-1.6617621 0.77381986 0.86080313 15.047
-1.6382411 0.82298708 0.83427447 16.546749
-1.6895343 0.90360343 0.87787455 17.047001
-1.6005181 1.1378258 0.87716949 21.047501
-1.5919893 1.1075001 0.82995778 21.047001
19.405924 1.1440991 0.88458663 4
-1.5729311 1.2620578 0.8206948 22.547001
-1.5390453 1.3095421 0.89316416 23.048
19.39543 1.4051579 0.8801834 5
5.8157887 2.1475446 0.89190412 14.1045
4.2124171 2.2796323 0.8360312 18.1035
5.7322035 2.2633951 0.86943012 15.1045
6.2612505 2.2450299 0.81208974 14.105
8.2246265 2.2203128 0.89335054 11.1055
3.997638 2.386553 0.87597263 20.103001
5.0975676 2.3805254 0.88783485 17.104
5.3536973 2.3113501 0.82144046 16.1045
3.2721317 2.4199343 0.88009048 23.101999
-1.6500636 0.13742368 0.94056952 4.5
-0.66079277 0.143318 0.99725443 6
-1.6418847 0.2745887 0.9318217 6.9821429
-1.5941738 0.29529712 0.96934497 8.0485001
-1.6868222 0.30827302 0.92466635 8.0474997
-1.5945101 0.33048993 0.94105732 8.5
-1.6266551 0.41050109 0.94000453 9.0480003
-1.5879697 0.43070316 0.96783119 10.0485
-1.6650864 0.6459952 0.96849155 13.023875
-1.4914515 0.68893385 0.94974661 15.049
-1.6881615 0.77561063 0.97319138 15.048
-1.6134967 0.89616698 0.93239665 17.048
-1.6410606 0.92643428 0.95238692 17.399
-1.5377741 1.1832489 0.98231858 21.049
19.451124 1.1693146 0.97938979 4
-1.525045 1.2522604 0.96606004 22.200001
-1.5247314 1.3261861 0.97394127 23.049
19.355679 1.3728516 0.97109491 5
9.0517864 2.1479011 0.98106194 10.1055
4.1805925 2.2895765 0.92418712 19.103001
4.2428241 2.2934318 0.94093025 18.103001
5.4793096 2.253278 0.9654277 15.104
6.2701125 2.2223761 0.95578849 13.1045
6.9767437 2.2315974 0.92155015 12.105
3.9509268 2.3694854 0.96165079 19.602501
4.6411705 2.3105767 0.92298108 17.1035
5.2927003 2.3084261 0.93248188 16.104
3.1131332 2.4143145 0.97195107 23.101
3.2425668 2.4386678 0.94168133 23.1015
-0.7992838 0.0755613 1.0453932 4
2.0783334 0.0098419003 1.076221 3
-1.6340963 0.38153741 1.042753 9.0489998
-1.5888368 0.35925066 1.0436187 8.5
-1.6236761 0.43794125 1.0628395 10.04925
-1.6316113 0.57569951 1.0899864 12.0495
-1.5866718 0.58755684 1.0985713 12
3.1812291 0.5459407 1.0782373 8.1005001
-1.6617366 0.67033476 1.0351787 13.04875
3.1909788 0.66886878 1.0734425 9.1005001
-1.6738362 0.77314854 1.0117168 15.0485
-1.6349671 0.86502087 1.0449564 16.5245
1.9888173 0.83941746 1.0885254 14.0965
2.1044934 0.88269204 1.091772 14.097
-1.619446 0.96250558 1.0578905 18.04925
-1.5719374 0.95758331 1.0989586 18.049999
2.0081506 0.97151804 1.0942733 16.0965
-1.5553401 1.0483359 1.0647825 19.111111
3.1430397 1.0569583 1.0459948 13
2.981267 1.3640664 1.0942149 15.571428
3.1013188 1.3022108 1.0435414 14.5
3.0033736 1.4952149 1.0603385 17
3.0465465 1.5004798 1.0325682 17.1005
2.8208973 1.7632179 1.0884097 20.099501
5.853899 2.1688564 1.0315546 14.104
6.9799495 2.1861196 1.0773431 12.1045
4.1853957 2.2902575 1.01636 18.102501
4.7987609 2.2918422 1.0616056 17.103001
5.2359672 2.2922752 1.0253175 16.1035
5.500093 2.249609 1.0785023 15.1035
4.0005965 2.3394425 1.0712698 19.101999
3.4929285 2.4562604 1.0552635 22.10125
3.8462539 2.4126675 1.0244238 20.101999
-0.78500718 0.24635231 1.1763279 8.0585003
-0.65795219 0.22049765 1.1405339 8.0600004
-1.6023213 0.35022235 1.1743462 8.0504999
-1.5794781 0.39416555 1.1599081 9.0504999
-1.6075176 0.44914454 1.15365 10.05025
-1.5923425 0.41966507 1.1539674 9.0249996
1.7678831 0.42976603 1.1580197 9.4279995
1.8070647 0.47267836 1.1455038 10.095
-1.5699596 0.53211164 1.196028 11
2.1688738 0.57217038 1.1812592 10.0965
-1.6589209 0.62740731 1.1648968 12.05
3.1134038 0.69297695 1.1249108 9.1000004
-1.6325026 0.76925981 1.1254553 14.52475
-1.5671098 0.71387208 1.1524949 14.025375
1.5736632 0.79863834 1.1948885 15
1.644533 0.71674281 1.1794792 14.031334
1.743277 0.75205207 1.1346073 14.094749
-1.5654336 0.84070897 1.1787908 16.050751
1.572932 0.85380763 1.1849927 16
1.6427279 0.83743161 1.169565 15.297
1.8435636 0.87261522 1.1260507 15.04775
1.9171345 0.83311033 1.1066788 14.298
3.1844242 0.87037849 1.1544207 11.1
-1.5384701 0.97317773 1.1559726 18.050751
1.5994275 0.91584098 1.1724668 17
1.8702159 0.97286063 1.1871369 16.094999
1.939005 0.96461838 1.1438391 16.095751
-1.525877 1.0876002 1.1463026 19.550751
1.4815289 1.0733824 1.1827865 19.092501
1.5154443 1.0886053 1.163139 19.093
2.9438219 1.0659436 1.1377465 13.0995
-1.5173118 1.1398797 1.1048675 20.525249
1.4884397 1.1201807 1.1955535 20.092501
2.9990222 1.1088893 1.1168305 13.333333
-1.4782172 1.2835238 1.1620145 22.05125
1.4365653 1.2117474 1.1969531 21.091999
1.650492 1.2328281 1.1787521 20.09375
1.7549433 1.2277999 1.1374969 20.094749
3.0692019 1.2314805 1.1833084 14.0995
-1.4452885 1.3669368 1.1591533 23.0515
1.3960474 1.303582 1.1718524 23.091999
1.433329 1.3300154 1.1495956 23.092501
1.5106835 1.3862838 1.1534256 23.093
1.824457 1.3471253 1.1601312 21.094999
2.8055122 1.3693103 1.1547821 16.099001
2.9341183 1.3423164 1.1251466 15.54975
1.5483997 1.4294827 1.127847 23.0935
1.6060197 1.4391479 1.1196332 23.094
2.8640454 1.4312164 1.141372 17.099251
2.9149473 1.430413 1.1216003 16.5
2.0254078 1.5910459 1.1629344 22.096001
2.5736892 1.7817373 1.196107 21.098
2.6510482 1.7675214 1.1613175 20.098499
2.6684351 1.8503071 1.1381214 21.098751
2.6616158 1.9621658 1.1652811 22.098499
2.650131 2.0589523 1.1680287 23.098499
4.2466459 2.276633 1.1354802 18.101999
4.7840977 2.2775702 1.1627457 17.102501
5.1767735 2.2772779 1.1333073 16.103001
6.71667 2.2619615 1.1716031 13.104
3.9870038 2.3230648 1.1491547 19.1015
3.293618 2.4507675 1.1526909 22.60025
3.3758042 2.4657097 1.1431793 22.1005
3.7370639 2.4522333 1.169536 21.101
3.8109262 2.445699 1.1 21.1015
-0.64712334 0.25076374 1.2477807 8.0609999
1.3074464 0.29820168 1.299848 8.0900002
-1.5798347 0.37766084 1.2559936 8.5257502
1.3639697 0.31178266 1.2971491 8.0904999
1.4165436 0.32493177 1.2885036 8.0909996
1.5480951 0.35784775 1.2625138 8.0922499
1.6418567 0.38049504 1.2257667 8.0932503
-1.6071734 0.46630418 1.2204459 10.025499
1.3557935 0.44997147 1.296106 10.0905
1.4750375 0.45235008 1.2858646 10.0915
1.6187879 0.44982523 1.2452302 9.8429375
1.7121804 0.45593721 1.2223839 9.59375
-1.6047344 0.50118387 1.2815182 10.5
1.990833 0.52106923 1.2064248 10.0955
3.1052954 0.55762792 1.2051717 8.0994997
-1.6497514 0.62143916 1.2141354 12.0505
-1.5565116 0.6243977 1.2516196 12.5515
1.3577983 0.60560995 1.2942045 13.0905
1.4551281 0.64400643 1.2720457 13.091499
1.5680032 0.68779123 1.2280886 13.092751
1.6620481 0.62805027 1.2735178 12.093
-1.5593295 0.70960701 1.2659165 13.859083
1.416194 0.73880154 1.2990364 14.091
1.5316122 0.78304386 1.2251308 15.0925
-1.5299206 0.88453734 1.2828294 16.052
1.4744853 0.86799294 1.2291662 16.091999
1.5731128 0.8510564 1.2554643 16.092501
3.1098819 0.84471112 1.2063854 11.0995
-1.4999992 0.98525876 1.2098054 18.0515
1.4854931 0.93302459 1.241931 17.091999
1.5316234 0.94483012 1.2274526 17.092501
1.7819109 0.95130587 1.2161734 16.09425
-1.5080019 1.0563257 1.2680789 19.052
-1.4679346 1.0484281 1.2851651 18.526249
1.3429184 1.0211993 1.2798768 19.0905
1.4255848 1.06181 1.2197777 19.296
1.7340711 1.0119995 1.2084552 17.094
2.9466641 1.0686101 1.2880882 13.0985
3.0255375 1.0943649 1.2635005 13
-1.4616596 1.1143146 1.2548332 19.55225
1.3485881 1.1142733 1.2871023 20.0905
1.4575127 1.1032568 1.2172871 20.091999
-1.4740804 1.2812746 1.2382035 22.052
1.2525423 1.2337149 1.2472205 22.59
1.3176818 1.2516587 1.2025994 23.091
1.5809597 1.2606759 1.2046407 21.093
2.8983848 1.2255657 1.2688355 15.0985
2.9580302 1.2426932 1.2453501 14.25
3.0075705 1.2840865 1.2429971 15.099
-1.4510075 1.396165 1.218048 23.052
2.7752061 1.4731969 1.2889465 17.098
2.8443472 1.5168723 1.2447141 17.098499
2.4434226 1.7890623 1.2698509 21.097
2.5277047 1.8314724 1.2431271 21.0975
2.4891019 1.9829839 1.2905934 23.097
2.5569961 1.9354246 1.2209605 22.09775
2.5983171 2.0208058 1.2047211 23.098
6.9686122 2.1538746 1.2118399 12.104
5.1458826 2.2753556 1.2465824 16.102501
5.5264244 2.2402666 1.2117889 15.103
4.0031924 2.3223984 1.2504789 19.101
3.6531279 2.4564087 1.2333273 21.1005
1.7073673 0.070046104 1.3357481 3.5
-1.6171765 0.13887931 1.3528209 4.5
-0.6591081 0.12924917 1.3439466 5
-1.6194257 0.26769254 1.3283389 6.5
1.3855652 0.26190796 1.3375615 6.75
-1.5553517 0.35645604 1.3325766 8.0522499
1.2789654 0.35379767 1.3880178 8.0889997
1.3606048 0.36969578 1.3724506 9.0450001
1.4772282 0.3908402 1.3455846 9.0909996
-1.548593 0.49381533 1.3555094 10.0525
1.3127115 0.46786237 1.358708 10.04475
1.4746355 0.45580366 1.3494623 10.091
1.5567397 0.42417526 1.3206282 9.4251671
-1.5520005 0.54082417 1.3672096 11.0525
1.4403945 0.55503416 1.3873875 11.090375
1.5313972 0.58248031 1.3406279 12.0915
-1.5212166 0.64846087 1.3513877 12.435341
-1.4940183 0.6689055 1.375499 13.053
1.5813739 0.60196596 1.3190405 12.092
1.636777 0.61925274 1.3045355 12.0925
-1.5563298 0.79361582 1.306975 15.052
1.3323624 0.72485805 1.322071 14.378458
-1.4860169 0.87625682 1.3356771 16.05275
1.2589852 0.89760804 1.3644572 17.089001
-1.5223055 0.93560231 1.3277961 16.776249
1.2329826 0.90086472 1.3977035 17.088499
1.3250369 0.95161676 1.3616248 17.571428
-1.4655325 1.0538003 1.3791723 18.276749
1.2569716 1.044863 1.3254752 19.422667
1.3044784 1.0500187 1.304122 19.09
1.2763851 1.1922435 1.3309631 21.0895
1.3507209 1.1778944 1.3150781 21.09025
1.7630994 1.1058462 1.3457307 18.093
-1.4508377 1.261633 1.3634169 21.053249
1.1836658 1.2308688 1.3759624 22.088249
1.2183537 1.2494122 1.3247205 22.589001
3.0038002 1.2129881 1.3892857 14.098
-1.4213049 1.3766406 1.3088591 23.052999
2.8545396 1.3876374 1.362731 16.09775
-1.4141132 1.409014 1.3532588 23.053499
2.6690624 1.4748241 1.3880209 17.097
2.9764056 1.4235922 1.3045096 16.098499
4.3183517 1.4228305 1.361105 12.101
2.7461963 1.5164305 1.3514344 18.0975
2.8137128 1.5538012 1.3077692 18.098
2.8924503 1.7041467 1.3402523 19.098
2.2578275 1.9269409 1.364502 23.095501
2.4088206 1.9667684 1.3228874 23.0965
3.9548223 2.2839191 1.3407396 19.1005
4.9338613 2.20667 1.3212515 16.101999
5.5590105 2.2299869 1.3584265 15.1025
3.4716952 2.4689987 1.3393981 22.099501
-1.5493081 0.25061813 1.4118773 6.3000002
-1.5526289 0.34445584 1.4559081 8.0532503
1.3179626 0.38056034 1.494385 9.0885
1.2751799 0.45329005 1.4486009 10.0885
-1.5292259 0.53651661 1.4325391 10.55325
1.2991756 0.51149738 1.4791627 11.0885
1.3346088 0.54602343 1.4510875 11.422334
-1.4668267 0.68093598 1.4501965 12.776751
1.3080032 0.64397001 1.429406 12.9
1.2263296 0.74356186 1.4662189 14.921249
1.3095609 0.72949946 1.4181638 14.2945
-1.5297583 0.80970371 1.4056931 15.053
-1.4638543 0.86763418 1.4005557 16.053499
1.2318269 0.88607222 1.4622693 16.543875
1.316227 0.88814425 1.462712 16.088749
3.0456564 0.8441506 1.4933981 10.0975
3.1293142 0.86876273 1.4551734 10.598
1.1974832 1.0587288 1.4834065 19.0875
-1.4930488 1.1352818 1.4936304 19.054001
1.1972075 1.1499414 1.4843929 20.0875
-1.426199 1.2432516 1.4624445 20.527
2.9126995 1.2179848 1.4261684 14.0975
2.7185402 1.3462991 1.4135131 16.097
-1.3832086 1.4577931 1.4321311 23.054375
2.5495796 1.5259238 1.4626938 18.096001
2.7062037 1.60604 1.4025967 18.097
2.5584233 1.8046987 1.4731599 20.096001
2.6231437 1.8481342 1.4336079 21.0965
3.9428539 2.2780824 1.435136 19.1
4.92733 2.2151613 1.4203893 16.1015
5.4463735 2.2467945 1.4490528 15.102
5.5444264 2.211518 1.4861677 14.102
-1.5263472 0.11532167 1.5562162 4
-1.5063779 0.29927963 1.5172902 7
-1.5090358 0.38148737 1.5789301 8.0544996
-0.72288078 0.3332915 1.5109893 9.0617504
1.2616823 0.35469446 1.5626869 8.0874996
1.2761862 0.44661185 1.5384622 9.7938747
1.3080341 0.40450904 1.5566096 9.0880003
1.4511269 0.44621444 1.5767313 9.0889997
1.6312784 0.49258989 1.5561651 9.0904999
-1.4701605 0.52420807 1.5623226 10.2775
1.2634417 0.56195062 1.5700974 11.5875
-1.4006387 0.72114915 1.5273682 13.055
1.1714892 0.75522459 1.5608389 15.08675
1.2601317 0.7486763 1.5325149 14.087749
1.1780518 0.86885709 1.5712122 16.057833
1.1685852 0.96610409 1.5560805 17.293251
1.2295791 0.9561826 1.5256804 17.0875
1.8146013 0.90805596 1.5832143 14.0915
-1.4989303 1.0278879 1.5007091 17.054001
1.1646806 1.0765674 1.5591071 19.043251
-1.4500704 1.113802 1.5112259 18.5
-1.4030588 1.2243241 1.5279511 20
-1.3876412 1.2142416 1.5881344 20.0555
1.1757096 1.2157695 1.5291867 21.087
2.895057 1.3380121 1.5793748 15.0965
-1.3470081 1.5292804 1.5423226 23.0555
2.4892366 1.7592031 1.5081102 20.095501
5.4567785 2.1007545 1.5823406 14.1015
3.9409187 2.2763097 1.5200571 19.099501
4.934577 2.2348452 1.558948 16.101
1.4264971 0.016224414 1.6165724 3
1.2439934 0.38742164 1.6515468 8.58675
-1.4859318 0.42187414 1.6606649 8.5552502
1.2225728 0.49283707 1.6611509 10.0865
-1.420909 0.5521751 1.6956099 10.056
1.249929 0.58620536 1.6576922 11.58675
1.2232791 0.69501466 1.6970843 13
1.1779268 0.75714636 1.6665019 14
1.2299224 0.74639088 1.6500593 13.753334
1.5630983 0.72887444 1.6973219 12.089
1.6554884 0.7600404 1.683802 13.08975
2.7916546 0.78187215 1.6076504 10.096
1.1633462 0.88072944 1.6248299 16
-1.4549059 0.92524034 1.6375092 15.388667
1.1448294 0.93769085 1.6395977 16.542875
-1.4432055 1.0099398 1.6444684 17.0555
-1.3886869 1.0534403 1.6601272 17.056
1.2456323 1.0839256 1.6941645 18.0865
-1.4462299 1.1461153 1.6523716 18.5555
2.9389784 1.1849563 1.6843275 13.096
-1.4102107 1.2094001 1.6883047 19.056
2.809006 1.3015469 1.614678 15.096
1.1466148 1.4584866 1.6640414 23.085751
1.2594403 1.4318851 1.6378388 22.087
2.6257238 1.493323 1.6663806 17.094999
2.8021948 1.4876033 1.6147141 17.096001
-1.3493257 1.5417339 1.6125017 23.056
2.5602019 1.5108529 1.6997058 17.0945
3.9476147 2.2887111 1.6316574 19.099001
-0.95412958 0.037194349 1.7426366 3
1.2026379 0.362589 1.7514747 8.0857506
-1.5704693 0.43663913 1.7177855 8.0550003
-1.4816586 0.42343724 1.7300564 8.5557499
1.2620332 0.46629167 1.7182436 9.0865002
-1.5090752 0.54263479 1.7435372 9.77775
-1.459043 0.58859962 1.7631814 10.813714
1.1290305 0.58270907 1.7751312 11.085
1.2207514 0.51057827 1.7383852 10.086
-1.4481983 0.65918875 1.7318912 12.056
1.2121559 0.69184595 1.7009805 13
1.4480313 0.68781072 1.7198007 12.088
-1.4729259 0.73781675 1.7627376 13.056
-1.427537 0.94938326 1.7506142 15.028
-1.3730865 1.0396552 1.7569571 16.963446
-1.4469597 1.1313882 1.7266988 18.056
-1.3519902 1.1499445 1.7661123 18.556999
1.249831 1.1116039 1.7880291 18.086
2.6793628 1.1101595 1.7825463 13.0945
2.7475133 1.1268387 1.7410922 13.095
2.8262117 1.1489038 1.7102982 13.0955
-1.3684067 1.2017446 1.7087015 19.056499
2.687041 1.251241 1.7022487 15.095
1.1295731 1.3647875 1.7596458 21.084999
1.3361984 1.3119377 1.7291805 20.087
2.4513459 1.5395398 1.7471248 18.09375
3.9355192 1.5399911 1.7300344 14.0985
3.924475 2.2813678 1.721445 18.598499
-1.4892642 0.2298646 1.8267237 5.3333335
1.1563309 0.35896918 1.8065716 8.085
-1.4567726 0.43314248 1.8617589 8.5567503
1.2543247 0.5588904 1.8698301 10.5855
-1.4222966 0.65822095 1.8401458 11.5285
-1.4496872 0.75371712 1.8517387 13.05675
1.238812 0.77408761 1.8402034 13.0855
-1.3573591 0.8895601 1.8522894 15.0575
1.0914243 0.89743507 1.8766588 15.084
-1.4092988 0.97366965 1.8449107 15.057
1.1737685 0.92249763 1.8327029 16.084999
-1.3452665 1.0278513 1.8744591 16.057751
2.6158938 1.0902261 1.8254416 13.094
1.1878476 1.1770061 1.8618217 19.084999
1.3303351 1.4178041 1.8593491 20.752832
2.7171881 1.6617258 1.8077422 18.0945
-0.6944713 0.21364501 1.9192955 6
-1.4112736 0.40886974 1.9688549 8.0577497
1.1632552 0.58412874 1.9571488 10.584249
-1.4016498 0.64962292 1.9102629 11.0575
-1.3565974 0.61094856 1.9411318 11.058
1.225992 0.70529646 1.9192345 12.085
-1.323334 0.89155555 1.9389976 14.05825
1.1663181 0.92235786 1.9081986 15.0845
-1.3083121 1.0084283 1.9545089 16.0585
1.2019763 1.4006708 1.9801035 20.084499
1.2838585 1.5277803 1.9610658 21.585251
-1.4243155 0.24669403 2.0347133 6
-1.4233814 0.50707269 2.0407124 9.0579996
-1.3355827 0.56041324 2.0058162 10.0585
-1.3111988 0.64143324 2.0591893 11.059
-1.3681952 0.70297539 2.0494788 12.0585
1.1168299 0.61344868 2.1502495 11.083
1.2263937 0.81511676 2.1227369 13.084
1.3150607 1.1330334 2.264631 16.084
1.2519419 0.91260493 2.3978589 13.083
1.2520732 1.3268439 2.3996639 17.083
-1.4746609 0.5874781 2.4312012 9.0594997
1.1485403 0.95963597 2.4532483 14.082
1.213026 1.2930635 2.4417415 17.0825
1.3474292 1.2342297 2.4407129 16.0835
-1.5385312 1.659169 2.4741628 19.05925
-1.4261122 2.0689902 2.4750443 23.059999
1.2054199 0.54783535 2.5672295 9.0819998
-1.5501263 1.5643464 2.5655713 18.0595
-1.5211374 1.7698817 2.6431684 20.059999
-1.4655893 1.7809058 2.6843305 20.060499
-1.3497761 2.1671479 2.6051817 23.061001
-1.4256386 1.0303437 2.7325594 13.061
-1.4354542 1.1636982 2.7679396 14.061
-1.439585 1.3931146 2.775806 16.061001
-1.4740466 1.6320393 2.7042391 18.060499
-1.3730503 1.6381269 2.7834871 18.061501
-1.4056159 1.7760259 2.7063894 20.061001
-1.3596083 1.8165294 2.7671018 20.061501
-1.2494385 1.8242147 2.7675102 20.06225
-1.1507177 1.8529704 2.7826116 20.563
-1.0485488 1.8698058 2.7968352 21.063749
-1.5275563 0.60762703 2.8007066 9.0605001
1.3592308 0.78044587 2.8994753 10.082
-1.5611607 0.89560342 2.8575327 11.0605
-1.4997452 1.0098268 2.8857102 12.061
-1.3951243 1.1625204 2.82797 14.0615
-1.4642427 1.3071539 2.8217628 15.061
-1.3870595 1.3866003 2.8151689 16.061501
1.3549044 1.4553474 2.8835649 16.082001
-1.4617627 1.6845441 2.807651 18.061001
-1.4152242 1.7178332 2.8838489 19.061501
-0.95130283 1.9061784 2.8292994 21.064501
1.2002822 2.3238344 2.894958 23.080999
-1.5591955 0.72779489 2.9974906 9.0609999
-1.536291 0.9279725 2.9666204 11.061
-1.4525982 0.98176926 2.9487598 12.0615
1.3870769 1.0513405 2.9555404 13.082
-1.4550234 1.104957 2.9464486 13.0615
1.1715181 1.4362227 2.9949203 16.0805
1.3270977 1.4391834 2.9981551 16.081499
1.2355639 1.5473658 2.9668138 17.080999
1.2443072 1.6256511 2.9903517 18.080999
-1.3450007 1.759451 2.9757745 19.06225
-1.2320431 1.7654644 2.9875762 19.063
-1.154061 1.7584425 2.9849999 19.063499
-1.0526633 1.7729225 2.9946592 19.064251
1.3443822 2.3521702 2.9518955 23.081749
1.3671364 0.81228626 3.0940125 10.0815
-1.4881712 0.96069002 3.0368819 11.0615
1.3331941 0.90813112 3.0258343 11.0815
-1.4343537 1.0329137 3.0832345 12.062
1.2615138 1.1701006 3.0385633 14.081
0.97778499 1.7935187 3.0736408 19.079
1.0494306 1.7265447 3.067862 18.0795
1.162239 1.7599242 3.0668025 19.08025
-0.1959987 2.2642925 3.0442021 23.070499
0.41259435 2.2630105 3.0917091 23.075001
0.67900127 2.2696884 3.0333424 23.077
0.73609406 2.2821205 3.0172522 23.077499
0.8493973 2.3207486 3.0223708 23.078251
0.98248833 2.3450468 3.088891 23.079
1.2751547 0.36782265 3.1962292 6
1.2552143 0.55532128 3.1901107 7.25
1.2422609 0.61894751 3.1845484 8
-1.3811831 1.0775971 3.1263244 12.0625
1.3057555 1.0070482 3.1497114 12.081
1.1453317 1.100166 3.1216025 13.08
1.2248856 1.182927 3.1316361 14.0805
0.9178769 1.7226681 3.1339567 18.078501
1.1327176 1.760658 3.1093132 18.08
-0.40856591 2.2686224 3.1678638 23.069
0.485892 2.2625477 3.1749415 23.0755
0.62186229 2.2786131 3.1002436 23.0765
1.2881461 2.2935867 3.1176031 22.080999
-0.84111226 2.3279505 3.1483412 23.066
-0.77264941 2.3403683 3.1732731 23.0665
-0.48223558 2.3324592 3.1443996 23.068501
1.2534146 0.3414841 3.2176642 5.5
1.2414715 0.53646117 3.2109561 7
1.1747637 1.5056089 3.2072268 16.08
-0.28552872 2.3928406 3.2804518 23.07
1.1713208 2.3935137 3.2022395 23.08
-1.4865966 1.7324697 3.3774605 17.0625
-0.98178631 2.3167362 3.3971171 21.0655
-0.74042159 2.3240905 3.3493893 22.066999
-0.66687441 2.3995974 3.3870602 22.067499
0.21847597 2.3645408 3.3820839 22.0735
0.0028647617 2.4345262 3.3357286 23.072001
1.1830589 0.77024275 3.4770317 9.0795002
-1.0946541 2.3683999 3.4933054 21.065001
-0.37933505 2.4746182 3.461354 23.0695
-1.3875334 1.4367172 3.5706921 14.0635
-0.61021638 2.3785346 3.5201449 22.068001
-0.55205619 2.3849866 3.5922754 21.568501
0.0030040869 2.4289305 3.5960865 22.072001
0.15539524 2.4238915 3.5433447 22.073
-0.39398637 2.3916006 3.6642213 21.0695
0.40963662 2.3981664 3.685926 21.074499
-0.47444358 2.4065232 3.6032465 22.069
-0.22919893 2.4416628 3.6509628 22.070499
-0.15486793 2.4732709 3.6665366 22.070999
-0.073616676 2.4486909 3.6993418 22.071501
0.48258379 2.4233315 3.6538863 22.075001
-0.4966788 2.3703885 3.7727714 21.069
-0.15946798 2.3660588 3.7883117 21.070999
0.58691186 2.3879724 3.7895572 21.0755
-1.477615 0.71857333 3.8225787 8.0635004
-1.4093789 1.1740761 3.8801501 11.064
-0.76329738 2.3646054 3.8772273 20.067499
-0.24646033 2.3561952 3.8269682 21.070499
0.096277773 2.3910837 3.8991523 20.0725
0.86359018 2.3797536 3.8546684 20.077
0.048877288 2.4427972 3.8115354 21.07225
0.17611474 2.409694 3.8665428 21.073
0.69675833 2.4014783 3.8835077 20.076
0.76702654 2.405102 3.8206134 21.0765
-1.4438875 0.58119637 3.9527316 7
-1.0547149 2.369426 3.9735279 20.066
-0.86382723 2.3710921 3.92553 20.066999
-0.60278851 2.3489728 3.9856064 20.068501
-0.52283263 2.3565986 3.9670079 20.069
-0.42928267 2.3615713 3.9301031 20.0695
-0.25451666 2.3812599 3.9303377 20.070499
0.36117086 2.3855 3.9928629 20.073999
0.78205699 2.390147 3.9260142 20.0765
0.97983259 2.3620086 3.9572084 19.577499
0.26794913 2.4009893 3.9423783 20.0735
-1.4548893 0.96421975 4.0053959 10.064
-1.2683133 2.2995064 4.0399442 19.065001
1.1789057 2.2919905 4.0363865 19.078501
-1.1745332 2.3092158 4.0546322 19.0655
-1.0793744 2.3202083 4.0620575 19.066
-0.97785068 2.3241701 4.0399446 19.0665
-0.89250439 2.3201463 4.0211039 19.066999
-0.74718851 2.3436503 4.0256095 19.567749
-0.17007101 2.375669 4.0168419 20.070999
-0.087774634 2.3597753 4.0710831 20.071501
0.0032657743 2.3855677 4.0885019 20.072001
0.53835893 2.3378868 4.0637918 19.075001
1.0774192 2.3265529 4.0196543 19.077999
0.0032975436 2.3401043 4.1481385 19.072001
0.45802718 2.3281581 4.1237302 19.074499
0.64096493 2.3226612 4.1276722 19.0755
0.74547118 2.3023014 4.1821227 19.076
-1.4509509 1.2623384 4.2891583 11.0645
0.1866314 2.2929499 4.2577143 19.073
0.36959127 2.2889717 4.2784033 19.073999
0.84904605 2.2711108 4.2156401 18.0765
0.94817299 2.2247839 4.2184682 18.077
1.0493627 2.2257876 4.2835636 18.077499
0.10385311 2.3095856 4.2053947 19.0725
0.28507456 2.3092852 4.2357783 19.0735
-1.2571391 0.79427814 4.3539038 8.0655003
-1.2646598 1.4528984 4.3574295 12.5655
-1.3625587 1.5793463 4.3516994 13.065
-1.2631201 1.9677484 4.3649387 16.0655
-1.4862067 2.1664407 4.3801966 17.064501
0.5875054 2.1986725 4.3840375 18.075001
0.28621763 2.2752624 4.3233423 18.0735
0.38842145 2.2498906 4.3820992 18.073999
0.68207276 2.209511 4.3493094 18.0755
0.76374376 2.2178845 4.3270783 18.076
1.1648836 2.2169278 4.3615556 17.077999
-1.7026836 2.4973302 4.3778529 18.063499
-1.405549 1.0565584 4.4674635 9.5649996
-1.501587 2.0274622 4.4399915 16.064501
0.39859974 2.1970885 4.4904542 17.073999
0.48534483 2.2232902 4.4303408 18.074499
-1.8409742 2.5532625 4.4586034 18.063
0.19865677 2.1614711 4.5269384 17.073
-1.2238332 2.2254548 4.5955958 17.066
0.71181512 2.2071276 4.5943084 17.0755
-0.61543578 2.1975887 4.6732373 17.069
-0.50999069 2.1914194 4.672184 17.0695
-0.40694943 2.1959436 4.692369 17.07
-1.13274 2.2477398 4.6695371 17.0665
-0.92270362 2.216994 4.6861057 17.067499
-0.70853114 2.2103386 4.6885943 17.068501
-1.0420743 2.2766278 4.7559142 17.066999
-0.31133997 2.2045805 4.7188845 17.070499
0.94790167 2.2539072 4.7148705 17.0765
1.0561149 2.2486367 4.7818828 17.077
-0.85123271 2.2943733 4.8335581 17.068001
-0.096889332 2.2707977 4.8749804 17.071501
0.11191849 2.2720318 4.8774405 17.0725
-1.4368918 1.2847809 4.9518719 10.0655
-0.31398848 2.2156119 4.9766469 16.070499
-0.21559919 2.2117927 4.9104762 16.070999
0.0037042028 2.2868381 4.9115129 17.072001
1.095066 2.2431891 4.9199357 16.077
1.2228897 2.2438381 4.9690452 16.077499
0.32725081 2.3189185 4.9719276 17.0735
-0.54740185 2.1977432 5.0655866 16.0695
-0.42790398 2.1985486 5.0027227 16.07
0.67494738 2.2069893 5.0727854 16.075001
1.3431898 2.2493672 5.0085864 16.077999
0.55656886 2.3563457 5.035018 17.074499
-0.68621373 2.2169065 5.1858616 16.069
0.79907715 2.2155848 5.1322403 16.0755
0.90463865 2.2115228 5.1625118 16.076
1.1416922 2.2011375 5.1484485 15.077
1.0550677 2.1964624 5.2270584 15.0765
-0.9246487 2.2168801 5.2911057 15.068
-0.7948311 2.2145662 5.2346354 15.0685
1.4199182 2.2112598 5.2922082 15.078
0.94918799 2.1916556 5.3082333 15.076
-1.0531999 2.2051997 5.323278 15.0675
-0.1063492 2.2146862 5.329237 15.0715
0.3529453 2.2019255 5.3583412 15.0735
1.3100567 2.2010317 5.357667 15.0775
0.0040145661 2.1638665 5.4941206 15.072
0.24857914 2.1825981 5.4995952 15.073
0.71979177 2.1812332 5.4672256 15.075
0.84920591 2.1902215 5.4213018 15.0755
0.50256592 2.1753922 5.5924087 15.074
0.6199854 2.1770625 5.5197845 15.0745
0.87657142 2.164773 5.5977125 14.0755
0.97683257 2.1702678 5.5422196 14.076
0.25637153 2.154135 5.6713815 14.073
0.38380083 2.1819744 5.6859694 14.0735
0.63251328 2.1419232 5.6902928 14.0745
0.75453633 2.1535604 5.6389489 14.075
-0.76046908 2.1350377 5.7818356 14.069
-0.49171934 2.125026 5.7825251 14.07
-0.12411562 2.1432302 5.7829032 14.0715
0.00415004 2.1453381 5.7484303 14.072
0.13103861 2.1466079 5.7092676 14.0725
0.5097329 2.1347518 5.7521076 14.074
-1.15221 2.1333203 5.8598127 14.0675
-1.0168372 2.1434081 5.8544207 14.068
-0.90530634 2.1535182 5.872355 14.0685
-0.63887763 2.1522067 5.8597999 14.0695
-0.3657558 2.1486778 5.8302488 14.0705
-0.24523821 2.1556215 5.8277273 14.071
-1.0553678 2.1117785 6.0463018 13.068
-0.91188216 2.1137292 6.0124431 13.0685
-0.66567683 2.1104786 6.0818577 13.0695
-0.5273506 2.1206295 6.0634327 13.07
-0.79374194 2.126229 6.1621232 13.069
-1.2252045 2.1333072 6.2291713 13.0675
1.1282158 2.1275115 6.3319597 13.076
0.4267087 2.096756 6.4754648 13.0735
0.98471463 2.1260083 6.4030347 13.0755
0.29478705 2.0874524 6.5234127 13.073
0.58507836 2.0912724 6.5341969 13.074
-0.85697991 2.0896237 6.6456652 12.069
-0.73207784 2.0956826 6.6808257 12.0695
-0.58177334 2.0913548 6.6811938 12.07
-0.42927498 2.0751977 6.6390142 12.0705
-0.28122503 2.0751977 6.6469536 12.071
0.0046492289 2.0850074 6.6854987 12.072
0.15269807 2.0717356 6.6397262 12.0725
0.29200256 2.0847189 6.6782098 12.073
0.44860759 2.0720241 6.6273236 12.0735
0.5991708 2.0818338 6.6481247 12.074
0.72902298 2.0899122 6.6621346 12.0745
1.3520128 2.0995078 6.7327638 12.0765
0.88559103 2.1031876 6.7065539 12.075
1.0676979 2.0351796 6.8393464 12.0755
1.2097012 2.0711899 6.8210654 12.076
1.5277536 2.1171534 6.816958 12.077
-1.0761396 2.1061738 7.0907769 12.0685
-0.15425692 2.1158051 7.1624947 12.0715
0.7982884 2.0320735 7.2047348 11.0745
0.64625883 2.0158975 7.3167782 11.074
-0.66531634 2.0689521 7.6351309 11.07
