# .PCD v0.7 - Point Cloud Data file format
VERSION 0.7
FIELDS x y z intensity
SIZE 4 4 4 4
TYPE F F F F
COUNT 1 1 1 1
WIDTH 1243
HEIGHT 1
VIEWPOINT 0 0 0 1 0 0 0
POINTS 1243
DATA ascii
1.3264266 1.092651 0.058040969 22.6145
-2.0432656 1.1918709 0.015647491 20
-2.1779652 1.2018644 0.0062059984 21.046499
-2.0071301 1.2837423 0.088209823 21
-2.158241 1.3324885 0.048236273 22.047001
-1.9991355 1.3223811 0.0021444696 22.035999
-2.2794204 0.17235404 0.10784861 4.8000002
1.2045718 0.19266841 0.13355868 8.1055002
1.1930479 0.20836401 0.11416899 8.1134996
1.2309399 0.24118692 0.17577405 8.6087494
1.2358618 0.34491152 0.14356153 10.736187
1.2566085 0.45653155 0.16707274 13.771667
-2.2543678 0.52828729 0.14831269 10.548
1.2739446 0.5247227 0.15649533 14.6925
-2.0423644 0.61307406 0.19460453 12
1.2546405 0.61231709 0.12528357 17.105751
1.3496649 0.69040543 0.1892148 16.112751
1.2953277 0.7370888 0.12919727 19.605751
1.3068005 0.76477838 0.15941553 20.105249
-2.2273386 0.84804624 0.15133511 15.4925
1.349388 0.85193276 0.1485862 19.9107
-2.0137537 0.92221564 0.14690734 16.4
1.3629375 0.91267276 0.17304593 19.612999
1.3683388 1.0431597 0.16089942 22.609249
1.3410827 1.16155 0.14863345 23.113251
-2.1325819 1.2441708 0.11461344 21.5
-2.1296616 1.3987542 0.17280731 23.0485
-1.9792141 1.3289655 0.11141698 21.799999
-1.957032 1.4290879 0.16901281 23.019001
-2.0716305 0.19955103 0.21226943 5.5294118
1.269623 0.25677046 0.23937809 8.6911669
1.3147826 0.24076879 0.28650939 8.3057499
1.2996504 0.34285641 0.29015857 11.103
1.3141968 0.30611634 0.2780681 9.3614998
1.2733704 0.49481776 0.2402671 14.60375
1.325058 0.43321168 0.25422493 11.55575
1.3410715 0.55668837 0.26806 14.442333
1.31952 0.64202565 0.25698036 17.353626
-2.2206523 0.7055735 0.25452557 13.04925
1.374855 0.75001061 0.26789308 17.85775
-2.2126288 0.87247944 0.23773924 15.649099
-1.9879835 0.85955667 0.26813293 15.666667
1.3812842 0.84739041 0.26177058 19.60775
1.3840659 0.92179251 0.2516326 19.112
-1.9424257 1.0256492 0.25897107 18.039
1.3858783 1.0452793 0.2866933 21.1115
1.4351144 1.0558567 0.25166449 23.104
1.3761201 1.1257285 0.28557959 22.1115
-2.0948806 1.2481614 0.27744177 21.5
-2.1034284 1.3625661 0.20458385 23.049
-1.9452468 1.3423033 0.27930322 22.039249
-1.9289401 1.4340806 0.25804606 23.039
-2.0378697 0.0056940019 0.35795769 2
-2.2126861 0.21611293 0.3801153 5.5
1.2720739 0.23809339 0.32558304 8.1022501
1.3754791 0.28664771 0.37119091 9.1105003
1.2897167 0.32866693 0.34623146 10.602
1.293762 0.42153192 0.34910423 12.102
1.3509932 0.43336916 0.36595964 12.106251
1.363452 0.55119783 0.3519268 14.107918
-2.2002077 0.64432281 0.3674337 12.5
1.3257322 0.6383549 0.32380611 17.102501
-1.9944665 0.71229672 0.37544823 13.5
1.3918798 0.7913776 0.31113303 19.103001
1.4106082 0.75154531 0.36565354 16
1.3978511 0.89289182 0.30564243 18.778
1.4169937 0.84655845 0.35984221 18.55125
1.4186511 0.90101409 0.37735903 18.6105
-2.1311326 1.0335236 0.3598282 18.525501
-1.9507281 1.0563549 0.34535375 18.373335
1.4467429 1.0551509 0.32522249 23.103001
-2.0923615 1.128986 0.37429854 20.051001
-1.9659009 1.1353894 0.32593706 19.539749
1.3539932 1.1686026 0.34722561 22.833332
1.4555457 1.1138902 0.37366357 23.102249
-1.9434254 1.2657369 0.39231926 21.040501
-2.068737 1.3315102 0.36692503 22.551001
-1.9428221 1.3749369 0.34896475 22.040001
-1.9169623 1.4179304 0.36487135 23.040251
1.3594162 0.26535338 0.44790214 8.550312
-2.2010014 0.34236544 0.45011124 8.0515003
1.3383476 0.32715601 0.43764609 10.10075
1.3621988 0.41678274 0.46151733 12.1005
1.4099314 0.47857958 0.44786176 11.5
-2.0129149 0.5649358 0.46908239 11.142858
1.3964577 0.56575203 0.44225457 15.101
1.4071224 0.51540083 0.44319537 12.285714
-1.9972819 0.61984271 0.49283266 12.0415
1.3963796 0.63695157 0.40821332 16.1015
1.4158652 0.62834954 0.43716425 15.105417
1.4211742 0.72999686 0.44846475 17.101
1.4358511 0.81267947 0.42994446 18.105625
-1.9470371 0.92217493 0.48686349 17.02075
1.4100844 0.93545282 0.45157775 18.866667
-1.9073787 1.0620942 0.44857427 19.04125
1.3938583 1.0239618 0.44993618 20.109501
1.5038519 1.0731546 0.47614145 22.101
-2.0999217 1.1015497 0.461202 19.052
1.3801318 1.1188719 0.46600521 22.05475
1.5073688 1.1691111 0.45945644 23.10125
-2.0413799 1.2436076 0.46952203 21.677313
-1.9283371 1.2886782 0.45328829 21.04125
1.3448124 1.2267771 0.45619452 23.072836
-1.8950239 1.3857809 0.46456635 23.0415
-1.9146844 1.4045013 0.43095195 23.041
-2.0197551 0.25111625 0.52577162 6.4444447
1.4441215 0.27434394 0.565359 8
-2.1721423 0.37277299 0.58072716 8.0530005
1.3894932 0.34705031 0.52341598 10.099751
1.4300261 0.33427829 0.55199146 9.3540001
-2.1554344 0.48574579 0.59447014 10.05325
-2.0081422 0.47059429 0.59167075 10.0425
1.4318857 0.47057211 0.54052287 11.791611
-2.1573801 0.56336701 0.59407079 11.05325
-1.9738879 0.57947946 0.58133328 11.5425
1.4483341 0.55829382 0.56534827 13.437292
-1.9869603 0.6799283 0.58217925 13.0425
1.4524562 0.6670109 0.54375952 15.35425
1.4708065 0.7207095 0.53643429 16.6
1.5057763 0.74247277 0.59288478 16.549751
1.4434364 0.86176592 0.59854031 17.108
1.5149581 0.84998977 0.58780998 18.099501
1.4519151 0.92961055 0.54646045 19.0695
1.5192299 0.94030851 0.57391518 19.599751
-2.1093493 1.0110505 0.50597948 18
1.4186697 1.0452927 0.53948206 20.1085
1.5235257 1.0730585 0.55566949 21.766668
-2.0396585 1.1887336 0.52722722 21.052999
-1.8965781 1.1125411 0.59846789 19.042999
1.3867055 1.150179 0.52839303 22.1085
1.5072662 1.1795077 0.52869433 23.10025
-1.9953508 1.2695731 0.59553319 21.5
1.3290155 1.2506891 0.58449662 23.1075
1.523024 1.2012526 0.59215444 23.099501
-1.886796 1.3615675 0.55450052 22.375834
-2.0201826 1.4028912 0.54327488 23.053249
-1.8693084 1.4396796 0.56930989 23.042749
1.4458637 0.14969252 0.60410839 6
-2.1426387 0.20188801 0.65589309 5.318182
-1.9692103 0.26038751 0.67672431 6.5454545
-2.1559992 0.39611027 0.66685599 8.0539999
1.4723048 0.34369522 0.65563518 9.0492496
-2.1377296 0.4566721 0.66658056 9.0270004
-2.1290274 0.57764089 0.65298939 11.054
-2.1247389 0.63517523 0.64847904 12.105263
-1.9610701 0.61383694 0.61221296 12
1.4903756 0.62663949 0.61469072 15.099
1.5160646 0.6370182 0.66805768 14.5985
1.492806 0.79219216 0.62315631 17.099001
1.5281013 0.74600768 0.66035956 16.431999
-1.9264431 0.84504652 0.61093605 15.542999
1.5299777 0.8613044 0.65253395 18.098751
-2.0683029 0.99009693 0.62578565 17.700001
-1.9119077 0.90426368 0.61676013 16.285715
-1.8978462 0.97407067 0.60486776 17.042999
1.5469133 0.93814886 0.66217524 19.098751
1.4023746 1.0266646 0.64395607 20.10725
1.5364789 1.0678611 0.65584683 21.098751
-1.8909918 1.1419749 0.66752857 19.043751
1.3762037 1.110281 0.6445182 21.053625
-2.0117972 1.2595556 0.65103436 21.054501
-1.9770715 1.2650874 0.63811749 21.777374
1.3310345 1.2647384 0.62828612 23.107
1.5094726 1.2163106 0.66753393 23.098499
-2.0003934 1.3989571 0.62157732 23.054251
-1.9903874 1.3538022 0.68517584 23.055
-1.8694148 1.325859 0.6619488 22.043751
-1.8359226 1.4331911 0.64668423 23.043751
1.4646808 0.15740162 0.73184294 5.4444447
1.4713353 0.27959818 0.71187758 8.1070004
-2.1296217 0.39295083 0.75034183 8.0550003
1.4863464 0.37631729 0.71191418 9.1070004
1.5300577 0.37520653 0.79418802 9.0970001
-2.1141732 0.46830454 0.74377966 9.5550003
1.4982802 0.42554575 0.73815739 11.0975
1.4595016 0.5834378 0.77852154 12.466666
1.5348622 0.58925724 0.73700976 13.09775
-2.0991845 0.602373 0.73725218 12.055
1.4627433 0.6997993 0.7084567 14
1.5349728 0.66232908 0.73747009 15.09775
-2.0826268 0.70258296 0.72568166 13.055
-1.8965529 0.74944144 0.78909373 14.045
1.5606045 0.73962331 0.75500655 15.532666
-1.8888209 0.84430593 0.78917867 15.045
1.5543622 0.8464793 0.75113297 17.299
-1.8597853 0.92178422 0.75822526 17.022499
1.4095922 0.95042914 0.76721579 18.133333
1.5510526 1.0642521 0.72139418 21.098
-1.9690259 1.1760981 0.71945673 20.5555
-1.8792752 1.1835186 0.75876886 20.04475
-1.9558253 1.2335634 0.7603097 21.056
-1.8352062 1.2831391 0.76319224 21.045
1.5145164 1.246515 0.74847233 23.0975
-1.9553833 1.3577361 0.71487635 23.0555
-1.8322449 1.3212953 0.76112068 21.522251
1.3483785 1.304671 0.72238088 23.106001
-1.9364564 1.4245973 0.79608244 23.056499
-1.8135159 1.4392152 0.73060429 23.04475
-1.7875266 1.439502 0.79362887 23.022751
1.5543721 0.33489668 0.85092992 9.0965004
-2.0780301 0.45987642 0.84814656 9.5562496
1.5393589 0.42997479 0.80424857 10.097
1.5747784 0.55074918 0.85575521 12.298375
1.4613709 0.63780886 0.84136707 13.1055
1.5815194 0.66992474 0.8586247 14.54825
-1.8806666 0.73274702 0.83201563 14.0455
1.5946651 0.71619332 0.8714174 15.0965
-1.8432384 0.87228727 0.85543436 15.52275
1.4348381 0.86532533 0.86915165 17.105
1.5753194 0.87129068 0.84050786 17.09675
-1.8580364 0.92921269 0.81840098 16.5455
1.4249799 0.92168576 0.82096463 18
1.5655513 0.968041 0.8544147 18.548374
-1.9558928 1.0263323 0.88907474 18
-1.8341382 1.0560966 0.8616513 18.046
1.3839998 1.054302 0.83013153 19.57
-1.9355953 1.1987476 0.84254277 21.056999
1.3920451 1.1308156 0.89555198 20.1045
-1.8430955 1.2254834 0.86025721 20.046
-1.941221 1.3593287 0.85313445 22.307062
-1.8088965 1.3260601 0.84835052 21.773125
1.3791605 1.3605233 0.83318317 23.105
-1.7756605 1.4495424 0.8531639 23.046249
-2.0513344 0.18609224 0.93719345 5
1.4760785 0.17803641 0.91716188 5.8000002
1.6059833 0.21208188 0.97215736 6
1.5823281 0.34861198 0.92043328 8.5480003
-2.0295355 0.45383361 0.94831067 9.5574999
1.4597815 0.55220813 0.94594222 11.5
1.6007711 0.59088844 0.92075902 13.096
-2.0262229 0.69544798 0.90836722 13
1.4342685 0.6642952 0.97883159 13.5
1.5884838 0.65673625 0.9658218 13.67275
-1.8500298 0.72849435 0.93005836 14
1.4417102 0.71989489 0.98295528 14.604
1.587899 0.72215104 0.96195847 15.0955
1.6013767 0.71109271 0.92167628 14.096
-1.8277252 0.86696798 0.9074102 16.046499
1.5840063 0.88907593 0.96318102 17.095501
-1.9277188 0.98831284 0.94123238 18.058001
-1.8234334 0.9303031 0.95214772 16.047001
1.5708393 0.96277392 0.95511556 18.095501
-1.9274049 1.079754 0.94113296 19.058001
-1.8097249 1.0043877 0.96033448 17.4
1.5517442 1.0269711 0.96465468 19.440609
-1.8043419 1.1033217 0.99181974 19.047501
1.425198 1.1231363 0.96547443 19.604
-1.8031864 1.2422011 0.94238991 20.547001
-1.7857476 1.2795936 0.98153758 21.047501
1.4985367 1.2596865 0.97907799 22.5
-1.790568 1.3089218 0.93758422 21.285715
1.4815798 1.3115251 0.98203319 23.047249
-1.8669376 1.427021 0.97740287 23.05875
-1.7519517 1.4745963 0.93930709 23.047251
1.3813289 1.4177755 0.98314852 23.1035
1.4261377 0.011824107 1.0156958 2.5
1.6074469 0.085639484 1.0547329 3.6666667
-1.8446872 0.21429293 1.0563776 5.6500001
1.5914478 0.27633128 1.018273 7.1666665
1.6114782 0.23483582 1.0695024 6.25
-1.8308654 0.57984442 1.0341829 11.235294
1.616937 0.57829732 1.0459341 12
-1.8230518 0.67449409 1.0051382 13.0475
1.4351523 0.63455534 1.036534 13.1035
1.609949 0.65144742 1.0362198 13.083334
1.43555 0.79373723 1.0333807 15.1035
1.6023074 0.85515368 1.0083673 16
-1.8179337 0.9715746 1.026316 16.54775
-1.7978761 0.9384082 1.0389708 16.048
1.4095979 0.99156916 1.010394 18.1035
-1.8738804 1.095192 1.0347109 19
1.4420973 1.0533253 1.0548038 18.534334
-1.7861968 1.1127925 1.0303437 19.048
1.415189 1.1790071 1.026924 20
1.5141298 1.1183829 1.0662793 20.5
1.4505287 1.2131245 1.0367231 21.0515
1.5078812 1.2339152 1.0292474 22.09425
-1.8700144 1.3736812 1.0194269 22.3925
-1.7307606 1.3431963 1.0998422 21.049
-1.8279881 1.4221348 1.0762819 23.059999
1.4040718 1.4714072 1.0510633 23.103001
-1.9570986 0.02408064 1.1863672 2
-1.9383928 0.20445529 1.1954271 5.181818
1.439839 0.2270353 1.1300877 6.5
1.6175157 0.34603077 1.1830654 8.0935001
1.465894 0.45722589 1.1736189 10.05125
1.6181424 0.43490791 1.1881306 9.5935001
-1.9131908 0.60764605 1.170864 11.473684
-1.7726132 0.68844181 1.1810926 13
1.4669406 0.64915979 1.162306 13.1025
1.4721601 0.85088032 1.1610035 15.25
-1.8538581 0.96247077 1.1330651 16.79183
-1.7881933 0.95732021 1.1420208 16.049
1.4604241 0.91134501 1.1695687 16
-1.823776 1.0422344 1.1212723 17.554501
-1.7540581 1.0334947 1.1732863 17.0495
-1.8531694 1.1471848 1.1557928 19.060499
-1.7546324 1.1626366 1.1358652 19.274624
1.4258057 1.1105994 1.1256971 18.602501
1.5119835 1.1689616 1.1078113 21.0935
-1.8377553 1.3426228 1.1220883 21.613457
-1.7079915 1.3490006 1.1360778 21.5
-1.6964802 1.3924712 1.1911021 22.049999
1.5258238 1.3575851 1.153646 22.759834
-1.8109148 1.444213 1.1316314 23.030251
-1.77013 1.457062 1.1957272 23.061501
1.4830701 0.015460784 1.2404391 2
1.4808228 0.19509579 1.2634264 5.5333333
1.5009321 0.38450706 1.2875022 8
1.4792217 0.5130226 1.2375435 10.281769
1.6095612 0.56069529 1.2120657 11
-1.8746171 0.66480154 1.2416407 12.5
-1.7576463 0.60308212 1.2925919 11.0505
1.4683371 0.81753045 1.2275838 15.102
-1.7517933 0.97309041 1.2592058 16.441833
1.4813833 0.90300381 1.2310935 16.101999
1.5442727 0.91733164 1.2737955 16.5
-1.757391 1.0505896 1.2336034 17.870584
-1.8215574 1.1650605 1.2562621 18.780624
-1.7204758 1.1598865 1.2243285 18.716833
-1.6825757 1.1901039 1.2918861 19.051001
1.4518014 1.1848937 1.2058161 19.101999
1.5596552 1.1116612 1.2499423 19.092501
-1.7944479 1.2677917 1.2416379 20.53075
1.5303645 1.2561042 1.2794499 21
-1.7956491 1.3528045 1.2107445 21.730751
1.5237566 1.3645586 1.2518721 22.592251
-1.744951 1.4817582 1.265988 23.06225
-1.6535389 1.4350772 1.2544292 22.384169
1.5263622 1.4173563 1.27988 23.091999
-1.8850902 0.022886137 1.3170909 2
-1.7307602 0.091883279 1.3074331 3.75
1.4900194 0.090439275 1.3298501 3
1.4934028 0.14312966 1.3814121 5
1.6011853 0.11765853 1.368534 4
-1.7359649 0.21629229 1.3824974 5.5333333
1.6105219 0.2010137 1.3051041 5.7142859
-1.7234077 0.3007566 1.3408842 7
-1.7518589 0.40041831 1.3479667 8.0509996
-1.836266 0.54263812 1.3767203 10.0625
1.4818385 0.50466871 1.3030499 10.1015
1.5654713 0.54564542 1.3992792 11
1.6080197 0.57736009 1.3876865 11
-1.8281181 0.63574785 1.3367714 12.06225
1.5558792 0.66955894 1.3665707 13
1.4805334 0.74674088 1.3341415 13.0505
1.4797394 0.81257308 1.3359261 14.0505
-1.7207171 0.92900115 1.3223082 16.051001
1.5695596 0.96571541 1.3896737 16.474321
-1.7094812 1.0385656 1.3144034 17.051001
-1.6865609 1.0635743 1.3489513 17.581055
1.5506208 1.045857 1.3319023 17.591749
1.5357459 1.1711941 1.3317924 19.79575
-1.7355554 1.2734556 1.3711158 20.5
-1.7260052 1.3104935 1.3759781 21
1.538294 1.3436949 1.3468698 22.091499
-1.6215971 1.471118 1.3233684 22.718332
-1.5755124 1.4918262 1.3863206 23.0525
1.5102644 1.4960389 1.3270229 23.091499
-1.7060844 1.5046926 1.3526555 23.06325
1.5896164 0.10824767 1.4621114 3.6666667
-1.8158374 0.20385544 1.4371535 5
1.4903179 0.27863148 1.4358894 7
1.5904865 0.25980723 1.4254885 6.3000002
-1.8017445 0.42996493 1.4296495 8.5
-1.7617224 0.43519858 1.441501 9.0385008
1.4966701 0.48430842 1.4187268 9.5
1.5461719 0.45875919 1.4431504 9.3002501
-1.7106948 0.57052445 1.4299651 10.798727
1.5044239 0.51759934 1.4521749 10.1005
-1.7565571 0.63104624 1.4335904 11.526
1.5865844 0.61474115 1.40596 11.733334
-1.7692546 0.74400949 1.4380237 13.0635
1.5233983 0.76637137 1.4626442 13.1005
1.6077996 0.81292301 1.4623971 14
-1.8013524 0.90487736 1.4308633 15
-1.8032408 1.0052775 1.4018105 17
-1.7616527 1.0590256 1.4198765 17.333334
-1.7208741 1.1949216 1.4686285 19.063999
-1.7009354 1.2593772 1.4475492 20.063999
-1.622308 1.235714 1.4385743 19
1.5554769 1.2712793 1.4563512 20.59075
-1.6066357 1.4565697 1.4446864 22.05275
1.5347395 1.4289148 1.4098009 22.091
-1.7608087 0.08745601 1.5315878 3.5
-1.6941861 0.12189031 1.5461694 4
-1.6981733 0.25706568 1.553284 6
-1.7513194 0.37761313 1.5665756 7.5
-1.7319669 0.4151662 1.5346311 8.0644999
-1.7545553 0.55852187 1.5514259 10.318167
1.4921491 0.51177847 1.516785 10.1
1.5895388 0.58044052 1.5189291 11.0905
1.5942692 0.69922507 1.5233029 12.0905
-1.743232 0.72878963 1.5773276 12.5
-1.6993898 0.72275448 1.5115708 13
1.5948173 0.70157707 1.5530342 12
1.5819192 0.8145802 1.5775949 14
-1.5911185 1.0487298 1.5910274 16.554001
-1.6944056 1.1759284 1.5245296 18
-1.5858791 1.1455262 1.5873359 17.777
1.5587139 1.1298417 1.5397679 18
-1.6939552 1.2522449 1.5108538 19.564501
-1.5950882 1.273656 1.5287734 20.053499
-1.6503531 1.3354906 1.5789945 20.25
1.605127 0.1318761 1.6503366 4.5
-1.7154127 0.27036488 1.6915004 6
-1.636797 0.21760023 1.6832464 5.5
1.599426 0.2760061 1.6525267 6
1.611698 0.22505465 1.6433783 5.5
1.6140298 0.3577002 1.6541779 7
1.614427 0.42590579 1.6744269 8.0447502
-1.6287894 0.59479868 1.6567224 10.5
1.5983064 0.57074279 1.6426352 10
1.6050394 0.55664563 1.6482513 9.8780842
-1.6907978 0.60163194 1.6938431 10.555555
1.5952833 0.62168753 1.6298997 11
1.6127555 0.64824116 1.6893851 11.0895
1.5969945 0.70874608 1.6624522 12.0895
1.6055958 0.73146904 1.6069185 13
1.5797807 0.95560724 1.6484152 15
-1.6259531 1.0113311 1.6465707 16.026316
-1.5604804 1.0005699 1.6680588 16.05475
1.5856615 1.0364805 1.6232461 16.450001
-1.6257524 1.126272 1.6437732 18
-1.5592303 1.1301662 1.6644363 17.360668
-1.6333554 1.2691426 1.6330909 19.033001
-1.5466584 1.2107518 1.6426467 19
-1.6596382 1.3944016 1.612004 21.0655
-1.5370727 1.3175197 1.6360295 20
-1.6052954 0.020066086 1.7389358 3
-1.5905533 0.0037000701 1.7532372 2
-1.7075034 0.19249941 1.7599533 5
1.610045 0.42337745 1.76518 8.0889997
1.6090995 0.58469611 1.7565702 10.089
-1.5533905 0.78090757 1.7772732 13.0555
-1.524258 0.98791254 1.7478105 16.0555
-1.5525414 1.0236781 1.7014227 16
-1.6046745 1.1422679 1.785446 17.066999
-1.6120529 1.2691579 1.7134106 18.5665
-1.5712707 1.2553686 1.7392923 18.566999
-1.6855732 1.7543122 1.7660539 23.054501
1.7199864 1.9145322 1.7268649 23.099751
-1.5556363 0.19212255 1.831208 5
1.6154827 0.4424468 1.8460076 8.0885
-1.5418501 0.60218281 1.8330574 10.461538
-1.5328174 0.80201215 1.834565 13.056
-1.5431786 0.96510005 1.817171 15.028
-1.4888492 0.96917045 1.860918 15.0565
-1.5146198 1.0026404 1.8050208 16.056
-1.5728209 1.1401693 1.8140547 17.033749
1.7604601 1.6309534 1.8126141 20.099501
-1.7278858 1.8912007 1.8877025 23.055
1.7394562 1.8183478 1.8909868 21.5
1.699049 1.9707841 1.8649124 23
1.7185602 1.9074695 1.8062527 22.5
-1.5159143 0.050097447 1.9277729 3.5
-1.5205568 0.21528527 1.910951 5
-1.5619026 0.3330507 1.9606866 7
-1.5811076 0.41280204 1.9578217 8
-1.559337 0.62467408 1.9456526 10.5
-1.4926987 0.71072173 1.9531882 12.0285
-1.530189 0.84050918 1.9660622 13.01425
-1.443952 0.81568635 1.9447455 13
-1.4883908 0.97808182 1.9344267 15.057
-1.5909595 1.3225476 1.9858714 18.056499
1.7953385 1.4777256 1.964355 17.7995
-1.6206359 1.5554371 1.941646 21.056
1.7738326 1.6636344 1.916416 20.099001
1.7588944 1.7737968 1.9873439 21.098499
-1.7251233 1.9062345 1.969631 23.0555
1.6915219 1.9918286 1.9110774 23.098499
-1.5460089 0.3223778 2.0127134 6.5
-1.4740326 0.34519827 2.0376587 6.75
-1.4631703 0.48679152 2.0853341 9.0579996
-1.5101875 0.5186134 2.0681 9
-1.4570044 0.54490727 2.0344098 9.6859999
-1.5389979 0.60737395 2.0334163 10.0345
-1.5288974 0.72386265 2.008127 11.5
-1.5170943 0.86494809 2.025002 13.069
1.828022 1.1122301 2.0918097 14.5
1.8192317 1.2412368 2.0632935 16
1.7952557 1.4597578 2.0126224 17.5
1.7457371 1.784215 2.0574186 21.098
1.8258915 1.8081501 2.0906098 21.088499
-1.7116046 1.9549522 2.0439532 23.056
1.7966596 1.9592158 2.0425639 23.088499
-1.4957517 0.31699771 2.1070077 6
-1.4679857 0.45992419 2.1581428 8.0699997
-1.4089077 0.50284624 2.1082067 9.0585003
-1.422838 0.68007612 2.1240039 11.0585
1.8466353 0.90227735 2.1974621 12
1.8477364 1.027159 2.1824389 13
1.8192587 1.1147231 2.1143227 14.5
-1.6169598 1.2728882 2.104995 17.068501
1.7817233 1.4435579 2.1775503 17.200001
1.8461746 1.6916527 2.1982863 20.087999
-1.7037055 1.7875873 2.1415813 22.068001
1.7334096 1.8541683 2.1406496 21.0975
1.8229361 1.8204535 2.1760669 21.087999
-1.6953187 2.0008206 2.1182516 23.056499
1.7768413 2.020365 2.1332102 23
1.869256 0.081354395 2.2775309 2.5
-1.4749922 0.60253996 2.2032228 10.0585
1.8370938 1.0239959 2.2953165 13
1.7786164 1.4170737 2.2046866 17.0975
1.7645642 1.5591261 2.2509272 18.04875
-1.6690795 1.6531937 2.2539911 20.06875
1.8509846 1.6589737 2.2975755 19.5
-1.6619154 1.7310013 2.2758379 21.057501
-1.7014664 1.8732942 2.254952 22.068501
1.8255801 1.8066471 2.2569747 20.833332
-1.6618781 1.9402418 2.2706156 22.356165
1.7942655 1.9370606 2.2370214 22
1.7678013 2.0469892 2.2361295 22.666666
1.7542363 2.1264603 2.2843637 23.087
1.856997 0.2711857 2.3856702 5.5
1.8501399 0.48453665 2.3391051 7.5
-1.4938874 0.64274526 2.3505073 10.059
1.8612199 0.68202293 2.3161561 9.5
-1.5392685 0.96196699 2.3095391 13.0585
-1.5716896 1.1498669 2.3601825 15.0585
1.7995813 1.2980638 2.3027706 15.571428
1.8615086 1.3463489 2.3689399 16
-1.6324806 1.443727 2.3790777 18.0695
1.7790151 1.4091855 2.3658867 16.5
1.858811 1.4542209 2.3457229 17.195833
1.7577629 1.5778797 2.3285627 18
-1.6523542 1.7669206 2.3698816 20.528999
-1.6140966 2.028347 2.3373513 23
1.7583824 2.2127502 2.3901007 23.0865
1.835891 -0.025580054 2.47367 1
1.8514295 0.12794717 2.4181786 3.125
1.8501768 0.5906803 2.4104984 8.5
1.8457546 0.90909541 2.4379864 11.5
1.8026423 1.0580591 2.4646506 13
1.7917771 1.1401067 2.4860692 14
1.8866832 1.191347 2.4511847 14.087
1.7982864 1.2657369 2.4807684 15
1.8791355 1.2487216 2.4502356 15.087
1.8660178 1.3501904 2.4349837 16.087
1.8623797 1.5286229 2.4393661 18
-1.623829 1.6615484 2.4413311 19.5585
-1.5953926 1.7969234 2.4536359 20.07
1.8090572 1.7245147 2.4720523 19
-1.6117989 1.835446 2.426363 21.0585
-1.5866829 1.8888955 2.498785 21.059
1.7835715 1.8619035 2.4421105 21.0865
1.5259812 2.2728708 2.4064426 23.094999
1.8296852 0.0694784 2.5288134 2.5
1.8457198 0.19578211 2.5511394 4.25
1.8365331 0.22612642 2.5895913 5
1.8331928 0.49858898 2.5543003 7
1.8317428 0.50721794 2.5854974 7.5
1.8178093 0.83120239 2.5565908 10.25
1.9114966 0.90526831 2.5842361 11
-1.5708516 1.0694056 2.5907083 14.0595
1.9121084 1.0593387 2.5709505 12.5
1.8925934 1.2167691 2.5064378 14.5
-1.6063097 1.3016201 2.5624692 15.5
1.8591338 1.3765209 2.5787263 15.8
-1.5983876 1.4295776 2.5596941 17
-1.6198084 1.5342355 2.5210481 18.064499
-1.5887294 1.5577512 2.5682545 18.070499
-1.5967879 1.6826046 2.5051103 19.059
-1.5758793 1.7203196 2.561281 20
-1.5552278 1.8574507 2.5497022 20.333332
-1.5183049 1.9511373 2.5864496 21
1.8066299 1.9051944 2.5896289 20.086
-1.4796335 2.1150284 2.5366464 22.75
1.6385243 2.2613738 2.5717337 23.084999
1.824481 0.45311192 2.6601188 7
1.9153439 0.52026558 2.6033878 8.0865002
1.8105521 0.65505868 2.6303585 9
1.9065198 0.68923849 2.6960733 9.5
1.8940698 1.0203112 2.6089416 12.285714
1.8786987 1.1211376 2.6770248 13.086
-1.575263 1.2822719 2.6619091 15.5
-1.5679514 1.4545287 2.6291394 16.625
1.8247219 1.4476627 2.6501036 16
-1.5475454 1.5727364 2.6659842 18
-1.5492753 1.6282511 2.6622322 18.357
1.8159673 1.6693096 2.6112158 18
-1.5165925 1.7512695 2.655746 19.571428
-1.4255781 1.973539 2.6957495 21
-1.4213562 2.1460969 2.6420898 22.5
-1.4210457 2.2247808 2.693855 23.072001
1.3591068 2.2929618 2.6662252 23.093
1.5919091 2.2906492 2.625232 23.084499
1.5560806 2.3702581 2.6946912 23.094
1.6138878 2.3746948 2.6666632 23.0945
1.763844 2.4041245 2.6188316 23.095501
-1.5271914 0.5635004 2.7942927 8.0605001
1.9263994 0.52249837 2.7070065 8
-1.5257403 0.67118609 2.79248 9.0605001
1.9215497 0.63576061 2.7061522 9
-1.5565957 0.98054802 2.7017982 12.06
-1.5451838 1.0559294 2.7325583 13.5
-1.5416828 1.1344957 2.7447925 13.75
1.8567976 1.1561682 2.765573 13.042749
-1.5583 1.2359692 2.7541199 14
1.8531324 1.2429512 2.7492115 14.292749
-1.5492039 1.4102724 2.7089481 16.5
-1.4667207 1.6655997 2.7842584 18.072001
-1.4395583 1.70319 2.7982488 19
-1.3839447 2.2252004 2.7856107 23.0725
-1.1014316 2.268111 2.7934911 23.074499
0.66571784 2.2516339 2.7775679 23.087999
1.2697061 2.3322499 2.7878551 23.091999
1.4783581 2.3523898 2.7103434 23.0935
1.6462924 2.3566437 2.7209315 22.0945
1.7393186 2.3570168 2.7095077 22.094999
-1.5203245 0.34221336 2.8396654 5.5
-1.5167888 0.47286612 2.8907371 7.5
-1.5318168 0.50992393 2.8336067 7.5
-1.5255492 0.67554009 2.8769028 9
1.8971562 0.67832738 2.8463156 9.0854998
-1.532638 0.79260999 2.8456848 10
1.8924087 0.75907052 2.8285692 10.0855
-1.5242912 0.85929745 2.87905 10.5
1.8928095 0.93904102 2.821887 11.0855
-1.525664 1.0238444 2.8612463 12.035999
-1.5019088 1.1560102 2.8510578 13.572
-1.4977696 1.3544736 2.848207 15.072
-1.4824576 1.4655802 2.81514 16.572001
-1.4412128 1.513749 2.8364084 17
-1.4075701 1.7319705 2.8336248 18.75
-1.3903871 1.7710614 2.8536205 19
-1.4032304 1.8805907 2.8125422 20
-1.3532734 1.8815497 2.8948097 20.062
-1.3944784 2.1508453 2.8405168 22.061501
0.55214894 2.2592864 2.8751223 23.087
1.4683759 2.2999516 2.8319774 23.083
-1.2495199 2.3187633 2.8110025 23.0735
-0.91239655 2.3103611 2.8748395 23.076
1.2135277 2.3467882 2.8376696 23.091499
1.3631574 2.3469274 2.8374298 23.082251
-1.4995826 0.12341155 2.9436536 3.5
1.8904606 0.12196925 2.9155717 4
1.9017597 0.19446295 2.9199629 4.25
-1.4674584 0.2519702 2.9602509 4
-1.5173278 0.30898342 2.9029684 5.5
1.8835959 0.32362953 2.9642043 5.5
1.8906579 0.52453613 2.9427862 7
-1.5167272 0.69696754 2.9526565 9
-1.4656219 0.95498908 2.9615433 11
-1.4774451 1.0967841 2.9330714 12.5
-1.4108424 1.4040847 2.9601862 15.769231
-1.3795612 1.4188668 2.9778845 15.555555
-1.4153193 1.5946276 2.9005356 18
-1.3571191 1.7512479 2.9206245 18.5
-1.3601261 1.8060621 2.9074888 19.062
-1.0475074 2.2973351 2.9844842 23.064251
-0.45385358 2.2978747 2.9627974 23.0795
-0.37904188 2.2781835 2.9218714 23.08
-0.051726669 2.2876143 2.9633424 23.0825
0.92751181 2.2959251 2.9345493 23.079
-1.3321574 2.3144145 2.9423597 22.57325
-1.227466 2.3436079 2.9721453 23.063
-1.0764534 2.3003333 2.9408596 23.075001
-0.84914517 2.3005321 2.9059439 23.0765
0.87323916 2.326364 2.9799335 23.083752
1.0617174 2.3685052 2.9337833 23.086832
1.2797276 2.3768251 2.9213707 23.081499
1.5919065 2.3513186 2.9138546 22.0935
0.9671458 2.4091022 2.9993217 23.0895
-1.4190004 0.046325378 3.0327182 2
-1.3959703 0.032414421 3.0866137 1
-1.4437603 0.19792783 3.0803211 4.5
-1.4394219 0.62282079 3.0702732 8.3076925
-1.4376308 0.98883998 3.0186889 11.857142
-1.3775133 1.0090672 3.0824022 11.636364
-1.3097645 1.3540977 3.0936966 14.5
-1.3206086 1.515018 3.0494103 16.5
-1.3237144 2.0108378 3.0023985 20.0625
-0.83040333 2.2947211 3.0940683 23.066
-0.25140747 2.2756329 3.0084586 23.080999
0.4023838 2.2695546 3.0194833 23.075001
-1.3307207 2.3180225 3.0452564 22.0625
-1.1798297 2.3112311 3.0209537 23.063499
-0.95324665 2.3173525 3.0431204 23.065001
-0.85241067 2.304822 3.0540953 23.071251
-0.11879691 2.3115375 3.0592692 23.082001
0.02721563 2.3035808 3.0422878 23.083
0.20816855 2.3272433 3.089452 23.078875
0.38048771 2.3577623 3.078074 23.085501
0.52111936 2.3508954 3.04109 23.0865
0.6813519 2.3958786 3.0682421 23.0875
0.82489371 2.3321073 3.0222819 23.088499
1.0508074 2.3538234 3.0935535 23.0795
1.1469996 2.3399925 3.0571899 22.0905
1.2580364 2.3687243 3.0382624 23.080999
1.56917 2.3744698 3.0092287 22.093
-1.3844335 0.19831087 3.1000834 3.3076923
-1.4099088 0.63762939 3.1048026 8.1428576
-1.298075 0.90986353 3.1972289 11
-1.3027575 1.1063309 3.1635492 12.5
-1.2981427 1.1435488 3.1549289 13.074
-1.3094481 1.2929788 3.1625471 14.5
-1.2982816 1.3136952 3.1298695 14.074
-1.288123 1.4220239 3.1113362 15.074
-1.2943088 1.6932225 3.133198 17.073999
-1.291205 1.8717209 3.163682 19.073999
-0.24039876 2.267158 3.1598489 23.07025
-0.13283995 2.2559247 3.1193326 23.070999
-0.068198428 2.2638409 3.1072862 23.071501
0.037949163 2.2867174 3.1171021 23.07225
0.2784248 2.2914004 3.1091402 23.073999
-1.133575 2.3509743 3.1840508 22.075001
-0.52870369 2.365968 3.1165442 23.079
0.3306644 2.3081281 3.1459427 23.07975
0.65115523 2.3333325 3.1039658 22.08725
0.77444202 2.3268876 3.1344194 23.077499
1.0371232 2.3482118 3.1753743 22.0895
1.1002388 2.3459826 3.1168444 22.09
-1.2301389 0.15023942 3.2486794 2.5
-1.2486085 0.20020482 3.2675931 3.4000001
-1.3709532 0.45915693 3.2049263 6
-1.2546471 0.88518476 3.2743883 10.166667
-1.2745805 1.0960842 3.2744648 12
-1.2631574 1.1079839 3.2750475 12.0745
-1.2870417 1.2055877 3.221839 13
-1.2755373 1.3003279 3.2712183 14.0635
-1.2438738 1.5382816 3.2647774 16.074499
-0.1456237 2.2793288 3.2956395 22.070999
-1.2223556 2.3786371 3.2297506 22.074499
-1.1146468 2.3661666 3.2662671 22.064501
-0.61056912 2.3430483 3.2030888 22.078501
-0.39360437 2.363652 3.2327061 22.08
0.57835257 2.3396609 3.2616408 22.0865
0.99551594 2.3665664 3.2838025 21.089001
1.1856114 2.3680573 3.2564273 22.08
1.4123366 2.361568 3.2400651 21.091499
-1.2908431 0.10953444 3.3111496 3
-1.3062469 0.22334999 3.3092532 4.5
-1.2361565 0.2433961 3.3957667 4.5
-1.2592449 0.32478011 3.3305306 5.5
-1.269292 0.49548414 3.3302152 6.5
-1.2518128 0.58501482 3.3186874 7.5
-1.2648014 0.64465243 3.325078 8.2222223
-1.2478675 0.77060908 3.3339713 9
-1.263642 0.92259389 3.3372014 10.8
-1.2271976 1.3641169 3.3797343 14.064
-0.85632253 2.3311203 3.347857 22.06625
-0.67800736 2.3133178 3.3962376 22.067499
-0.54685128 2.3176374 3.3165665 22.068251
-0.45830497 2.3562067 3.3618226 22.074249
-0.36630589 2.3217661 3.3309774 22.0695
0.093259841 2.3478265 3.3458407 22.08325
0.43957117 2.302788 3.3081911 22.085501
0.82423115 2.3655877 3.3801832 22.077499
0.92931902 2.3603785 3.3401034 21.088499
1.1520036 2.3927441 3.3892987 22.0795
1.3695302 2.3819554 3.3455083 21.091
-1.2344892 1.0118692 3.4743292 11.075
-1.2208602 1.2434777 3.4197042 13.075
2.1358232 1.6290653 3.4671721 14.0945
-1.0825638 2.383615 3.4518218 21.565001
-0.30706728 2.3450356 3.4576402 22.07
0.29191926 2.3776555 3.4046977 22.084499
0.68221277 2.3750885 3.4382865 22.0765
0.92262626 2.3780165 3.4477336 22.077999
1.6184417 2.3869312 3.4557011 21.082001
1.5233269 2.4116678 3.450062 21.081499
-1.2038908 0.59463876 3.5461659 8.0644999
-1.2057247 0.76995093 3.5699337 9.0644999
-1.2472787 2.3941457 3.5530331 21.064251
-0.78144687 2.3755932 3.5157607 22.066999
-0.24259982 2.3690207 3.5951989 21.080999
0.079442054 2.3853555 3.5590246 21.083
0.31669787 2.3928196 3.5616908 21.084499
0.73488402 2.3673322 3.5565364 21.087
0.81463861 2.3952882 3.5164611 21.0875
0.916044 2.3961284 3.5586894 21.087999
1.0114477 2.3730824 3.5751312 20.088499
1.1059473 2.3458381 3.5833998 20.089001
1.2243079 2.3868456 3.5932865 21.0795
1.4707568 2.3957567 3.5368669 21.080999
1.7314475 2.3956847 3.5068309 20.0825
1.949769 2.3630507 3.5433757 20.0835
2.0345936 2.3339524 3.5685887 19.5
-1.0619346 2.4258146 3.5563414 21.076
-1.1888839 0.74170697 3.6007419 8.0754995
2.1488092 1.2243689 3.6825159 11.094
2.1036775 2.0881639 3.6498094 18
2.1014297 2.1091411 3.6727428 18
1.419335 2.2890356 3.6471961 19.0905
1.5217769 2.2786086 3.6667333 19.091
1.6226783 2.2487051 3.6632857 19.091499
1.7354488 2.2262125 3.6782084 18.091999
-0.3262665 2.3797979 3.6605909 21.0805
-0.07887587 2.3878832 3.6776819 21.082001
0.16864339 2.371413 3.6323955 21.0835
0.40673169 2.3875031 3.6912036 21.074499
0.59640694 2.3504562 3.6594989 20.086
0.65979719 2.3664889 3.6418762 21.081249
1.2115421 2.3374071 3.6140771 20.0895
1.3213239 2.3460312 3.6321478 20.584999
1.6814337 2.3761511 3.6014962 20.082001
1.8754388 2.336627 3.6207142 20.083
2.0034757 2.306052 3.6332731 19.0835
-0.95961517 2.4045672 3.657733 20.57675
0.32010332 2.4022317 3.6476781 22.073999
0.97626382 2.4003427 3.6307197 21.077999
1.9709514 2.2766881 3.7736382 19.083
2.0848892 2.2506833 3.7836695 18.0835
-1.1004176 2.3872743 3.7740405 20.0655
-1.0042168 2.3878412 3.7523038 21.066
-0.89900464 2.3760777 3.7105901 21.0665
-0.41275141 2.3878069 3.7208996 21.08
-0.32773134 2.3694177 3.7826552 20.0805
-0.23644298 2.38009 3.7259774 21.070499
-0.16890618 2.3733172 3.7000918 21.081499
-0.077823728 2.3714213 3.783607 20.082001
0.0055288374 2.3649254 3.7234876 20.0825
0.1339803 2.3803601 3.7761409 20.08325
0.46654093 2.365871 3.7622671 20.58
0.52168953 2.3525681 3.7250271 20.085501
0.79399717 2.3108718 3.7618845 20.087
0.88333595 2.3302934 3.7457619 20.0875
0.95986485 2.3421135 3.7096026 20.087999
1.1759002 2.3938913 3.7269607 20.579
1.2804319 2.3701506 3.7445371 20.0795
1.3769419 2.367892 3.7889521 20.08
1.4514986 2.393353 3.7093308 20.0805
1.555925 2.3458607 3.7870028 20
1.6446917 2.3487265 3.7388911 20.081499
1.7524129 2.3275127 3.7542982 19.082001
1.8615953 2.3011961 3.7666667 19.0825
-1.1994067 2.4070292 3.7491994 20.0755
-0.83314991 2.4082723 3.787389 21.066999
-0.64767504 2.4100847 3.7129149 21.068001
-0.57348847 2.4005885 3.7820849 21.068501
-0.32378724 2.413101 3.7022488 21.07
2.1257386 1.8217891 3.8921928 15.0835
-1.227271 2.0770156 3.8433964 18.0755
-1.2173594 2.2130446 3.8500023 19.0755
0.54999089 2.2943861 3.8844566 19.085501
1.6461037 2.2903407 3.89008 18.5
1.7114336 2.2624185 3.8681798 19.081499
1.9889531 2.254447 3.8341105 18.083
-1.2069727 2.3993044 3.8215036 20.065001
-0.85881865 2.3533425 3.8544209 20.077499
-0.76891029 2.3758092 3.85888 20.077999
-0.60415757 2.3640599 3.8969307 20.079
-0.50629723 2.3818979 3.8510544 20.574249
-0.41696092 2.3931708 3.8587015 20.08
-0.20222518 2.3661954 3.8396342 20.081249
0.27127448 2.3692505 3.829222 20.084
0.36710265 2.3414693 3.8701768 20.084499
0.5864805 2.3884115 3.8135617 21.0755
0.63614941 2.3084691 3.8501945 19.086
0.72079384 2.3138061 3.8132257 19.0865
-0.76581997 2.4111421 3.8900843 20.067499
-1.1308279 2.2322292 3.9748716 18.5
0.29264548 2.293061 3.9760761 19.084
0.36925068 2.29721 3.9527779 19.084499
0.46421579 2.2999766 3.9229341 19.084999
1.5542371 2.2528 3.9828207 18.0805
1.7491882 2.2210202 3.9578588 18.081499
1.8412883 2.2117181 3.9320285 18.082001
1.9329484 2.2597823 3.9021964 18.0825
-1.1196036 2.3666677 3.915379 19.5
-1.0080783 2.3596382 3.9624643 19
-0.92182446 2.3466697 3.9711328 19.07725
-0.77750838 2.3590305 3.9441576 19.077999
-0.6945889 2.3597527 3.9479096 19.741667
-0.55864501 2.3385801 3.943903 19.07925
0.048731286 2.3697414 3.9565413 20.07225
0.88611865 2.3551819 3.9767308 20.077
1.0473863 2.3633974 3.9147 20.077999
1.4416291 2.3242817 3.9196277 19
-1.1740409 1.855801 4.0277572 16.076
-1.1564275 1.957611 4.0666294 16.5
1.874308 2.1791043 4.0125632 17.082001
2.1392245 2.1984541 4.0124078 17.093
-1.1257902 2.2001469 4.065783 18
-1.0672606 2.2325954 4.0789728 18
-0.43513343 2.2811885 4.0995507 19.08
-0.24729034 2.2836399 4.0447116 19.080999
-0.059901923 2.2685645 4.0644908 19.082001
0.021519929 2.2907186 4.0733891 19.0825
0.11278215 2.2909372 4.0391159 19.083
0.20352677 2.291167 4.0107331 19.0835
0.76902783 2.2481301 4.0304141 18.0865
0.88338089 2.2353196 4.0887985 18.087
1.3458925 2.2585192 4.0624661 18.5
1.4678622 2.2496212 4.0434642 18.08
-0.25621933 2.3694642 4.0478115 20.070499
0.18225621 2.3752215 4.0692582 20.073
0.26099968 2.3444026 4.0834417 20.0735
0.99013001 2.3384812 4.0205617 19.077499
1.0935371 2.3103857 4.0506606 19.077999
-1.1219465 1.026894 4.1176014 10.0765
-1.1260982 1.3018588 4.1679807 12.0765
-1.0885634 1.7924787 4.1969252 15
-1.0516766 2.0629911 4.1720433 17
2.0762377 2.1994836 4.1025929 17.092501
-1.0058752 2.2707803 4.1762638 18.077
-0.90285289 2.2605309 4.1428847 18.077499
-0.43938062 2.2465453 4.1761088 18.08
-0.34168181 2.2713223 4.1185651 18.5805
-0.24704072 2.2634723 4.1311955 18.080999
-0.15244731 2.2737727 4.1055622 19.081499
0.99614811 2.2245913 4.1531782 18.0875
1.1831714 2.2577419 4.125174 18.5
-0.81180811 2.3012946 4.1323819 18.077999
-0.18176334 2.3621392 4.1122265 20.070999
-0.091793261 2.3480923 4.1800642 19.071501
0.27567598 2.35024 4.1078873 19.0735
0.37309048 2.3421545 4.1687689 19.073999
0.45563811 2.3202801 4.1895428 19.074499
-1.1029321 1.2328635 4.2554488 11
-1.0809349 1.4591062 4.2591558 12.5
-1.1411372 1.5904684 4.2988935 14.066
-1.0866188 1.539912 4.2441192 13
-1.0408452 1.7154161 4.2742186 14.5
-1.129088 1.8082997 4.2332153 15.066
-1.0680956 1.9405712 4.2101731 16
1.453675 2.1919692 4.2589169 17.0795
1.747682 2.1863368 4.2024364 17.080999
2.1462412 2.1185112 4.2279925 16.092501
2.271625 2.140475 4.2237825 16.093
-0.71963954 2.2802806 4.228241 18.078501
-0.64170313 2.2594364 4.2895589 18.079
-0.53043771 2.2425332 4.2011242 18.0795
0.09634608 2.2933207 4.2804985 19.0725
0.65737444 2.2704122 4.2677593 18.0755
0.75957942 2.2459662 4.2939925 18.076
1.0503714 2.2172978 4.2594795 18.077499
1.1454678 2.2351708 4.2373295 18.077999
1.5493703 2.215661 4.2307487 17.08
1.6697793 2.2340901 4.2847176 17.0805
1.8880324 2.2111633 4.2194734 17.091499
2.1009877 2.2208366 4.2478828 17.0825
-0.36796334 2.3078859 4.2297649 19.07
0.0011019621 2.3204305 4.2379727 19.072001
0.55786717 2.3031216 4.2478809 19.075001
-1.0659072 0.79643577 4.3239665 8.0769997
-1.1114125 1.4907262 4.3513193 13
-1.0177176 1.4795557 4.3923006 12.25
-1.1200401 1.6800542 4.346529 14.5
-0.98879385 1.6028569 4.3984437 13
-1.0944203 1.8104252 4.3549609 15
-1.0667598 1.962358 4.3971772 16
0.78108972 2.1911154 4.3761377 17.076
0.86692083 2.194092 4.3573604 17.0765
1.3747582 2.1993456 4.3393998 17.079
2.0641532 2.1337306 4.3078237 16.091999
-0.94336641 2.2225723 4.3412709 17.077499
-0.54852128 2.2372637 4.3671741 17.0795
-0.27147791 2.2742996 4.3008308 18.070499
-0.16703279 2.2476623 4.3768811 17.576248
0.1942703 2.2704184 4.3384399 18.073
0.28001758 2.2526333 4.3819399 18.0735
0.86535794 2.2060983 4.3653712 18.0765
0.9592936 2.2205296 4.3317327 18.077
1.2596825 2.2382522 4.336328 17.088499
1.9440207 2.207361 4.3191237 16.091499
2.1607606 2.2038321 4.3636012 16.0825
-1.0202808 0.49290633 4.4781232 6
-1.0061464 0.83652496 4.4989057 8
-1.080928 0.98950034 4.4854612 9
-1.085808 1.0189468 4.4886007 9.75
-0.98610151 1.0752972 4.485209 9.5
-1.0888644 1.2904788 4.4643922 11
-0.98260069 1.3845242 4.4571056 12
-1.0694695 1.4100305 4.4620695 12
-1.038272 1.530888 4.4997597 13
-0.99553645 1.647418 4.41291 14
2.2614155 1.7293856 4.4769835 13.0925
-1.0348907 1.8494954 4.4633522 14.833334
-0.97517502 2.0505161 4.4903069 16.077499
0.59758383 2.1873915 4.4959989 17.075001
1.2503324 2.1796713 4.4525204 17.078251
-0.042357415 2.2412922 4.4973855 17.082001
0.69316155 2.2013545 4.4666772 17.0755
1.8632812 2.2059138 4.4068985 16.091
1.9523752 2.2313101 4.4187956 17.081499
2.0851645 2.2155941 4.4753456 16.082001
-0.98199868 0.60062838 4.550755 6.6666665
-1.0024121 0.75477552 4.5177674 7
-0.99034595 0.97614098 4.5118928 9
-1.0099545 1.1400549 4.5967879 10.067
-1.0143803 1.3359985 4.5977187 11.067
-1.0059192 1.5295624 4.5665274 13.067
2.1867328 1.6460671 4.5614095 12.092
-1.0091674 1.7602139 4.5455112 14.033501
2.1801314 1.7375784 4.5731144 13.092
-1.0045609 1.900158 4.5019393 15.067
1.1218082 2.1899638 4.5442963 17.077499
0.51228362 2.2024724 4.5760417 17.074499
1.7482901 2.2110271 4.5625992 16.09025
-1.0279984 0.25611478 4.6472063 4.0999999
-0.99095321 0.63068712 4.699398 6.75
-1.0181929 0.79586345 4.6452022 8.0670004
2.0874605 1.7243671 4.6139135 13.0915
2.1861551 1.7430754 4.6785469 13.082
-1.0179703 2.0441813 4.6091719 16.066999
2.4004526 2.0705984 4.692667 14.0925
1.605731 2.1838541 4.6438479 16.0895
2.3925509 2.1815586 4.668685 15.0925
0.17308298 2.2370136 4.6906905 17.083
0.41547477 2.2073114 4.6433105 17.073999
1.3696907 2.2037041 4.6830783 16.078501
1.9474102 2.2196019 4.6734071 16.080999
-0.97591078 0.13472317 4.7207994 3
-0.99525076 0.37977156 4.7270732 5
-0.9610669 0.79740804 4.7438903 8
1.9544605 1.6989324 4.7192521 13.081
2.0684309 1.6846941 4.7108674 13.0815
2.1726236 2.066107 4.7833519 14.0915
2.2510748 2.0526762 4.7088013 14.092
0.0012448885 2.1876762 4.7727571 17.072001
0.10775171 2.1900902 4.7868819 17.0725
0.21081236 2.1782067 4.7076621 17.073
0.84724605 2.190078 4.7735581 16.076
0.94628274 2.1766229 4.7787342 16.0865
1.1673663 2.1799948 4.7383227 16.0875
1.3812464 2.1889594 4.7150722 16.088499
1.5289227 2.1984892 4.7645984 16.089001
1.8398781 2.1928108 4.7067995 16.0805
-0.67994356 2.2898207 4.7336612 17.079
2.0488815 2.2245054 4.7812438 15.091
-0.77508688 2.3044083 4.7527261 17.078501
2.0693223 2.0807724 4.8694749 14.091
-0.79340386 2.179709 4.8264489 16.078501
-0.68489742 2.186064 4.8563619 16.079
0.10221814 2.1950932 4.8994794 16.0725
1.068305 2.1961558 4.8006282 16.087
2.3171277 2.1851165 4.8121924 15.092
0.0012784658 2.2075624 4.8983922 16.072001
0.41053668 2.2301929 4.8524981 16.084
0.84909785 2.2005615 4.8544464 16.086
1.313828 2.2022889 4.8245249 16.087999
1.4379212 2.200469 4.8564382 15.0885
1.7802325 2.2201052 4.8701062 16.08
2.1245024 2.2148542 4.8158231 15.581499
2.2437706 2.2313552 4.8189812 15.082
-0.46825954 2.3448958 4.8757377 17.08
-0.35699829 2.3362281 4.864707 17.0805
-0.24591336 2.3467307 4.8930111 17.080999
1.9163017 2.0865672 4.9448433 14.09025
-0.87339193 2.1742496 4.9547582 16.068001
-0.75851488 2.1618989 4.9437819 16.068501
-0.6501804 2.1676881 4.9731522 16.069
-0.42170832 2.1348817 4.919023 16.07
0.64492369 2.1445308 4.9180093 16.075001
0.75935096 2.1591971 4.9371104 16.0755
1.0038892 2.197793 4.987371 16.0765
1.2531549 2.1851752 4.9991918 15.0875
2.0085497 2.1496024 4.9800196 15.0905
2.2425303 2.1685946 4.925293 15.0915
-0.57650363 2.2014308 4.9050055 16.0795
-0.46556816 2.2092748 4.9338241 16.08
-0.13514706 2.2564864 4.9322 16.081499
0.64741123 2.2221968 4.9150233 16.084999
0.76092613 2.2156637 4.9051805 16.085501
1.6785226 2.200768 4.9282379 16.0795
1.7561278 2.0956602 5.027061 14.0895
-0.55576146 2.2234633 5.085423 16.0695
-0.2329298 2.2355328 5.0523529 16.076
-0.11007024 2.2169125 5.0021 16.071501
-0.014789194 2.2673411 5.0988898 16.082001
0.20210567 2.2160854 5.0280223 16.083
0.56475139 2.227802 5.0727549 16.074499
1.1270278 2.2291746 5.0522881 15.582
1.3563632 2.2216814 5.0556612 16.077999
1.9530418 2.2003815 5.0140724 15.0805
-0.90378672 2.163928 5.1992698 15.068
0.23121808 2.1922367 5.1917143 16.073
0.69435197 2.1926825 5.186017 15.075
1.5394086 2.1161458 5.1512651 14.0885
1.6606734 2.1185601 5.1223493 14.089
2.1361277 2.1837704 5.1635408 15.081
0.097090274 2.246944 5.1616702 15.5825
0.34453806 2.2064238 5.163332 16.0735
0.45434019 2.2093008 5.1057997 16.073999
1.2593404 2.2460201 5.1416693 16.077499
1.3432456 2.2346096 5.163496 15.539
1.3317224 2.1462626 5.2889047 14.0875
1.4381294 2.1278012 5.2112746 14.088
1.9210757 2.1901402 5.2653003 15.08
2.0627143 2.1863484 5.2852707 14.0805
2.19982 2.1808369 5.2862315 14.081
-0.4583379 2.2111883 5.2696543 15.07
-0.32985267 2.2180452 5.2266841 16.070499
0.2321569 2.2353623 5.2572646 15.083
0.80892026 2.2176201 5.2552385 15.0755
0.94213498 2.2108457 5.203361 15.086
1.5312504 2.2332828 5.2324691 15.0785
1.6472334 2.2101684 5.2258196 15.079
1.325968 2.1489503 5.3574162 14.416666
1.4499503 2.1272097 5.3886647 14.078
1.5794063 2.1400111 5.3883276 14.0785
1.7126861 2.1566181 5.3947158 14.079
2.3287439 2.1818037 5.3083344 14.0815
-0.8155219 2.233496 5.3666101 15.0685
0.0014028074 2.2172837 5.3636379 15.072
0.11901054 2.2176201 5.3158212 15.0725
0.35441247 2.2309911 5.3486576 15.0835
0.47054544 2.2015898 5.3647385 15.084
1.0753413 2.2344594 5.3029451 15.0865
1.8051958 2.2266612 5.3117938 15.0795
-0.12110443 2.0967631 5.4964924 14.0715
0.0014341571 2.0905356 5.480938 14.072
0.48800996 2.1536591 5.4693322 14.084
0.60810161 2.174402 5.4085398 14.5845
0.99057162 2.196095 5.4806085 14.086
1.113851 2.1874652 5.4486003 14.0865
1.2303693 2.1522338 5.4332004 14.082
1.8292369 2.1725335 5.4018946 14.0795
1.9644876 2.1690943 5.4020176 14.08
-0.11908641 2.2153625 5.4298224 15.0715
0.48836559 2.2112598 5.4603577 15.074
0.86520743 2.2243798 5.4293332 15.0855
-0.73276031 2.1490066 5.5916834 14.069
-0.5997473 2.1209819 5.5310764 14.0695
-0.48382884 2.1154463 5.5273533 14.07
-0.36215547 2.1247878 5.5620451 14.0705
-0.23588531 2.1057587 5.5171804 14.071
0.36798981 2.1425431 5.5277057 14.0835
1.1058313 2.1465847 5.5232825 14.0765
-0.34950984 2.2189 5.528245 15.0705
-0.2432318 2.2289555 5.5096045 15.071
0.36920282 2.2006714 5.5050159 15.0735
0.86692214 2.2054243 5.5117102 14.0855
1.1195039 2.2191591 5.57019 15.0765
2.6820297 0.65769732 5.6687002 5.75
2.7120872 0.87734389 5.6934667 7
2.6898303 1.0128576 5.6829352 7.5
-0.74042207 2.1944737 5.6069674 15.069
0.13038018 2.1569684 5.6713586 14.0825
0.24829331 2.1501536 5.6083455 14.083
1.7189183 2.1211939 5.6776457 13.0885
-0.6066637 2.223325 5.6206388 15.0695
2.6733673 1.1726805 5.7276258 8
2.6986957 1.3109829 5.7367358 9
2.6953731 1.4003702 5.7308187 9.5
2.7068474 1.5371143 5.7334356 10
-0.11496755 2.1371207 5.7126803 14.0815
0.016397506 2.1589675 5.7332964 14.082
0.64608431 2.1509092 5.7868915 14.0745
0.75898921 2.1844504 5.7963672 14.075
2.2100065 2.1329618 5.7976899 13.09
0.88532495 2.2099509 5.7647066 14.0755
1.0064154 2.2314441 5.7064075 14.076
2.5574865 1.385847 5.8094501 9.0815001
2.5752943 1.5440037 5.8498898 10.0815
-0.38691208 2.1632938 5.8731976 14.0805
0.52209145 2.1387117 5.8506179 14.074
0.79222834 2.1455474 5.8395638 14.085
1.5672014 2.1059182 5.8075228 13.078
1.9223852 2.1235356 5.8083167 13.089
1.6483152 2.0905123 5.9152408 13.088
-0.50248098 2.1664438 5.9021058 14.08
0.14391625 2.1175683 5.9874539 14.0725
0.25452298 2.1072378 5.9090104 14.073
0.38599268 2.1299744 5.9088359 14.0735
1.4584656 2.1194623 5.924592 13.0775
2.0862947 2.1244841 5.9002452 13.0895
1.5463095 2.0872185 6.0678048 13.0875
1.86361 2.0600367 6.098505 12.0885
2.1390824 2.0768569 6.0182805 12.0895
2.2007544 2.0944326 6.0631523 13.08
-0.11885354 2.1889546 6.0805669 13.0815
0.0015945298 2.1333499 6.0810003 13.072
1.2109829 2.1117458 6.0687304 13.0765
1.3540124 2.1013184 6.0882907 13.077
1.4225093 2.0693243 6.1602874 13.087
2.064523 2.0870543 6.1460195 12.584249
-0.13444839 2.1311636 6.1193209 13.0715
0.15966657 2.1502795 6.1102319 13.0825
0.30557278 2.1525123 6.1775699 13.083
1.0789057 2.1093717 6.1681256 13.076
1.7529347 2.0634127 6.2326593 12.088
2.5606112 2.0495424 6.2609496 12.0905
-0.39256641 2.1376636 6.2810287 13.0805
-0.24141857 2.1955411 6.2042799 13.081
0.45184448 2.1359937 6.2192874 13.0835
0.59533119 2.1313741 6.2966585 13.084
0.97084361 2.1188774 6.2489152 13.0755
1.9825978 2.1069305 6.2911019 13.079
1.8417968 2.0843463 6.3322754 12.0785
2.3084574 2.0709684 6.3475423 12.08
0.044402629 2.1501319 6.3549523 13.082
0.5595991 2.101208 6.3785739 13.074
0.72335744 2.1248803 6.3776231 13.0795
0.83730155 2.1107657 6.3100677 13.075
1.1962302 2.0487986 6.4271774 12.086
1.6291757 2.0617328 6.4771423 12.0825
1.7416885 2.0920758 6.443687 12.078
0.89203978 2.1290102 6.4367886 13.085
0.14724858 2.099267 6.5518975 13.0725
-0.39572355 2.1142838 6.5004988 12.0805
0.28203365 2.1137447 6.5408759 13.073
1.0566895 2.1112432 6.5054421 12.0855
0.73525691 2.0555174 6.6999459 12.0745
1.3210808 2.043323 6.665103 12.0765
1.4419553 2.0816863 6.6448784 12.08175
2.1252501 2.0560093 6.6894202 12.079
-0.14648061 2.1023128 6.6702676 12.0715
0.58344138 2.0348787 6.7993164 12.074
1.2081137 2.0384464 6.7693577 12.076
2.7878881 2.0286357 6.7448859 11.0905
-0.29933825 2.1063533 6.7716513 12.071
2.3153739 2.1196508 6.7751431 12.0795
0.98521471 2.0617523 6.8157182 12.085
1.6105886 2.0978737 6.826808 12.087
-0.45383769 2.1078858 6.8253608 12.0705
0.66206455 2.1136701 6.8221126 12.084
0.0018341764 2.0732524 6.9776793 12.072
0.15706173 2.0793247 6.9970617 12.0725
0.45619583 2.0796006 6.984899 12.0735
1.0891448 2.0625732 6.9993811 12.0755
2.5224044 2.0096543 6.9815879 11.0895
2.705977 2.0450859 6.950161 11.0805
-0.2438626 2.1442087 6.9883323 12.081
-0.095769137 2.1186857 7.0920911 12.0815
0.31610924 2.1044412 7.0792332 12.073
0.88614845 2.0324275 7.171834 11.0845
0.95061255 2.0579877 7.1527963 12.075
1.0414574 2.0907218 7.1255708 11.085
1.7530618 2.0445836 7.130291 11.0775
1.9471973 2.051487 7.2247763 11.078
2.4452803 2.034503 7.268877 11.084249
-0.10309693 1.8785397 7.3928885 10.0815
0.16474259 2.0369339 7.3573885 11.0725
0.24327973 2.0769341 7.3860183 11.0825
0.65590042 2.0251286 7.3310184 11.074
0.75073767 2.0518844 7.3931985 11.084
1.2437348 2.0847433 7.3061676 11.0855
2.2650955 2.0100267 7.3134618 11.0885
-0.32185796 1.8599105 7.4157109 10.571
-0.16293563 2.0443871 7.4310098 11.0715
1.7903111 2.0194695 7.482811 11.087
2.1423256 2.0093024 7.4199028 11.088
2.3817697 2.0310199 7.4975195 11.079
2.7185009 2.0332854 7.4747334 11.08
2.9131913 2.0170708 7.4906893 10.09
-0.087573022 2.1077304 7.4231873 11.0815
1.9947567 1.9982573 7.5409923 10.0875
0.48279941 2.0376608 7.5556307 11.0735
1.5177511 2.0344293 7.5530305 11.0765
