# .PCD v0.7 - Point Cloud Data file format
VERSION 0.7
FIELDS x y z intensity
SIZE 4 4 4 4
TYPE F F F F
COUNT 1 1 1 1
WIDTH 188
HEIGHT 1
VIEWPOINT 0 0 0 1 0 0 0
POINTS 188
DATA ascii
-1.9573582 0.2983408 -1.217468 7
-1.9518455 0.47996101 -1.2671765 9
-1.9357044 0.64517391 -1.2269664 11.5
-1.9097726 0.88021487 -1.2138551 15
-1.9757195 0.092027381 -1.164343 4
-1.9864688 0.2387643 -1.1552039 5.5
1.78422 0.37712899 -1.0896437 8
1.8194345 0.28573829 -1.086612 7
-1.978947 0.53940475 -1.055705 10
1.7965589 0.46196067 -1.086887 9.5
-1.9559965 0.6892882 -1.1417302 12
1.6917861 0.95863748 -1.0318594 17
-1.8911194 1.01459 -1.1997591 16
1.6884762 1.0120958 -1.0299352 18
-1.9371921 0.10531115 -0.9282968 4
-1.94064 0.27593914 -0.9517113 6.5
-1.9086204 0.59464455 -0.8612259 11
-1.9114629 0.67218 -0.87541813 12.5
-1.93364 0.87883174 -0.94817209 15.5
-1.9022019 1.0933894 -0.94427669 18
-1.8610023 1.2618289 -0.93591565 20
-1.9713057 0.011371601 -0.69396001 3
-1.9516063 0.35389549 -0.67697185 8
-1.8924094 0.74597734 -0.78875989 14
-1.8813401 0.8968938 -0.7174269 16
-1.8461488 1.2962 -0.60387713 21.5
-1.9608582 0.087821528 -0.47190434 4
-1.957065 0.50799876 -0.51258355 10
-1.8475854 1.0714231 -0.59477383 19
-1.8971283 0.061881684 -0.30245721 3
-1.8658438 0.82916301 -0.34235379 16
-1.8380914 1.0551612 -0.25087187 19
-1.8782728 0.14403608 -0.17065421 4.5
-1.8493088 0.34334809 -0.049139615 8.5
-1.8273685 1.0711497 -0.023985451 20
-1.7400436 0.080852129 0.14128351 4
-1.7588404 0.26493159 0.117917 7.5
-1.8004346 0.56302232 0.11830235 12
-1.7782102 0.51663244 0.16438471 12
-1.8005207 0.69650507 0.064252533 14
4.2395906 2.2849252 0.049386479 18.5
-1.6906722 0.10122565 0.26644668 4
-1.7482319 0.39125767 0.22531593 10
-1.7806724 0.69462454 0.20424429 14
3.9492593 2.4158883 0.2065409 20.5
-1.6372268 0.0760106 0.58749074 4
-1.679648 0.32675326 0.4594399 8.5
-1.695739 0.44816339 0.5026319 10.5
-1.7062775 1.1722184 0.47942421 21.666666
-1.6456947 0.45483762 0.70797098 11
-1.6314335 1.1289903 0.75291193 21
-1.65163 0.41464752 0.87849194 10
-1.6055008 0.15122263 1.0430301 4.5
-1.5603273 0.066250294 1.1765627 3
-1.4977391 1.1192085 1.1261816 20
-1.5014126 0.35079843 1.3521078 8.5
-1.3855302 1.0675051 1.3859836 19
-1.4118201 1.2794365 1.3420444 21.5
3.9125514 2.3249202 1.2032768 19.5
-1.4072547 0.072450235 1.5970671 3
-1.4256644 0.46721056 1.5024096 10
-1.4390521 0.71674222 1.4140326 14
-1.3595359 0.887613 1.519802 16
-1.3752542 1.0474221 1.4089221 18
-1.3811212 1.22542 1.4523284 20
-1.2643768 1.4375736 1.5939336 23
-1.2988675 0.085847884 1.7501172 3.5
-1.2900096 0.26517236 1.7741351 6.5
4.1800032 0.33270317 1.7697893 5
4.3778214 0.38067272 1.6641477 5
-1.3066716 0.5588339 1.6925952 10.5
-1.3052671 0.72095358 1.7318527 12.5
4.2989683 0.78981638 1.713971 8
4.4150987 0.77915531 1.6157283 8
-1.3053648 0.93673146 1.741152 16
4.4171815 0.98675823 1.6087396 9
-1.3132071 1.115085 1.6603971 18.5
4.1152158 1.163234 1.7736642 11
4.3264008 1.0693016 1.6572487 9.75
-1.2851434 1.2922527 1.6358919 21
4.3036861 1.3529027 1.6876334 12
4.2258506 1.5499694 1.6915044 13
4.222939 1.7177563 1.699898 14
4.159658 1.8885841 1.7031317 15.5
3.8873186 2.1419954 1.7957349 18
4.1660643 2.0667822 1.7211319 17
3.9484797 2.3004162 1.626684 19
4.0881162 2.2478433 1.6641484 18
-1.2460281 0.16141419 1.9726828 5
-1.2499142 0.29596525 1.966175 6.5
2.8582945 0.38923308 1.9874973 6
-1.2559201 0.49019727 1.9318465 9
2.8676322 0.5469048 1.9882805 7.5
3.1836312 0.47630802 1.9063926 7
-1.2835282 0.71107918 1.8466729 12.333333
2.8701067 0.67816013 1.984338 9
3.1572342 0.7893846 1.8829882 9
3.248271 0.69340932 1.8644898 8
-1.1868305 0.88980752 1.9736233 15
2.8521321 0.92824537 1.9747792 11
3.2123177 0.89105898 1.8846385 10
-1.2089247 1.0712043 1.8801639 17
-1.1827652 1.169471 1.9274464 18
2.7829723 1.0835171 1.9709613 13
3.1777215 1.0545 1.8789819 12
3.9269228 1.1210175 1.8721439 10.5
-1.2038512 1.3341781 1.8079674 21
-1.1843532 1.2646315 1.890233 19.5
2.7509618 1.2814513 1.994643 14
3.031626 1.3734082 1.946947 14
3.861501 1.3610556 1.8903646 12.5
3.0197649 1.5050813 1.9519728 15.5
3.73506 1.5970639 1.9632562 14
3.7487485 1.7202456 1.9241091 15
3.6446896 1.8184429 1.9709306 16
3.6337378 2.0888004 1.9636611 17.5
3.7114568 2.308908 1.84302 19.5
-1.2440437 0.148644 2.000237 4
2.8510716 0.08389926 2.1678755 2
4.1877317 0.11001021 2.0015466 2
-1.1886812 0.37233034 2.0637331 7
2.5063529 0.31915054 2.1980135 6
2.7464089 0.32443985 2.07075 5
4.1653352 0.24515024 2.0107491 3
-1.1423658 0.59903264 2.153084 10
-1.1469741 0.67552614 2.1080382 11.5
-1.1299317 0.87541085 2.1087675 13.5
2.6411197 1.2947768 2.0287719 15
2.3782852 1.4743012 2.1695828 17
2.5584726 1.4767408 2.0391734 16.5
2.0773749 1.9353949 2.1908026 21.5
2.7338972 0.0054590479 2.2452383 1
1.6106113 0.3880721 2.3226728 7
1.9358426 0.21007705 2.2595017 5
-1.0915492 0.4545486 2.2556105 8.5
1.5944171 0.47840655 2.3172061 8
1.6087666 0.55015457 2.3156602 9
2.0665507 0.57315099 2.347317 8
2.4880242 0.51177615 2.2097745 7
1.9830511 0.65195769 2.356487 9.5
1.780641 0.825665 2.3906517 11
1.9919332 0.80098569 2.3637934 11
1.8817701 1.4597921 2.3763664 17.5
2.1349533 1.4306356 2.2919872 17
2.1368351 1.6931696 2.2201607 19
1.6760981 1.8757894 2.384326 21.5
2.061312 1.8518937 2.2214875 20
1.6319489 2.0827034 2.3466151 23
1.8989296 0.1076881 2.4013624 2.5
2.1563408 0.059080537 2.4478722 2
2.3675029 0.010869168 2.4132838 1
1.7777137 0.94081831 2.4188092 12.5
1.7711847 1.0621719 2.4111669 14
1.8345536 1.2737715 2.4486861 15.5
1.6287777 1.7379553 2.5163338 19.5
-1.2111305 1.9682283 2.5629854 22.5
1.6594679 1.3571219 2.6478045 16
-1.1395516 1.4330058 2.797848 17
1.628377 1.5584829 2.6189578 18
-1.2080444 1.7175019 2.6471825 20
-1.2059268 1.8148215 2.6455846 21
-1.1278594 1.932139 2.7177057 22
1.7166872 0.53555822 2.9087112 7.5
-1.1292475 1.1819434 2.9315138 14
-1.1361682 1.3073885 2.8815444 15.5
-1.0984498 1.5103555 2.8865054 17.5
-1.1199324 1.6478335 2.842284 19
-1.0562142 1.9261539 2.8566287 20.5
-0.99637711 1.9028661 2.9507418 20.5
-1.0204469 2.0779576 2.8600588 22.5
-1.0465523 0.70825267 3.1867888 9
-1.1173744 0.946392 3.0193586 12
-1.080073 1.1055653 3.0806453 13
-0.93875408 1.2872672 3.1825261 15
-0.92377502 1.4188154 3.1943223 16
-0.98496491 1.7180811 3.0384965 18.5
-0.93499213 0.64967233 3.3213186 8.5
-0.95104754 0.87616014 3.2675607 10.5
-0.88562 1.1345044 3.332381 13
-0.9300679 1.2128288 3.2555051 14
-0.91388857 0.22580022 3.409265 4
-0.92145002 0.43284726 3.4097571 6
1.8487735 1.1075937 3.5181804 11
1.8387439 1.2375691 3.5189445 12
1.8550164 1.5036758 3.5104802 14
1.8384402 1.6299632 3.5026455 15
0.86278683 2.3441329 3.9963717 20
0.91895986 2.2787843 4.13028 18.5
