# .PCD v0.7 - Point Cloud Data file format
VERSION 0.7
FIELDS x y z intensity
SIZE 4 4 4 4
TYPE F F F F
COUNT 1 1 1 1
WIDTH 1201
HEIGHT 1
VIEWPOINT 0 0 0 1 0 0 0
POINTS 1201
DATA ascii
-2.6611583 2.4602969 -4.6718841 16.011999
-2.45681 2.4391651 -4.1147909 18.012501
-2.4787898 2.122606 -3.7592506 17.0135
10.007895 2.0324848 -2.6308715 9.1140003
10.511501 2.0242732 -2.4846919 8.1134996
9.1881065 2.1218119 -2.41538 10.114
13.54098 1.8446065 -2.3323543 7
10.001495 2.0284328 -2.3925691 9.1134996
11.558645 1.9313477 -2.2501297 8.1125002
10.341552 2.0514197 -2.2369826 9.1129999
7.1527228 2.2468343 -2.1904869 12.115
11.785628 1.9038646 -2.024025 8.1120005
10.462886 2.023484 -2.0260141 9.1125002
6.3147955 1.7802875 -1.802623 11.1145
0.62114763 1.3340935 -1.7639908 23.136499
10.417233 2.0070634 -1.7779353 9.1120005
8.3058081 2.1412425 -1.7886385 10.613
5.6245971 2.2629061 -1.7327309 14.115
5.13169 2.3003242 -1.7085714 16.115499
5.3660035 2.3006186 -1.7794527 15.1155
0.69102937 1.2599626 -1.6230618 23.135
6.3130703 1.7316962 -1.6453931 11.114
11.118562 1.9700248 -1.6312759 8.1114998
8.4380589 2.1062841 -1.6391892 10.1125
5.4062905 2.277492 -1.669826 15.115
6.8235736 2.2523289 -1.6350482 13.1135
0.76819128 1.0525365 -1.5600358 20.133751
0.72796899 1.1541891 -1.5997616 22.134501
0.73525834 1.2409256 -1.578874 22.884251
10.464962 2.0258098 -1.5476236 9.1114998
5.1111145 2.2755129 -1.5765171 16.115
5.47542 2.2658923 -1.558838 15.1145
5.6186476 2.2257924 -1.5952185 14.1145
4.4487572 2.3122513 -1.5889472 17.115999
-1.9801936 0.48243952 -1.4027542 9.0220003
0.79438049 0.96099013 -1.4027956 20.1325
0.80186212 1.1426067 -1.4463226 22.465998
0.78508419 1.2240256 -1.4708079 23.132999
13.893304 1.7983391 -1.4843601 7
11.084147 1.9944508 -1.4116323 8.1110001
8.6157627 2.147594 -1.4701943 10.112
5.1490922 2.2916369 -1.4634795 16.1145
5.523088 2.241483 -1.4405725 15.114
5.8521495 2.2390387 -1.4039572 14.1135
6.6786976 2.2468734 -1.4439728 13.113
4.0013604 2.3423345 -1.4210043 19.115999
4.1152024 2.3186696 -1.4684184 18.115999
4.6659575 2.3268981 -1.4288932 17.115
3.4720473 2.4590182 -1.4012474 22.117001
3.7990899 2.4413199 -1.4447426 20.116501
-1.9105628 0.39629945 -1.3577174 8.0220003
-1.9344273 0.61504781 -1.3452655 11.02225
2.9948661 0.61283052 -1.3659977 8.118
0.79734504 0.91208845 -1.3413298 20.132
5.1495123 2.2640619 -1.3412079 16.114
5.6374917 2.2488585 -1.3374808 15.1135
4.0954471 2.3532505 -1.3562979 19.115499
4.1679549 2.3172939 -1.3835101 18.115499
4.7233052 2.3144388 -1.3488863 17.1145
3.4388762 2.4626317 -1.3136942 22.116501
3.5906675 2.4687619 -1.3232813 21.116249
-1.9573582 0.2983408 -1.217468 7
-1.9785441 0.37216467 -1.213069 8
-1.9518455 0.47996101 -1.2671765 9
-1.9611216 0.54707062 -1.2305735 10
-1.9357044 0.64517391 -1.2269664 11.5
-1.8966274 0.71377826 -1.2850503 12.0225
-1.9097726 0.88021487 -1.2138551 15
0.80273521 0.84623021 -1.2263343 20.131001
2.8275163 1.5136471 -1.2972394 17.118
2.5128505 2.0474069 -1.2097013 23.1185
10.334446 2.0037718 -1.2942922 9.1110001
8.6353092 2.116677 -1.277136 10.1115
4.183147 2.2924945 -1.2859081 18.115
5.1493797 2.251847 -1.2197784 16.113501
5.7132773 2.2364788 -1.2221081 14.113
6.5410919 2.2372971 -1.2625657 13.1125
4.0268769 2.3540854 -1.2418687 19.115
3.1947427 2.4834681 -1.2952951 23.117001
3.5197737 2.4704735 -1.2558486 22.115999
3.6587756 2.4401882 -1.2198608 21.115499
-1.9757195 0.092027381 -1.164343 4
-1.9864688 0.2387643 -1.1552039 5.5
2.0694983 0.40018234 -1.1124278 8.1195002
0.74995208 0.63807577 -1.1445911 17.131001
-1.9189055 0.74729347 -1.1865602 13.01175
-1.9148799 0.85439581 -1.1794403 14.0235
0.80771649 0.86394352 -1.1187273 21.129999
-1.8872201 0.95146114 -1.1596743 16.0235
-1.881763 1.0124273 -1.1759304 16.511749
-1.848029 1.2512087 -1.1946712 19.023001
-1.8150434 1.3022153 -1.116735 20.0235
10.660408 1.9241858 -1.1008826 8.1105003
8.7911215 2.1262426 -1.1157942 10.111
4.2114944 2.2801781 -1.1927181 18.1145
5.4034123 2.2854614 -1.170821 15.113
5.8284678 2.2450943 -1.1216295 14.1125
3.9911571 2.3767388 -1.1343174 20.1145
4.1344895 2.3157184 -1.178694 19.1145
4.9431887 2.3262565 -1.1776781 17.113501
3.4787211 2.4684105 -1.1563163 22.115499
3.7533832 2.4288483 -1.1139607 21.11475
1.8194345 0.28573829 -1.086612 7
-1.9371533 0.35789129 -1.0499297 8.0247498
1.6711216 0.35689321 -1.0939837 8.1215
1.78422 0.37712899 -1.0896437 8
1.8281839 0.31380224 -1.0872246 7.5
-1.9552881 0.49351579 -1.0325029 10.025
1.5730178 0.44491661 -1.0818578 10.122
1.7965589 0.46196067 -1.086887 9.5
1.8189864 0.46031067 -1.0851468 9.333333
-1.978947 0.53940475 -1.055705 10
0.72815531 0.59447545 -1.009992 17.129999
-1.9756871 0.63770247 -1.0644956 11.5125
1.552829 0.65105855 -1.0629747 13.122
0.78303176 0.77587593 -1.082455 20.129999
1.6272097 0.74224555 -1.0610369 14.1215
1.4584783 0.89040744 -1.0452747 18.122499
-1.9151688 0.95597684 -1.0234522 16
1.5373265 0.98829293 -1.0525485 18.122
1.6917861 0.95863748 -1.0318594 17
1.7467462 0.93517548 -1.03558 16.620501
1.371787 1.0960023 -1.0294513 21.122999
1.6562638 1.0392618 -1.0209525 18.560501
-1.8541999 1.1653085 -1.0804321 19.024
1.4500635 1.1472776 -1.0150542 21.62225
-1.851794 1.2437645 -1.0856355 20.024
-1.8389724 1.3291903 -1.0448962 21.02425
-1.7577015 1.4609795 -1.0775685 23.0235
10.346104 2.0010314 -1.0628449 9.1105003
5.4871974 2.2741599 -1.0527633 15.1125
6.1347399 2.2532306 -1.0361948 14.112
6.4319081 2.2367468 -1.0936798 13.112
3.9443557 2.3850811 -1.0268025 20.114
4.1758704 2.302465 -1.0836436 19.114
4.231173 2.3128366 -1.0123891 18.113501
3.0773606 2.4218132 -1.0857104 23.115999
3.3699841 2.4339082 -1.0321313 22.115
-1.9371921 0.10531115 -0.9282968 4
-1.9495664 0.24790059 -0.97202349 6.083333
0.72786498 0.36935753 -0.94214356 12.62925
-1.925464 0.46012911 -0.9099499 9.526
0.73020494 0.48009884 -0.96581042 15.1295
0.74855989 0.54902762 -0.93228054 16.7955
-1.9285547 0.64206994 -0.947294 11.763
0.75053549 0.63349962 -0.93536657 18.462166
-1.9174818 0.74523067 -0.91089016 13.026
0.76719439 0.71684462 -0.97532606 20.129
-1.9272001 0.8773827 -0.92751586 15.263
-1.9055049 1.0855851 -0.94944072 18.012749
1.5598202 1.1878639 -0.99696231 21.12125
-1.8587949 1.2679862 -0.93712938 20.200001
-1.8450685 1.3696034 -0.94748563 21.525249
1.4847267 1.3125528 -0.97084749 23.1215
8.8171501 2.0983973 -0.92092294 10.1105
7.8504229 2.1694393 -0.97869486 11.111
4.3879943 2.2841849 -0.93913126 18.113001
5.0710993 2.2966247 -0.972978 16.112499
5.5533237 2.2618978 -0.93791002 15.112
6.3844876 2.2521424 -0.95042694 13.1115
4.810708 2.3165312 -0.91774309 17.112499
3.7696998 2.4385815 -0.97836494 21.114
3.8107786 2.4193237 -0.90559673 21.113501
3.917613 2.4099271 -0.92738843 20.113501
0.77311587 0.19404072 -0.81834096 8.1269999
0.7399407 0.27481467 -0.82135761 10.1275
0.92235219 0.26829788 -0.81918794 9.125
0.74643123 0.336501 -0.84959996 11.9278
0.74781799 0.43415713 -0.82797092 14.794167
-1.9086204 0.59464455 -0.8612259 11
0.76787627 0.53367263 -0.81406748 17.127001
-1.9114629 0.67218 -0.87541813 12.5
0.75816816 0.6181072 -0.80503047 19.127001
-1.9094115 0.7186777 -0.84795547 13.0265
-1.9160018 0.8132875 -0.85724908 14.0265
-1.8915465 0.99455643 -0.84612036 17.026501
-1.8903236 1.1120462 -0.84023774 19.026501
-1.8574741 1.2468629 -0.83067989 20.026501
-1.8304433 1.3588798 -0.81694937 21.526501
10.315584 1.991896 -0.86149931 9.1099997
10.899185 1.9273521 -0.88199997 8.1099997
7.7146583 2.1728108 -0.80092835 11.1105
4.2809782 2.2872162 -0.81797647 18.112499
5.1272793 2.2798762 -0.87478411 16.112
5.6191854 2.2561364 -0.83920133 15.1115
5.9587536 2.2195771 -0.87434173 14.1115
4.7478533 2.3242512 -0.81220347 17.112
3.9013724 2.4386301 -0.83894014 20.113001
0.77562946 0.38097727 -0.76989406 13.62625
0.78767389 0.47013995 -0.78163928 15.626249
0.85380352 0.41522953 -0.79418695 14.1255
0.76493818 0.51774436 -0.77374744 17.126499
0.77043092 0.64229774 -0.78421104 20.126499
-1.8924094 0.74597734 -0.78875989 14
-1.8876069 0.8635807 -0.75847328 15.5135
-1.886101 1.0690143 -0.7703824 18.02725
-1.8647166 1.1309601 -0.73674929 19.0275
-1.8509641 1.2699184 -0.72734267 21.0275
-1.8332708 1.3478042 -0.72357506 22.0275
-1.8229195 1.4048558 -0.71561337 23.0275
8.9056664 2.1001105 -0.73097181 10.11
4.4615254 2.2732534 -0.76367444 18.112
5.236701 2.2904289 -0.77451783 16.1115
5.6982388 2.244792 -0.72186327 15.111
6.11409 2.2424479 -0.7589215 14.111
3.9799497 2.3712301 -0.76022512 20.112499
3.3414032 2.4769065 -0.78990108 23.113501
3.6648078 2.4501119 -0.7500605 21.612751
-1.9713057 0.011371601 -0.69396001 3
-1.9531538 0.20755987 -0.65795219 5.7272725
-1.9460529 0.36621198 -0.67243183 8.0142498
-1.9283158 0.62373036 -0.61336219 12.214286
-1.9163909 0.77363837 -0.61042112 14.029
-1.9107885 0.8069818 -0.61329371 15.029
-1.8461488 1.2962 -0.60387713 21.5
-1.8309262 1.3599715 -0.66476494 22.333334
10.296963 1.9853185 -0.62991476 9.1094999
7.5667987 2.197053 -0.61644214 12.11
5.1550875 2.2117677 -0.64661664 16.111
6.1295919 2.2212491 -0.6229142 14.1105
3.2048786 2.3761356 -0.61719459 23.112499
3.9579475 2.382 -0.66600925 20.112
4.6407943 2.3226645 -0.68792439 18.1115
3.8159845 2.4641085 -0.6446718 21.112
-1.950382 0.35490128 -0.57529169 8.0295
-1.957065 0.50799876 -0.51258355 10
-1.8742957 0.93980265 -0.57040447 17.064625
-1.8442054 1.0558739 -0.58259213 18.764626
-1.8370599 1.1385515 -0.5383873 20.196251
-1.8015603 1.3596015 -0.53441304 23.029499
-1.8154685 1.4023222 -0.58297479 23.028999
8.9215155 2.078902 -0.53340673 10.1095
5.3633981 2.2686253 -0.5517832 16.1105
5.734302 2.2276936 -0.59715939 15.1105
6.1886668 2.2221696 -0.51009834 14.11
4.0678058 2.3518467 -0.55376852 19.86125
4.5922742 2.322351 -0.56862777 18.111
3.3821099 2.4282525 -0.57835686 23.112
3.7880571 2.4223595 -0.55827153 21.1115
-1.9608582 0.087821528 -0.47190434 4
-1.9368308 0.40861028 -0.45788494 9.0307503
-1.9273379 0.55823207 -0.43661064 11.531
-1.9193736 0.67121011 -0.4347904 13.031
-1.8418399 1.066992 -0.45985773 19.2805
-1.8029085 1.2752073 -0.43027475 22.03075
-1.8144535 1.3441312 -0.47304612 23.030251
11.251061 1.8938926 -0.44572338 8.1090002
4.390821 2.2986865 -0.45926085 18.1105
4.584847 2.2612493 -0.47294787 17.1105
5.1976037 2.2197835 -0.42711115 16.110001
5.4308486 2.2674429 -0.43736544 15.11
3.3268001 2.3922842 -0.4893823 23.1115
4.0975585 2.3633461 -0.4181354 20.1105
4.146286 2.3241701 -0.42271295 19.1105
3.2756715 2.405833 -0.40586001 23.111
3.6661205 2.441787 -0.45281777 22.111
3.8753014 2.4192834 -0.44259727 21.11075
5.1799212 2.4010336 -0.41955629 17.110001
-1.8971283 0.061881684 -0.30245721 3
-1.933689 0.38389638 -0.39537758 9.0314999
-1.9242353 0.54433799 -0.38772741 11.5315
-1.9152704 0.67015475 -0.38580403 13.0315
-1.8931837 0.77621067 -0.38526818 15.0315
-1.8658438 0.82916301 -0.34235379 16
-1.8467244 1.0330334 -0.3531101 19.03175
-1.8065885 1.1347358 -0.36650804 20.0315
-1.8120526 1.2222046 -0.32649672 22.032
-1.7842364 1.324074 -0.36299407 23.0315
10.302279 1.9840397 -0.38435808 9.1090002
9.033803 2.0874414 -0.33934152 10.109
8.2357426 2.1494319 -0.32651234 11.109
4.5241642 2.2837436 -0.37382457 18.110001
5.4958992 2.2658587 -0.3202289 15.1095
6.260251 2.2165318 -0.36627439 14.1095
4.3172679 2.3149869 -0.34776816 19.110001
3.6539161 2.4722488 -0.37500492 22.1105
3.9277651 2.4003925 -0.31959113 20.110001
-1.9023138 0.30667394 -0.21226653 8.0334997
-1.9011009 0.44583058 -0.21520591 10.0335
-1.8962017 0.51396286 -0.23601231 11.03325
-1.9069942 0.60657418 -0.2178902 12.0335
-1.8435471 1.0428531 -0.27115637 18.766251
-1.8144982 1.1574712 -0.24644081 21.033001
-1.7831013 1.3468283 -0.25904274 23.032749
11.508537 1.8801836 -0.20070876 8.1084995
13.310966 1.8100488 -0.23726787 7
6.3222308 2.1978793 -0.24637584 13.109
4.512495 2.2528467 -0.26480231 18.109501
4.7084484 2.2767038 -0.26736429 17.109501
6.2828474 2.2059813 -0.23768155 14.109
3.9585607 2.3822765 -0.23359427 20.109501
4.2288146 2.3194513 -0.25282663 19.109501
3.5617111 2.4459207 -0.28568482 22.110001
3.6019089 2.4256217 -0.21364261 22.109501
-1.8814504 0.16700265 -0.17522281 5.0500002
-1.8667613 0.29841712 -0.12517604 8.0345001
-1.8565083 0.3122015 -0.16811176 8.0340004
-1.8826557 0.48553503 -0.13176258 10.5345
-1.8844199 0.56982696 -0.1614064 11.784125
-1.9027016 0.60943383 -0.19693384 12.428572
-1.8810291 0.66068393 -0.1425024 13.701
-1.8680179 0.7865032 -0.12978868 15.5345
-1.8710178 0.92977732 -0.13381732 17.406139
-1.8302777 1.0608683 -0.16630207 20.034
-1.8255968 1.1450093 -0.14613788 20.53425
-1.8160485 1.2012715 -0.12615128 22.0345
-1.7584994 1.3082795 -0.15941267 23.034
10.278887 1.9785584 -0.15490822 9.1084995
9.1190042 2.0832667 -0.14019094 10.1085
5.0906634 2.1697798 -0.19145325 16.108999
7.90347 2.1350641 -0.11203606 11.1085
4.7313056 2.2677343 -0.1782373 17.108999
5.5222135 2.2495387 -0.19908366 15.109
4.0225883 2.3885 -0.15411897 20.108999
4.1573257 2.3281581 -0.15585214 19.108999
3.6605313 2.429534 -0.13600907 22.108999
-1.8552231 0.34998974 -0.040461645 8.6904163
-1.8622024 0.4667888 -0.06718687 10.53525
-1.8676929 0.55361146 -0.031270567 12.035687
-1.8734772 0.77842176 -0.088148549 15.535
-1.8418505 0.87933725 -0.086812608 17.035
-1.856958 0.9439472 -0.0475072 18.0355
-1.8247455 1.0714061 -0.05524702 20.0175
-1.8003739 1.2117864 -0.063108616 22.03525
-1.7861673 1.2222874 -0.007013571 22.035999
5.2065077 2.2163482 -0.080306344 16.1085
5.543119 2.2419524 -0.094448738 15.1085
6.337049 2.2068846 -0.098867081 13.1085
4.0428324 2.3698735 -0.058444895 20.1085
4.1459045 2.3370395 -0.063117169 19.1085
5.1153808 2.3645537 -0.080878027 17.1085
3.4471321 2.4741757 -0.057180967 23.1085
-1.8246769 0.493231 0.030530592 11.0365
-1.8238347 0.67322338 0.048899408 13.76825
-1.8938712 0.76220268 0.035530992 15.0365
-1.8625987 0.82164782 0.034120534 16.036501
-1.8280569 0.9636479 0.075953707 18.037001
-1.812023 1.0863206 0.05560074 20.036751
-1.7765119 1.2369936 0.052542672 22.036751
11.742474 1.870643 0.055431314 8.1079998
10.292353 1.9890049 0.040920191 9.1079998
6.0324688 2.1813073 0.044925973 14.108
6.2850432 2.1944222 0.031631246 13.108
7.7838445 2.167434 0.050531942 11.108
4.2479939 2.279237 0.039421175 18.702667
4.8543649 2.2828386 0.040852036 17.108
5.2154245 2.2197835 0.035273954 16.108
5.6130295 2.2492466 0.028744468 15.108
-1.7400436 0.080852129 0.14128351 4
-1.7620229 0.19904339 0.15389603 6
-1.7588404 0.26493159 0.117917 7.5
-1.7565458 0.30782127 0.18922906 8.0384998
-1.7695967 0.45051473 0.12949106 10.768875
-1.8004346 0.56302232 0.11830235 12
-1.7882168 0.58209252 0.19584718 13.01925
-1.8145103 0.63931543 0.12498215 13.352209
-1.7802304 0.68714005 0.19351323 14.0385
-1.7997226 0.89775062 0.19381385 17.0385
-1.7999738 0.96125185 0.1544718 18.538
-1.7986593 1.093865 0.11005295 20.0375
-1.7876586 1.1153871 0.19275281 21.0385
-1.7296919 1.2781954 0.16873911 23.03825
6.1463356 2.1954904 0.16294818 14.1075
4.9186168 2.2901943 0.13518228 17.1075
5.6466336 2.2482357 0.16305117 15.1075
6.7975559 2.2129791 0.17908321 13.1075
4.1697583 2.3090248 0.15849815 19
5.316958 2.3199012 0.14730825 16.1075
3.9323008 2.4153953 0.19248605 20.5
-1.6906722 0.10122565 0.26644668 4
-1.7482319 0.39125767 0.22531593 10
-1.6075915 0.30389768 0.28328013 8.04
-1.77881 0.59083104 0.23278785 13.039
-1.7803551 0.69462454 0.21615815 14.0195
-1.8059735 0.74676931 0.25165302 15.539249
-1.8022094 0.87917405 0.21983227 17.201317
-1.796223 0.99460524 0.23367763 19.039
-1.7940263 1.0033767 0.27427974 19.039499
-1.7540096 1.1211163 0.24886236 21.039249
-1.720812 1.2408793 0.24467833 23.039249
9.0883512 2.0404611 0.24908726 10.1075
9.4876413 2.0131233 0.25223157 9.1075001
7.631671 2.1900439 0.21946004 12.1075
4.9284191 2.273793 0.2452755 17.107
5.2499366 2.2365787 0.26033252 16.107
5.6307979 2.2288046 0.2697545 15.107
3.9432681 2.4428484 0.24544877 20.803249
-1.5270607 0.54561883 0.30077681 13.0405
-1.6126668 0.60422736 0.31878927 14.0405
-1.7787131 0.73649597 0.35111102 15.040501
-1.6896056 0.70233589 0.33343667 15.0405
-1.7730551 0.85670882 0.35055327 16.540501
-1.7799197 0.92516547 0.39098343 18.041
-1.7765119 1.0108621 0.33149141 19.040251
-1.7196239 1.1860672 0.37773919 22.041
-1.7179612 1.237482 0.32666472 22.707001
6.2207212 2.1965201 0.31339219 14.107
4.342823 2.2568841 0.35771412 18.106251
5.290894 2.2564278 0.38015679 16.106501
6.6413398 2.2104273 0.33284056 13.107
4.1442609 2.3208342 0.38907132 19.106001
4.9719725 2.30512 0.3476446 17.106501
3.8505595 2.4660146 0.36430988 21.106001
-1.7010939 0.28286275 0.43374038 8.04175
-1.6716492 0.27701724 0.48808825 8.0424995
-1.7003567 0.36126941 0.4950766 9.0424995
-1.6896968 0.34719151 0.45528471 8.7709999
-1.7150478 0.43471029 0.47603798 10.54225
-1.7407217 0.63663977 0.43682507 13.708333
-1.7483205 0.72277874 0.46382275 15.042
-1.7474444 0.88789076 0.46334139 17.042
-1.7560836 0.93167222 0.42712027 18.0415
-1.710726 1.1684542 0.44974092 21.854084
9.1365118 1.7900305 0.4721925 9.1070004
9.1949987 2.0505264 0.45619366 10.107
6.4227781 2.175303 0.46112925 13.1065
4.1352687 2.2965002 0.48127189 19.105499
4.8932247 2.2781405 0.45234156 17.106001
5.2931991 2.26139 0.49856934 16.106001
5.6607461 2.2286656 0.41510943 15.1065
3.9471874 2.3868186 0.46026447 20.105499
-1.6372268 0.0760106 0.58749074 4
-1.4538791 0.39500397 0.53017581 11.044
-1.695739 0.44816339 0.5026319 10.5
-1.7144089 0.67096323 0.57693428 14
-1.5585895 0.6402759 0.55344164 14.377167
-1.7327611 0.71476269 0.52561957 15.042749
-1.610649 0.73898655 0.50742429 16.042999
-1.5457991 0.73393732 0.52221721 16.043501
-1.73971 0.8845067 0.54780716 17.042999
-1.7009029 0.98475015 0.59923536 18.785715
-1.6769078 1.2477579 0.54775178 22.543251
7.1503811 2.1735377 0.52485073 12.1065
4.1452184 2.2917325 0.57616615 19.105
4.877398 2.2444723 0.56049502 17.105499
5.6791883 2.2241135 0.52509868 15.106
3.9406126 2.3640437 0.53542715 20.105
-1.6555328 0.19609234 0.61215746 6
-1.6845288 0.67843103 0.69408405 14.045
-1.5753975 0.67188525 0.6298064 15.04475
-1.5502483 0.73916733 0.60267419 16.0445
-1.6850924 0.83893782 0.69412309 17.045
-1.7130308 0.95250678 0.64301747 18.04425
-1.6867765 0.9384107 0.69992125 18.045
-1.6742532 1.0884848 0.6490705 20.0445
-1.686843 1.1223127 0.61530793 21.044001
-1.6348846 1.2788707 0.63244635 23.0445
6.4631805 2.1759517 0.60858923 13.106
6.8814602 2.1898985 0.63873267 12.106
4.1514235 2.2854512 0.66472083 19.1045
4.3813419 2.2390227 0.60703349 18.105
4.9772515 2.272316 0.68432885 16.105
5.6713643 2.2160804 0.65144724 15.1055
3.9827397 2.361511 0.67648947 20.10425
3.4089396 2.4275265 0.69918698 22.6035
-1.6474692 0.3371557 0.72004014 8.0454998
-1.6554859 0.44177777 0.73426116 10.689583
-1.6672029 0.59308207 0.75484526 13.04575
-1.6873517 0.67875487 0.73878282 14.0455
-1.6733214 0.72832674 0.76184416 14.712499
-1.7100701 0.83362252 0.70468682 16.045
-1.6862832 0.84783268 0.76291728 16.54575
-1.6766061 1.0104343 0.73358309 19.0455
-1.6343291 1.1331648 0.75758255 21.022999
-1.5984275 1.3041232 0.70205736 23.0455
6.4607921 2.1690798 0.75349885 13.1055
6.6997595 2.1333427 0.78352219 12.1055
4.1493764 2.2804432 0.75944275 19.104
4.3877506 2.2276359 0.75041002 18.10425
5.51371 2.2546172 0.74811107 15.105
3.1200902 2.3408699 0.77857322 23.102501
3.321861 2.4175773 0.75306296 23.103001
-1.6490498 0.36073041 0.81255949 8.5465002
-1.6564085 0.45399097 0.85879385 10.523375
-1.6438624 0.52703136 0.8087455 12.0465
-1.6616319 0.65020943 0.86127931 13.047
-1.6589516 0.77780592 0.82039034 15.0465
-1.6560415 0.84272373 0.81137514 16.546499
-1.6399746 0.96188241 0.84294242 18.046875
-1.6363776 1.0252028 0.80781043 19.046499
-1.6164862 1.1604037 0.81789857 21.046749
-1.5946032 1.1860501 0.87335187 21.047501
6.4614244 2.1577921 0.87857658 13.105
4.1564441 2.2814031 0.85672075 19.1035
4.2651901 2.2501605 0.87025434 18.1035
5.2419686 2.2676129 0.8399719 16.1045
5.458106 2.239609 0.86447108 15.1045
6.1503258 2.2103684 0.83852309 14.105
2.9863219 2.3170295 0.8897993 23.1015
3.9994929 2.3510797 0.82320261 20.1035
-1.6169143 0.20687124 0.96186662 6
-1.6398659 0.55301428 0.94043529 11.670809
-1.6363151 0.6337679 0.96851259 13.04825
-1.6182394 0.74356145 0.97980601 15.0485
-1.6177508 0.93991596 0.93242764 17.777779
-1.5901803 1.0774648 0.96299601 20.0485
-1.542235 1.2238338 0.96025026 22.04875
-1.4790746 1.3259966 0.98741102 23.0495
6.7988992 2.1288004 0.92702556 12.105
4.1349053 2.2707503 0.93483806 19.103001
4.2575579 2.2366042 0.97475511 18.103001
5.146472 2.254529 0.94225478 16.104
5.4614239 2.2491264 0.98981851 15.104
6.0534172 2.2150512 0.96227461 14.1045
3.0254052 2.3142762 0.97401065 23.101
-1.6055008 0.15122263 1.0430301 4.5
-1.5859773 0.8253845 1.057398 15.5495
-1.5689895 0.95449603 1.0710826 17.52475
-1.5079471 1.2577394 1.03132 22.049749
-1.4684057 1.3305318 1.0533345 23.050251
5.7192311 2.1999593 1.0457938 14.104
6.4788761 2.1540194 1.0348077 13.1045
6.7769184 2.1460133 1.0765908 12.1045
4.1189747 2.2623911 1.0350379 19.102501
4.269938 2.2360559 1.0635056 18.102501
4.4424238 2.2393618 1.0085495 17.103001
5.0920548 2.2735469 1.0495557 16.1035
3.9867628 2.3247464 1.0871091 19.101999
-1.5603273 0.066250294 1.1765627 3
-1.5785035 0.21180415 1.1409868 6
-1.5750533 0.47797292 1.1573187 10.0505
-1.574553 0.57402468 1.1328006 11.775249
-1.5585613 0.62560034 1.1371605 13.0505
-1.5665439 0.75829697 1.1503922 15.0505
-1.4995198 1.0863842 1.1512048 20.051001
-1.4906569 1.1099795 1.1593008 20.025749
-1.449209 1.2909671 1.1109241 23.051001
-1.4316084 1.3195688 1.153275 23.0515
4.0973883 2.2543368 1.1991899 18
4.2662921 2.2257876 1.1637963 18.101999
5.1646686 2.2526104 1.1708448 16.103001
5.4107847 2.2381446 1.1053276 15.1035
5.8561597 2.2185049 1.1988487 14.1035
6.4252348 2.2167442 1.178099 13.104
3.0731025 2.3440168 1.1420565 23.1
3.2113128 2.3690195 1.1906528 22.1
3.931272 2.3239326 1.1707939 19.550751
-1.5266254 0.49775651 1.2745845 10.052
-1.447479 1.1184599 1.2433711 20.05225
-1.4175497 1.3478788 1.2446153 22.719168
3.9362416 2.2968774 1.2628936 19.101
4.0920758 2.2505586 1.2794358 18
4.4423175 2.221385 1.2256312 17.101999
4.8935833 2.280762 1.220805 16.102501
5.3814311 2.2359483 1.215483 15.103
3.1277051 2.3753831 1.2764851 23.099251
3.8554657 2.3605843 1.2383555 20.101
3.9421759 2.3198566 1.215499 19.25
3.2800128 2.4110482 1.2992955 22.099501
-1.4999036 0.2225115 1.3908149 5.9285712
-1.5329078 0.38022125 1.3096564 8.776125
-1.4684162 0.31997848 1.3986504 8
-1.5154734 0.50476003 1.3265858 10.0525
-1.5132149 0.63207722 1.3283001 12.5525
-1.4197609 0.95558012 1.3899225 17.125
5.8195395 0.99829364 1.3218817 8.1029997
-1.3855302 1.0675051 1.3859836 19
-1.4118201 1.2794365 1.3420444 21.5
5.7677813 1.200161 1.3136897 9.1029997
5.5714045 1.3460984 1.3950458 10.1025
5.5665159 2.1476796 1.3988988 14.1025
5.7245064 2.1850591 1.3017969 14.103
3.9096935 2.2859626 1.3504887 19.1005
4.2838612 2.2178228 1.3831598 17.101
5.365788 2.2410731 1.3378806 15.1025
3.1246059 2.3716381 1.3982358 22.098499
3.2631717 2.3937337 1.364724 22.099001
3.7442765 2.382478 1.341098 20.10025
-1.4546248 0.61399794 1.4301823 11.944445
-1.4390521 0.71674222 1.4140326 14
-1.3868477 0.84164488 1.4483564 15.554501
-1.3844817 0.92525673 1.4453622 17.054501
-1.3631544 1.0610573 1.4403269 18.2775
5.6043282 1.0094961 1.4047199 8.1025
-1.3766131 1.2176619 1.4431518 20.02725
-1.3621839 1.3295836 1.4215839 21.888889
5.5993471 1.6962149 1.4080278 12.1025
5.3649821 1.7061795 1.4737624 12.102
5.4394336 2.042362 1.4794922 14.102
3.915077 2.2943661 1.4500707 19.1
4.0981183 2.2533877 1.4129381 18.1005
4.2813959 2.2234025 1.4834561 17.1005
4.9402318 2.2224946 1.4747663 16.1015
5.1573701 2.2601788 1.4186288 16.101999
5.3222127 2.2359483 1.4533237 15.102
2.8558311 2.3487289 1.4228612 23.0975
3.5653312 2.4148078 1.4910748 21.099001
3.6533809 2.4174352 1.4471483 21.099501
-1.4072547 0.072450235 1.5970671 3
-1.4256644 0.46721056 1.5024096 10
-1.359889 0.79866767 1.5541426 15.0555
4.5612569 0.76356286 1.5737998 8.1005001
-1.3487489 0.87594497 1.539969 15.777875
-1.3414435 1.0211471 1.5997459 17.056
4.4983945 1.065425 1.545743 10.1005
-1.3098577 1.2883487 1.5658108 21.056
-1.3073595 1.3473332 1.56062 22.056
-1.2798542 1.4393836 1.5696242 23.028
4.9679775 1.876537 1.5866179 14.101
3.907325 2.2965047 1.5463455 19.099501
4.0810456 2.2436922 1.502094 18.1
5.2128181 2.2048335 1.5486878 15.1015
2.8300323 2.3480639 1.5703133 23.0965
3.1460106 2.3826656 1.5663958 22.0975
3.4697659 2.4153545 1.5486962 21.098499
4.3778214 0.38067272 1.6641477 5
-1.3066716 0.5588339 1.6925952 10.5
4.412931 0.78219402 1.6268607 8
-1.3410794 0.97401643 1.6728793 16.556499
4.4241695 0.99277323 1.623265 9
-1.3282034 1.1263828 1.6302509 18.528
4.362659 1.1280819 1.6115583 10.5
-1.2851434 1.2922527 1.6358919 21
4.3036861 1.3529027 1.6876334 12
4.2258506 1.5499694 1.6915044 13
4.2501822 1.7262797 1.6978295 14.049749
4.2280946 1.8268811 1.6772765 15.0995
4.9793038 2.1184671 1.6005507 15.101
4.0881162 2.2478433 1.6641484 18
4.1011381 2.2561953 1.6139842 18.099501
3.1259465 2.3633027 1.6439277 22.097
3.2769029 2.3901801 1.6400319 21.0975
3.9484797 2.3004162 1.626684 19
3.3839793 2.4164453 1.6010617 21.098
-1.2988675 0.085847884 1.7501172 3.5
-1.3377784 0.19800945 1.7291852 5.3125
-1.2900096 0.26517236 1.7741351 6.5
4.1800032 0.33270317 1.7697893 5
4.2644715 0.5403415 1.7224928 6
-1.3203233 0.60690141 1.724739 11.057
-1.2942324 0.60287744 1.7786202 11.064465
-1.3104391 0.73542815 1.7244816 12.7785
4.2519751 0.78981876 1.7406533 8.0494995
-1.3156302 0.87412167 1.7100111 15.057
-1.3053648 0.93673146 1.741152 16
-1.2675475 0.98168778 1.7798873 16.333334
-1.2863289 1.0438356 1.7521464 17.057501
4.2516217 1.0335753 1.7221681 9.375
-1.2592402 1.183243 1.7609982 19.057751
4.1152158 1.163234 1.7736642 11
-1.2464603 1.26229 1.7373691 20.057751
-1.2498577 1.3339807 1.7093101 20.862083
4.1549206 1.3824352 1.7554058 12.142858
-1.24622 1.4561615 1.7003006 22.057501
4.0552568 1.7822291 1.7671729 14.8
4.159658 1.8885841 1.7031317 15.5
4.1660643 2.0667822 1.7211319 17
3.8873186 2.1419954 1.7957349 18
4.0528717 2.1446595 1.7280061 17.5
3.1774449 2.3978734 1.7621063 22.0965
3.8054111 2.3195519 1.7009987 19.098499
3.319546 0.38718957 1.871536 6
-1.2868221 0.59681004 1.8269004 11.058
3.2654533 0.6677655 1.8658915 8
-1.2817519 0.74959147 1.8371264 13.195666
3.1572342 0.7893846 1.8829882 9
3.2416065 0.77417845 1.8895211 9.0959997
3.3372195 0.76176012 1.8473898 9.0965004
4.1000981 0.72195172 1.8243294 8.0985003
-1.2669593 0.87901276 1.8075806 15.058
3.2123177 0.89105898 1.8846385 10
3.9183035 0.80094564 1.8438482 8.0979996
3.0936496 0.91956407 1.899779 11.0955
-1.2089247 1.0712043 1.8801639 17
3.1777215 1.0545 1.8789819 12
3.2415829 1.0267879 1.8860509 11.096
3.5839653 1.0819186 1.8994582 11.097
3.750428 1.048884 1.8814518 10.0975
3.9436326 1.1337075 1.8592515 10.5
-1.1881452 1.260752 1.8767633 19.5
-1.2038512 1.3341781 1.8079674 21
3.861501 1.3610556 1.8903646 12.5
3.886385 1.4357965 1.8860761 12.8
3.8765152 1.8450521 1.8581243 15.666667
3.7682312 2.2430871 1.8727546 19
3.8079364 2.2027025 1.8212186 18.333334
2.7966537 2.37852 1.8932196 23.0945
3.2789633 2.386641 1.8131161 21.0965
3.5638731 2.392081 1.872159 20.097
3.6546822 2.3747289 1.8132852 20
-1.2460281 0.16141419 1.9726828 5
-1.2499142 0.29596525 1.966175 6.5
4.2611351 0.24244697 1.9182787 3.2
2.8582945 0.38923308 1.9874973 6
-1.2559201 0.49019727 1.9318465 9
3.1836312 0.47630802 1.9063926 7
2.8676322 0.5469048 1.9882805 7.5
2.9937327 0.59237838 1.9472947 7.8333335
2.8701067 0.67816013 1.984338 9
-1.1910701 0.74192727 1.9861423 12.5
3.1100345 0.78418702 1.9131727 9.0955
-1.1868305 0.88980752 1.9736233 15
2.8987639 0.80636477 1.9519978 10.0945
3.0293691 0.8751092 1.9479034 10.095
-1.1918334 0.95875084 1.9457127 15.4
2.8521321 0.92824537 1.9747792 11
2.9619126 0.94799352 1.9545624 11.04725
3.0124402 0.98415375 1.9410514 11.095
3.2665503 0.90646827 1.9063845 10.096
2.7829723 1.0835171 1.9709613 13
2.8780439 1.0694851 1.9407283 12.0945
3.102663 1.0613533 1.9050355 12.0955
-1.1728942 1.1549156 1.9425628 17.779875
-1.1682873 1.270835 1.9286486 19.0595
2.7509618 1.2814513 1.994643 14
2.8222888 1.2623165 1.9912972 14.094
2.9039044 1.3151268 1.9579684 14.0945
3.031626 1.3734082 1.946947 14
3.1430237 1.3753181 1.9313929 14.0955
2.7942483 1.4097056 1.979154 15.094
2.9766965 1.4526023 1.9733185 15
3.0197649 1.5050813 1.9519728 15.5
3.73506 1.5970639 1.9632562 14
2.9177904 1.6314821 1.9815736 17
3.4036434 1.6117392 1.9828296 15.096
3.7487485 1.7202456 1.9241091 15
3.5600228 1.8505355 1.9781791 16.0965
3.6446896 1.8184429 1.9709306 16
3.6013837 1.990819 1.9921081 17.0965
3.6337378 2.0888004 1.9636611 17.5
3.5771825 2.1379499 1.9842511 18.0965
2.5973139 2.3398259 1.9198773 23.0935
2.7117839 2.3692079 1.9245009 23.094
3.3566296 2.4218538 1.9649383 21.096001
3.467109 2.4131405 1.92056 20.0965
-1.2440437 0.148644 2.000237 4
4.1877317 0.11001021 2.0015466 2
-1.2155635 0.29714561 2.0199509 6.5
4.1653352 0.24515024 2.0107491 3
-1.1931019 0.33996236 2.0586925 6.75
-0.88813955 0.35812789 2.0162506 8.0625
2.7464089 0.32443985 2.07075 5
2.8496356 0.38932461 2.0016165 6
-1.2112614 0.52851939 2.0058646 9.5
2.8184943 0.50677001 2.0298209 7.5
2.7916267 0.67762256 2.0094349 9
-1.2045176 0.84399152 2.0035462 14
-1.1644179 0.84489274 2.0594151 13.5
2.7659352 0.96551704 2.0048985 11.5
2.6411197 1.2947768 2.0287719 15
2.5495718 1.3665011 2.0836799 15.375
2.7193639 1.3993614 2.0036416 15
2.5584726 1.4767408 2.0391734 16.5
2.8308067 1.4847028 2.0004036 16.094
2.7697234 1.5569203 2.0495539 16.0935
2.6458173 1.6224583 2.0517697 17.093
2.7378662 1.6688968 2.0278637 17.0935
2.444356 1.7994679 2.0664694 19.091999
2.8313265 1.7736413 2.0059159 18.094
2.3710318 1.8060032 2.0986464 19.091499
2.4707313 1.8618212 2.0847325 20.091999
2.5594809 1.9494485 2.0655379 20.092501
3.1625791 1.9127954 2.0466497 18.094999
3.3088787 1.9936395 2.0389779 18.095501
3.4674489 2.0805576 2.0249493 18.096001
2.8339436 2.3930743 2.094666 22.0935
3.0563273 2.4313912 2.0593283 22.0945
3.1628337 2.4299655 2.0306821 21.094999
3.2763157 2.4321146 2.0024409 21.095501
2.8510716 0.08389926 2.1678755 2
2.8253436 0.13238521 2.1470747 3
2.5063529 0.31915054 2.1980135 6
-1.1317364 0.44111639 2.1707504 8.5609999
-1.1397436 0.5840407 2.1517684 10.020333
-1.1469741 0.67552614 2.1080382 11.5
2.5551994 0.62656033 2.1743255 8.4285717
-1.1258208 0.70925885 2.1681645 12.061
-1.1299317 0.87541085 2.1087675 13.5
2.5386002 0.96394044 2.1523573 11.666667
2.3782852 1.4743012 2.1695828 17
2.2346418 1.7318537 2.1545174 19.0905
2.3113143 1.7752084 2.1319542 19.091
2.0773749 1.9353949 2.1908026 21.5
2.1481962 1.9018184 2.1681504 21.09
2.1526875 2.0601666 2.1683838 22.09
1.9502583 2.1778097 2.1957173 23.088749
2.2986875 2.3281679 2.1257529 23.091
2.3843544 2.3518541 2.1104639 23.091499
2.5375786 2.3375235 2.1448443 23.091999
2.6332898 2.4002018 2.1291428 23.092501
2.7588294 2.4260569 2.131402 22.093
2.7338972 0.0054590479 2.2452383 1
2.5826707 0.1610675 2.2699661 3.2631578
1.9358426 0.21007705 2.2595017 5
-1.0915492 0.4545486 2.2556105 8.5
2.4880242 0.51177615 2.2097745 7
2.2366154 1.3352922 2.2576015 15.461538
2.1349533 1.4306356 2.2919872 17
2.1368351 1.6931696 2.2201607 19
2.1908772 1.7199737 2.2078421 19.09
-1.2831758 1.8018204 2.2224743 23.059999
2.0511718 1.8589754 2.2268879 20.416668
1.7549865 2.0870886 2.285753 22.666666
1.8539745 2.1491759 2.2260723 23.087999
-0.63565934 0.0096788555 2.3731651 2.5
2.2925341 0.14372589 2.3445055 3
1.8224348 0.21683966 2.3367698 4.6666665
1.6106113 0.3880721 2.3226728 7
1.5944171 0.47840655 2.3172061 8
1.6788301 0.49042255 2.3036003 8.0865002
-1.1018118 0.54871726 2.3651283 9.0620003
1.6087666 0.55015457 2.3156602 9
1.7394801 0.56617957 2.3215873 8.6690283
1.8675631 0.59983855 2.3491473 9.0874996
2.0665507 0.57315099 2.347317 8
1.9769986 0.64997351 2.3617496 9.5440006
2.2008264 0.66170949 2.3109484 9.125
1.8889959 0.77371931 2.3674102 11.0875
1.9652208 0.7874909 2.3542035 11.088
1.780641 0.825665 2.3906517 11
1.810418 0.81352955 2.369442 11.087
1.9919332 0.80098569 2.3637934 11
1.8448728 0.980977 2.3995442 12.75
2.0584643 0.96057856 2.3568137 12.0885
2.2259362 0.97431725 2.305258 12.1
2.0512998 1.0285294 2.3529105 13.0885
1.9270465 1.3968194 2.3932047 16.5
1.8817701 1.4597921 2.3763664 17.5
-1.2557805 1.6726809 2.3987181 21.061001
1.6760981 1.8757894 2.384326 21.5
1.8623005 1.8345034 2.3192515 20.666666
1.5829301 2.0678442 2.3890164 23.085501
1.6319489 2.0827034 2.3466151 23
2.1563408 0.059080537 2.4478722 2
2.3675029 0.010869168 2.4132838 1
1.8989296 0.1076881 2.4013624 2.5
1.9047978 0.14431851 2.4164419 3
2.1721044 0.11584662 2.4320188 2.5
1.6953238 0.9139083 2.4327025 12.086
1.7675811 0.93717486 2.4139276 12.54325
1.6899384 1.0711427 2.4289458 14.086
1.7690408 1.0681458 2.4212832 14.04325
1.8490701 1.0106357 2.4194624 13
1.7455826 1.184536 2.4480207 15.08625
1.8404388 1.2450805 2.4358697 15.2935
1.6471827 1.3932713 2.473871 17.085501
1.7165128 1.3593214 2.4728017 16.586
1.8019668 1.3304024 2.4748471 16.0865
1.7643628 1.4059128 2.4270833 17.0865
1.6602858 1.5467143 2.493932 18.085501
1.6647301 1.6868575 2.4595518 19.292751
1.6278646 1.7602508 2.4505136 20.085501
-1.2686328 1.9410012 2.4402394 23.061001
1.6042053 1.9402473 2.410037 22.085501
1.6845953 1.3262035 2.5436976 16.085501
1.7461504 1.4069688 2.5290389 16.545454
1.6287777 1.7379553 2.5163338 19.5
-1.2258062 1.9704585 2.5401638 22.78075
-1.2056847 2.006093 2.5681262 23
1.6851307 1.1729614 2.6675992 14.085
1.6594679 1.3571219 2.6478045 16
-1.193572 1.4894959 2.6919107 18.0625
-1.2102677 1.5389451 2.6973076 18.5
1.628377 1.5584829 2.6189578 18
-1.2242433 1.6943539 2.6173024 20.062
-1.2075672 1.7203214 2.6557615 20
-1.1911846 1.7324891 2.6896994 20.0625
-1.2059268 1.8148215 2.6455846 21
-1.1661463 1.8584988 2.6882608 21
-1.1515646 2.0332811 2.6180942 23.03125
-1.1555302 1.1054852 2.7908773 14.063
-1.1579797 1.2082665 2.7842922 15.063
-1.1489127 1.437927 2.7956996 17.0315
-1.1429331 1.5955687 2.7476869 19.063
-1.1278594 1.932139 2.7177057 22
-1.0966201 1.9357363 2.7968197 21.063499
-1.071408 2.1132972 2.7444022 23.063499
1.2825055 2.2619576 2.7749171 23.082001
1.6236206 2.3147852 2.7010415 23.084499
1.7192863 0.79728627 2.8448706 10.0845
1.6974075 0.97791386 2.8226371 12.0845
-1.1347196 1.2603837 2.8960068 15.0635
-1.1361682 1.3073885 2.8815444 15.5
-1.0984498 1.5103555 2.8865054 17.5
-1.1199324 1.6478335 2.842284 19
-1.1082419 1.8465335 2.8361802 20.063499
-1.0562142 1.9261539 2.8566287 20.5
-1.0135567 2.0710244 2.8681874 22.416668
-1.0348819 2.160656 2.8209341 23.063999
1.5558648 2.3423615 2.8622937 23.0835
1.6389025 2.3641393 2.8517249 23.084
1.7136941 0.56389439 2.9112158 7.75
-1.1416261 0.96125269 2.9255314 12.0635
-1.1292475 1.1819434 2.9315138 14
-1.0157168 1.7940762 2.9491329 19.700001
-0.99637711 1.9028661 2.9507418 20.5
0.79399502 2.2858586 2.9902058 23.077999
1.0682173 2.2648737 2.9644597 23.08
1.1385456 2.2924578 2.9529715 23.0805
1.2129006 2.3104374 2.9454362 23.080999
1.5115882 2.3652856 2.9227176 23.083
-1.1011919 0.80522263 3.0037503 10.064
-1.1173744 0.946392 3.0193586 12
-1.080073 1.1055653 3.0806453 13
-1.0431986 1.3725753 3.021342 15.692307
-0.98496491 1.7180811 3.0384965 18.5
-0.8296597 1.8594729 3.0930076 20.066
-0.47589871 2.2683718 3.0841899 23.068501
-0.27494004 2.2882941 3.0616419 23.07
0.56379926 2.2721281 3.024271 23.07625
-0.90903676 2.3171449 3.0833299 23.0655
-0.83464193 2.3058398 3.0823956 23.066
-0.76574534 2.3052659 3.099632 23.0665
0.95579565 2.3033903 3.0546038 23.079
1.026433 2.3102674 3.0421681 23.0795
1.3116415 2.3612738 3.0109699 23.081499
-1.0772473 0.61330944 3.1572106 8.0644999
-1.0461479 0.74607557 3.1709073 9.5770559
-1.0637274 0.93903261 3.115505 12.0645
-1.0483876 1.0788134 3.1015117 12.714286
-0.93875408 1.2872672 3.1825261 15
-0.92377502 1.4188154 3.1943223 16
1.8119661 1.4606891 3.1785688 15.084
1.8206936 1.5766045 3.1714098 16.084
-0.84655213 2.0008509 3.1234171 21.066
-0.70499623 2.2896023 3.1776979 23.066999
-0.55613238 2.2899101 3.1382852 23.068001
0.066960752 2.2865264 3.1321929 23.0725
0.33696327 2.2670362 3.139178 23.074499
0.44096139 2.2833896 3.137048 23.075251
0.9104777 2.2910471 3.1378973 23.078501
-0.42406967 2.3144457 3.1789229 23.069
0.20482533 2.3098557 3.1959596 23.0735
0.7574203 2.3091214 3.1176064 23.077499
-0.95104754 0.87616014 3.2675607 10.5
-0.94641244 0.96425968 3.2665265 11.333333
-0.9300679 1.2128288 3.2555051 14
-0.91154259 1.3460561 3.2377958 15
-0.88689852 1.448036 3.2796836 15.566
-0.79618639 1.79893 3.2270889 19.0665
-0.88317633 1.8122952 3.2634928 19.066
0.35681525 2.2734625 3.2800026 22.074499
-0.36205515 2.3683767 3.2642879 23.0695
-0.22709456 2.3340585 3.2812438 23.070499
-0.043788377 2.3125219 3.2474346 23.071751
0.13093592 2.305687 3.2463794 23.073
0.28380108 2.3420026 3.2899423 23.073999
-0.94772971 0.63977212 3.3127279 8.3214283
-0.88562 1.1345044 3.332381 13
1.842844 1.3305256 3.3779788 13.0835
0.29059628 2.2967255 3.366014 22.073999
-0.36913502 2.3204248 3.324712 22.0695
-0.2971271 2.354012 3.3541911 22.07
-0.15107796 2.363565 3.3287268 23.070999
-0.077087767 2.3191433 3.326704 22.071501
0.8015154 2.3242242 3.3030353 22.077499
1.7498201 2.3485744 3.3868668 21.083
1.8100926 2.3721843 3.3323505 21.0835
-0.90883636 0.22662312 3.4143691 4.25
-0.92145002 0.43284726 3.4097571 6
-0.85284501 0.78944445 3.4498458 10.0665
1.8142034 1.6256897 3.4832263 15
-0.70196295 2.3497801 3.4676888 22.067499
0.21078748 2.3262582 3.4685066 22.0735
0.64042681 2.3375139 3.4549935 22.07625
1.6856135 2.3910847 3.4386873 21.0825
1.8444678 1.1067026 3.5236044 11
1.8387439 1.2375691 3.5189445 12
1.8360175 1.3505816 3.5246255 13
1.8550164 1.5036758 3.5104802 14
1.8384402 1.6299632 3.5026455 15
-0.8899439 2.3852065 3.5693347 21.0665
-0.7912035 2.3581665 3.504792 22.066999
-0.558653 2.3636105 3.5524902 22.068501
1.6574967 2.3661292 3.5932386 20.082001
-0.64104563 2.3800242 3.6083727 21.068001
-0.01023066 2.3484607 3.6474965 21.072001
0.7138142 2.3873379 3.6166103 21.0765
0.80493003 2.3895872 3.6794493 21.077
1.6010424 2.3564994 3.6850998 20.081499
-0.84494054 1.5378362 3.7699671 15.067
-0.1721195 2.3547444 3.7614357 21.070999
0.24039459 2.3819823 3.7514842 21.0735
0.32149932 2.3688965 3.7371962 21.073999
0.44620407 2.3962579 3.7990899 21.074749
1.5417998 2.3411555 3.7431512 20.080999
2.1610603 2.3786476 3.7713647 19.084
1.6884379 2.2531989 3.8746147 19.081499
1.7694141 2.2596703 3.8261044 19.082001
1.8614882 2.2809408 3.8013885 19.0825
-0.26016775 2.3619354 3.8208625 21.070499
0.07383313 2.3624809 3.8108823 21.0725
0.16061319 2.388767 3.8790178 21.073
1.1531057 2.3689361 3.8480389 20.078751
1.3055772 2.3320792 3.8838787 19.0795
-0.76539832 2.4120035 3.8155892 21.067499
1.2362369 2.2775104 3.9991362 19.079
1.5178336 2.2672782 3.9609687 18.5805
1.6253754 2.2663918 3.9505849 18.580999
-0.61821371 2.3769999 3.9505193 20.068501
-0.13819057 2.3529606 3.9626226 20.071251
0.031747792 2.3708997 3.92997 20.07225
0.59934729 2.3817115 3.9362092 20.0755
0.69643641 2.365294 3.9780228 20.076
0.86278683 2.3441329 3.9963717 20
1.4119012 2.3120844 3.9116812 19.08
-0.70017618 2.4081006 3.9052103 20.068001
-0.092470907 2.4066434 3.9036982 21.071501
1.9802998 1.9688423 4.0498052 16.0825
1.1629877 2.2596409 4.0341811 19.078501
1.3808066 2.231596 4.0944605 18.0795
1.4632305 2.2441959 4.040122 18.08
1.8558894 2.2422435 4.0291014 18.082001
-0.54315084 2.3773241 4.0568619 20.069
-0.44638172 2.337518 4.0417542 20.0695
-0.35974255 2.345387 4.0208416 20.07
-0.26877266 2.3370764 4.0351653 20.070499
0.78488904 2.3538661 4.0302401 20.0765
0.83882111 2.3603642 4.0085425 20
-0.74773556 0.69330835 4.125175 8.0679998
1.9290658 1.6469538 4.1595426 14.082
-0.38116783 1.7891177 4.1945634 16.07
1.9209716 2.188869 4.1697946 17.082001
0.89519918 2.2777376 4.1320119 18.5
0.91895986 2.2787843 4.13028 18.5
1.0846798 2.2757673 4.1205292 19.077999
1.2972871 2.2281444 4.1490712 18.079
-0.74221486 2.3153057 4.1715794 19.068001
-0.64300323 2.3182359 4.1465416 19.068501
-0.56267756 2.3338287 4.1487837 19.069
-0.46621427 2.3428068 4.1239576 19.0695
-0.37259755 2.3257108 4.1864338 19.07
0.16341265 2.3599348 4.1047597 20.073
0.26478603 2.3385203 4.1584549 19.0735
0.99351406 2.3083143 4.117609 19.077499
1.6435119 1.6850172 4.2758636 14.0805
1.7432086 1.6207483 4.2444005 14.081
1.8426257 1.6409458 4.216783 14.0815
-0.75647044 1.7593371 4.2399402 15.068
-0.47984102 1.7948225 4.2643924 15.5695
-0.57132101 1.8634148 4.2889333 16.069
-0.38343209 1.8122958 4.2987142 15.07
-0.2976774 1.8062705 4.2529778 16.070499
2.1694241 2.0384767 4.2074528 16.083
1.1222949 2.1943467 4.215488 18.077999
0.44660053 2.284101 4.2441635 19.074499
0.65516937 2.2263632 4.2925386 18.0755
0.73925805 2.2247076 4.2504015 18.076
0.83288789 2.2383678 4.227406 18.0765
1.2057585 2.2169664 4.2053494 18.078501
-0.28414163 2.3064711 4.2594261 19.070499
0.36277479 2.3162084 4.2180328 19.073999
-0.67275375 1.7852048 4.3309779 15.0685
-0.5806303 1.7931255 4.3251004 15.069
-0.15156822 2.2654998 4.3452315 18.071251
0.36393934 2.20383 4.3821659 18.073999
0.56601149 2.2364984 4.3595796 18.075001
1.0453613 2.2046714 4.3099608 18.077499
1.5745966 2.2432458 4.3869882 17.08
-0.014896712 2.1898646 4.4895697 17.072001
1.7035359 2.187958 4.4131069 17.0805
-0.59586084 2.2363377 4.4484973 18.069
-0.014767573 2.2293236 4.4662642 18.072001
0.17773198 2.2104638 4.467823 18.073
0.28379509 2.2254031 4.4498053 18.0735
0.46498853 2.2319343 4.4049044 18.074499
-0.21339431 2.1928043 4.5810776 17.070999
1.6222242 2.1940436 4.5417852 16.08
1.8621868 2.1027901 4.5303574 16.080999
1.9704952 2.1112344 4.506671 16.081499
-0.5067206 2.2256715 4.5451703 17.0695
-0.11003599 2.2010407 4.5568409 17.071501
0.093432114 2.2187572 4.5681229 17.0725
0.89547467 2.2644932 4.5717254 17.0765
-0.31281194 2.1993906 4.6361213 17.070499
1.7745612 2.1269717 4.6275573 16.0805
1.5684468 2.217164 4.6697125 16.0795
1.4751074 2.205584 4.7370834 16.079
1.3991368 2.1680419 4.8567395 16.078501
0.3044714 2.2290175 4.8751001 16.5735
0.40475366 2.2042062 4.8165498 16.073999
0.62809944 2.3014896 4.8705392 17.075001
0.194374 2.1980629 4.9377918 16.073
0.96692288 2.1703751 4.9547257 16.0765
1.1969963 2.1949103 4.9765854 16.077499
-0.23662248 2.2455435 4.940578 16.070999
1.3115981 2.222687 4.9481349 16.077999
1.110056 2.1996315 5.0886617 16.077
-0.13182832 2.220777 5.0991726 16.071501
0.10151383 2.2046108 5.0083151 16.0725
0.54853058 2.2618783 5.0823407 16.074499
0.6400674 2.2164979 5.0299482 16.075001
0.77095133 2.225667 5.0891061 16.0755
0.8873201 2.2156377 5.0910692 16.076
1.611626 2.1916087 5.1930366 15.079
-0.018385272 2.2238514 5.1193047 16.072001
1.867126 2.2127156 5.1646185 15.08
1.9707782 2.2189021 5.1430812 15.0805
-0.59310138 1.3370818 5.2229877 11.0695
1.2785413 2.190881 5.2824445 15.0775
1.3872588 2.178144 5.2214146 15.078
1.5049282 2.1927006 5.2276855 15.0785
1.7534136 2.2145352 5.2090511 15.0795
-0.49570662 1.2630967 5.340271 10.07
0.69125581 2.1841736 5.3848972 15.075
0.81011999 2.1731253 5.352242 15.0755
0.93251014 2.186353 5.3544922 15.076
1.0463613 2.198523 5.3528266 15.0765
1.1614677 2.1919725 5.3120761 15.077
-0.13805251 2.2238929 5.3099098 15.0715
-0.4934094 0.99680614 5.4073887 8.0699997
0.58255893 2.0503097 5.4876709 14.0745
0.091795675 2.1926312 5.4121203 15.0725
0.22311744 2.1970491 5.4691272 15.073
0.57936132 2.1885276 5.4716754 15.0745
-0.02019066 2.2197723 5.4449582 15.072
0.11217492 2.0783679 5.594667 14.0725
0.46288621 2.0607893 5.5281243 14.074
0.34010383 2.1688883 5.5545812 15.0735
0.462816 2.1870091 5.5422425 15.074
-0.39491883 2.0874953 5.6063995 14.0705
0.21911828 2.0824246 5.6029887 14.073
1.6394099 2.0884469 5.6774044 14.0785
1.755138 2.0974083 5.6086531 14.079
-0.021503694 2.1094687 5.6820974 14.072
0.84271193 2.1746786 5.6236348 14.0755
1.1070622 2.1538308 5.6585331 14.0765
1.3790891 2.1262486 5.6931353 14.0775
-0.38583615 1.2461537 5.7294111 9.0705004
-0.39708108 1.9811292 5.7512593 13.0705
-0.27745357 2.1378651 5.7540607 14.071
-0.14934406 2.1327944 5.7449131 14.0715
1.252283 2.1568551 5.7230186 14.077
1.5130278 2.1237922 5.7269402 14.078
-0.65913951 2.1943197 5.8804359 14.0695
-0.54454303 2.1841784 5.8639965 14.07
1.8238479 2.1282907 5.8395963 13.079
0.36585349 2.1031389 5.9841599 13.0735
1.7329003 2.093219 6.0391693 13.0785
2.3343108 2.0893974 6.0583434 13.0805
1.3129369 2.1230876 6.0711889 13.077
2.0199163 2.1275094 6.0267372 13.0795
1.0748476 2.0896287 6.1947365 13.076
1.4822043 2.0729582 6.194912 13.0775
1.6153245 2.0940089 6.1429119 13.078
2.2071717 2.0750809 6.1314845 13.08
0.9491806 2.0833218 6.2966857 13.0755
1.2372724 2.0589292 6.3704052 12.5765
2.2927706 2.0533292 6.3772807 12.08
1.1027842 2.0485778 6.4420867 12.076
2.1700513 2.0373695 6.4852066 12.0795
1.5946451 2.0277114 6.6351075 12.0775
2.0626271 2.0506206 6.6522536 12.079
-0.027119707 2.1255879 6.6956401 13.072
0.86546218 2.0645618 6.7193537 12.075
1.4742798 2.0308001 6.7969637 12.077
1.9268608 2.0180352 6.700067 12.0785
-0.027315035 2.1307063 6.730679 12.072
0.59046656 2.0467875 6.9241695 12.074
0.44386515 2.0541692 7.0640035 12.0735
1.681983 2.0127053 7.0080757 11.0775
1.8615727 2.0219545 7.0672779 11.078
4.6566129e-09 0.34047133 7.1188636 4
-0.029658314 1.1672242 7.1535454 8
1.5545391 2.0133371 7.1769366 11.077
-0.029999111 0.53810948 7.2150736 5
-0.030310877 0.90417343 7.2713375 6.5
-0.030271329 1.4768566 7.2641954 9.0719995
-0.030243002 1.9915738 7.2590833 11.072
0.76718074 2.0803046 7.2381315 12.0745
-0.030818701 1.6902896 7.3629789 10.072
0.1331335 2.0520387 7.3496494 11.0725
0.79329854 2.0768692 7.493669 11.0745
1.3222491 2.0538981 7.5964627 11.076
0.9575997 2.0728829 7.6507974 11.075
1.4905829 2.0348086 7.6923051 11.0765
2.601548 1.9582363 7.799634 10.0795
1.1849631 2.0596366 7.8449612 11.0755
0.32172948 2.0318012 7.9972243 11.073
0.84884524 2.0013516 7.9138751 10.0745
1.9040425 2.0003746 7.9211841 10.0775
0.65671432 1.9832996 8.0466413 10.074
1.0310651 1.9647624 8.154953 10.075
2.1405849 1.9958712 8.107439 10.078
0.48825511 1.9864146 8.2408361 10.0735
1.6079355 2.0520868 8.2376928 10.0765
0.32182723 1.976115 8.3497696 10.073
1.8071679 2.0366869 8.3389101 10.077
2.6163201 1.999977 8.474721 10.079
2.4682395 1.9768381 8.5794249 10.0785
2.6916723 1.9572321 8.6289959 9.0790005
2.8886375 1.9570726 8.6751413 9.0795002
1.5078435 1.953602 8.7554874 10.076
0.54705048 1.9207882 9.2353439 9.0734997
0.99676943 1.8568885 9.4871483 9.0745001
0.79135537 1.8835875 9.5676031 9.0740004
1.215732 1.8627836 9.5345259 9.0749998
1.4347245 1.8576854 9.55972 9.0754995
1.6590216 1.8640449 9.6008091 9.0760002
1.8678629 1.8598837 9.6254864 9.0764999
2.1059434 1.8660498 9.6990747 9.0769997
2.3271034 1.8555987 9.6787567 8.0775003
2.8330688 1.8668734 9.8438606 8.0784998
1.2600011 1.8800861 9.9663792 8.0749998
3.0734375 1.8651494 9.9080982 8.0790005
1.7265838 1.8740321 10.044132 8.0760002
1.9518943 1.8519627 10.015226 8.0764999
2.1840537 1.853807 10.170564 8.0769997
2.7169313 1.8315496 10.313293 8.0780001
2.786541 1.5204918 16.093054 5
3.9616139 1.450412 16.391972 5
