# .PCD v0.7 - Point Cloud Data file format
VERSION 0.7
FIELDS x y z intensity
SIZE 4 4 4 4
TYPE F F F F
COUNT 1 1 1 1
WIDTH 403
HEIGHT 1
VIEWPOINT 0 0 0 1 0 0 0
POINTS 403
DATA ascii
-2.6611583 2.4602969 -4.6718841 16.011999
-2.45681 2.4391651 -4.1147909 18.012501
-2.4787898 2.122606 -3.7592506 17.0135
9.1881065 2.1218119 -2.41538 10.114
10.007895 2.0324848 -2.6308715 9.1140003
10.511501 2.0242732 -2.4846919 8.1134996
11.558645 1.9313477 -2.2501297 8.1125002
11.785628 1.9038646 -2.024025 8.1120005
13.54098 1.8446065 -2.3323543 7
7.1527228 2.2468343 -2.1904869 12.115
10.171524 2.0399263 -2.3147759 9.1132498
10.462886 2.023484 -2.0260141 9.1125002
0.65608847 1.2970281 -1.6935263 23.13575
6.3139329 1.7559919 -1.7240081 11.11425
11.118562 1.9700248 -1.6312759 8.1114998
5.13169 2.3003242 -1.7085714 16.115499
5.386147 2.2890553 -1.7246394 15.11525
5.6245971 2.2629061 -1.7327309 14.115
6.8235736 2.2523289 -1.6350482 13.1135
8.3058081 2.1412425 -1.7886385 10.613
8.4380589 2.1062841 -1.6391892 10.1125
10.417233 2.0070634 -1.7779353 9.1120005
-1.9445534 0.38423204 -1.2853932 8.0109997
-1.9430925 0.58958405 -1.3159109 10.516687
2.9948661 0.61283052 -1.3659977 8.118
0.77121538 1.026468 -1.4927918 20.5333
0.80229867 0.9944185 -1.3363285 21.2985
0.751867 1.2352923 -1.542852 22.967165
2.8275163 1.5136471 -1.2972394 17.118
11.084147 1.9944508 -1.4116323 8.1110001
13.893304 1.7983391 -1.4843601 7
2.5128505 2.0474069 -1.2097013 23.1185
4.0983315 2.3296881 -1.3595012 18.615499
4.6126733 2.3178627 -1.4555756 17.115166
5.1397748 2.2707648 -1.4002458 16.11425
5.4992542 2.2536876 -1.4997053 15.11425
5.7053919 2.2375422 -1.3896911 14.363625
6.6098948 2.2420852 -1.3532693 13.11275
8.625536 2.1321354 -1.3736651 10.11175
10.334446 2.0037718 -1.2942922 9.1110001
10.464962 2.0258098 -1.5476236 9.1114998
3.1947427 2.4834681 -1.2952951 23.117001
3.5053411 2.4652214 -1.3235179 21.866436
3.7289329 2.4407539 -1.3323016 20.616001
-1.947823 0.28887665 -1.0211327 6.8457079
0.74683821 0.29367846 -0.85786051 10.702887
0.92235219 0.26829788 -0.81918794 9.125
1.7496527 0.33534771 -1.0906041 7.81075
-1.9302435 0.63663852 -0.97681725 11.77225
0.75314963 0.5973835 -0.94928902 17.595531
1.5629234 0.54798758 -1.0724163 11.622
1.723098 0.60127813 -1.0730919 11.727417
2.0694983 0.40018234 -1.1124278 8.1195002
-1.8971316 0.98110116 -1.0000173 16.522551
0.80771649 0.86394352 -1.1187273 21.129999
1.4754951 1.0619688 -1.0278581 20.0222
1.6853988 1.0008017 -1.0237749 17.87075
-1.8334571 1.3152053 -1.005885 20.732946
1.4847267 1.3125528 -0.97084749 23.1215
10.315584 1.991896 -0.86149931 9.1099997
10.660408 1.9241858 -1.1008826 8.1105003
10.899185 1.9273521 -0.88199997 8.1099997
3.9677563 2.3809099 -1.08056 20.11425
4.237 2.2970998 -1.0374254 18.447001
4.7478533 2.3242512 -0.81220347 17.112
4.9880686 2.304822 -0.98579586 16.612625
5.4813113 2.2738397 -1.0538315 15.1125
5.8021355 2.2402694 -0.94505757 14.445167
6.259614 2.2526865 -0.99331087 13.61175
6.4319081 2.2367468 -1.0936798 13.112
7.7825403 2.1711249 -0.88981164 11.11075
8.7911215 2.1262426 -1.1157942 10.111
8.8171501 2.0983973 -0.92092294 10.1105
10.346104 2.0010314 -1.0628449 9.1105003
3.0773606 2.4218132 -1.0857104 23.115999
3.4243526 2.4511595 -1.0942237 22.11525
3.8305695 2.4270623 -0.95285016 20.713751
-1.9480118 0.31366321 -0.63371187 7.2617569
0.77562946 0.38097727 -0.76989406 13.62625
-1.9256499 0.60708427 -0.51061386 11.967208
0.7743476 0.54339403 -0.77986592 17.626415
0.85380352 0.41522953 -0.79418695 14.1255
-1.8679051 1.0154784 -0.63074356 17.951773
-1.821559 1.3454765 -0.60650057 22.441917
10.296963 1.9853185 -0.62991476 9.1094999
11.251061 1.8938926 -0.44572338 8.1090002
3.2658393 2.3842099 -0.55328846 23.112
3.9689486 2.376615 -0.71311718 20.112249
4.1540556 2.3379793 -0.48152924 19.410801
4.56986 2.2948794 -0.62329364 17.86125
5.1763458 2.2157755 -0.53686392 16.1105
5.3436489 2.2754991 -0.58788884 15.777333
5.7162704 2.2362428 -0.65951133 15.11075
6.1441159 2.2286222 -0.63064468 14.1105
7.5667987 2.197053 -0.61644214 12.11
8.9135914 2.0895061 -0.63218927 10.10975
3.3330615 2.4369974 -0.59137267 23.112167
3.7643402 2.4381492 -0.57729667 21.397358
5.1799212 2.4010336 -0.41955629 17.110001
-1.8800372 0.31396845 -0.16470982 8.0435352
-1.8873396 0.60998452 -0.17986666 12.596365
-1.839605 1.0287422 -0.18712753 19.010435
-1.7904476 1.2729449 -0.19540778 22.533594
10.290583 1.981299 -0.26963314 9.1087494
11.508537 1.8801836 -0.20070876 8.1084995
13.310966 1.8100488 -0.23726787 7
3.9585607 2.3822765 -0.23359427 20.109501
4.1524558 2.3430016 -0.17202131 19.442417
4.6191034 2.2702572 -0.27105713 17.609501
5.1030221 2.2671666 -0.13616563 16.608749
5.4419346 2.2434244 -0.17351691 15.358875
6.3005943 2.2068191 -0.23729971 13.609
7.90347 2.1350641 -0.11203606 11.1085
8.2357426 2.1494319 -0.32651234 11.109
9.0764036 2.0853541 -0.23976624 10.108749
3.5044217 2.4600482 -0.1714329 22.609249
3.7110302 2.4319494 -0.26106194 21.609749
-1.7087201 0.27025411 0.20880175 7.3594995
-1.784283 0.6413129 0.18434589 13.619102
-1.5270607 0.54561883 0.30077681 13.0405
-1.7929049 0.9872576 0.21650112 18.746618
-1.7362442 1.2483876 0.19815621 22.705313
10.292353 1.9890049 0.040920191 9.1079998
11.742474 1.870643 0.055431314 8.1079998
4.252893 2.2822976 0.25649765 18.685299
4.9183431 2.2879865 0.1922386 17.10725
5.2683029 2.2581728 0.20576788 16.10725
5.6301537 2.2420957 0.15385003 15.107501
6.1711426 2.1919351 0.13822439 13.857624
6.7194481 2.2117033 0.25596189 13.10725
7.7077579 2.1787391 0.134996 11.60775
9.0883512 2.0404611 0.24908726 10.1075
9.4876413 2.0131233 0.25223157 9.1075001
3.9067123 2.4504061 0.28038418 20.904167
-1.6793078 0.30367121 0.5333721 8.0357084
-1.4538791 0.39500397 0.53017581 11.044
-1.6962199 0.62173867 0.59773415 13.42904
-1.5575086 0.69631642 0.57703483 15.37748
-1.701107 0.97309935 0.62303156 18.561337
-1.6558962 1.2633142 0.5900991 22.793877
-1.5984275 1.3041232 0.70205736 23.0455
9.1365118 1.7900305 0.4721925 9.1070004
3.1200902 2.3408699 0.77857322 23.102501
3.9568465 2.3707912 0.55739373 20.104916
4.2483044 2.2640603 0.65563643 18.676071
4.9159579 2.2649763 0.56572181 16.772165
5.4034548 2.2580037 0.62334019 15.6055
5.670433 2.2229531 0.53055173 15.106
6.5116277 2.1634192 0.65168488 12.855875
7.0159206 2.1817181 0.5817917 12.10625
9.1949987 2.0505264 0.45619366 10.107
3.3654003 2.4225519 0.726125 22.853251
-1.632982 0.28380084 0.88721305 7.2732501
-1.5785035 0.21180415 1.1409868 6
-1.6449901 0.61646736 0.89483744 12.82814
-1.5698529 0.6019839 1.1420945 12.340399
-1.6333262 0.98602569 0.84249085 18.492882
-1.5597265 1.0013013 1.0546168 18.418375
-1.4797467 1.2914397 1.0494193 22.716791
3.0282764 2.3251076 1.0019555 23.100832
3.2113128 2.3690195 1.1906528 22.1
3.9621997 2.3309228 1.0629748 19.57675
4.1958361 2.2521863 1.0122622 18.465
4.4424238 2.2393618 1.0085495 17.103001
5.1343989 2.2602289 1.0542184 16.1035
5.3930707 2.2486234 0.94989729 15.354125
5.7876954 2.2092321 1.1223212 14.10375
6.1018715 2.2127099 0.90039885 14.10475
6.5882707 2.1606739 1.01902 12.704599
-1.5156552 0.30066782 1.3522811 7.2404108
-1.4739654 0.60945189 1.3827591 11.931389
4.5612569 0.76356286 1.5737998 8.1005001
-1.3819847 0.95533794 1.4508728 17.063437
4.4983945 1.065425 1.545743 10.1005
5.7119341 1.0038948 1.3633008 8.1027498
-1.3440646 1.3273736 1.4619867 21.805092
5.5714045 1.3460984 1.3950458 10.1025
5.7677813 1.200161 1.3136897 9.1029997
4.9679775 1.876537 1.5866179 14.101
5.4821644 1.7011971 1.4408951 12.10225
3.0168371 2.3652959 1.4468583 22.697849
3.2631717 2.3937337 1.364724 22.099001
3.8730197 2.3267555 1.3447589 19.462812
4.1672988 2.2377727 1.4122169 17.680401
4.4423175 2.221385 1.2256312 17.101999
4.9970613 2.2544785 1.3714 16.101999
5.3813667 2.1846409 1.4056277 14.768917
5.7245064 2.1850591 1.3017969 14.103
3.43837 2.4137371 1.4463555 21.432333
3.6533809 2.4174352 1.4471483 21.099501
-1.3377784 0.19800945 1.7291852 5.3125
3.319546 0.38718957 1.871536 6
4.2611351 0.24244697 1.9182787 3.2
-1.298533 0.65791219 1.7755951 11.893154
-1.1910701 0.74192727 1.9861423 12.5
3.0518837 0.68828273 1.9302337 8.4644165
3.287154 0.72602004 1.8680681 8.730834
4.1898503 0.6840381 1.7713858 7.3991666
4.4107633 0.78523278 1.6379932 8
-1.2971408 1.010514 1.7262298 16.810869
-1.1774284 1.0495555 1.9516959 16.479874
2.9923441 0.95150214 1.9369526 11.083062
3.3640327 1.0050583 1.8972979 10.763
3.876358 0.9987424 1.8572197 9.5651665
4.2131004 1.0566294 1.7413969 9.75
4.4311576 0.99878824 1.6377906 9
-1.2480989 1.3466032 1.7140725 20.959854
-1.1801121 1.2638538 1.8959712 19.279751
2.7942483 1.4097056 1.979154 15.094
2.9614782 1.3513409 1.9634942 14.320999
3.886385 1.4357965 1.8860761 12.8
4.1549206 1.3824352 1.7554058 12.142858
2.9177904 1.6314821 1.9815736 17
3.481833 1.7311373 1.9805043 15.596251
3.7389493 1.9179356 1.9251162 16.381584
4.1869259 1.7813044 1.7134033 14.666333
2.7019169 2.3625181 1.9125324 23.094
3.1516957 2.3805881 1.703017 22.09675
3.4242303 2.3267131 1.8273895 20.096874
3.8066738 2.2611272 1.7611086 18.715916
4.0770049 2.2004275 1.6709952 17.799751
4.9793038 2.1184671 1.6005507 15.101
3.4025726 2.4171464 1.8288532 20.7635
-1.2155635 0.29714561 2.0199509 6.5
-1.0428309 0.33286116 2.0349512 7.28125
-0.63565934 0.0096788555 2.3731651 2.5
1.8224348 0.21683966 2.3367698 4.6666665
2.2925341 0.14372589 2.3445055 3
2.5826707 0.1610675 2.2699661 3.2631578
2.8374896 0.2608549 2.0743456 4.5
-1.2112614 0.52851939 2.0058646 9.5
-1.1272467 0.57043636 2.2012529 9.9489994
1.8237494 0.6247499 2.3382668 9.3680735
2.2008264 0.66170949 2.3109484 9.125
2.673413 0.65209144 2.0918803 8.7142859
2.8184943 0.50677001 2.0298209 7.5
-1.2045176 0.84399152 2.0035462 14
-1.1644179 0.84489274 2.0594151 13.5
1.8276454 0.89725327 2.3844931 11.9185
2.1119001 0.98780841 2.3383274 12.425667
2.6522677 0.96472871 2.0786281 11.583334
1.9270465 1.3968194 2.3932047 16.5
2.2366154 1.3352922 2.2576015 15.461538
2.679553 1.4409275 2.045625 15.489499
2.8308067 1.4847028 2.0004036 16.094
-1.2694781 1.7372506 2.3105962 22.060501
1.8623005 1.8345034 2.3192515 20.666666
2.2161822 1.8001524 2.1655664 19.714388
2.5716503 1.7804186 2.0592747 18.6926
2.9969528 1.8432183 2.0262828 18.0945
3.3088787 1.9936395 2.0389779 18.095501
1.5829301 2.0678442 2.3890164 23.085501
1.8530731 2.1380246 2.2358477 22.947805
2.2785764 2.2467296 2.134867 22.7575
2.5375786 2.3375235 2.1448443 23.091999
2.8339436 2.3930743 2.094666 22.0935
3.4674489 2.0805576 2.0249493 18.096001
2.6960597 2.4131293 2.1302724 22.592751
3.1095805 2.4306784 2.0450053 21.594749
3.2763157 2.4321146 2.0024409 21.095501
1.9047978 0.14431851 2.4164419 3
2.1721044 0.11584662 2.4320188 2.5
-1.1555302 1.1054852 2.7908773 14.063
1.7413417 1.0515479 2.4624538 13.57375
-1.2102677 1.5389451 2.6973076 18.5
-1.1631896 1.4340448 2.7543602 17.312874
1.7334225 1.373148 2.4797907 16.580996
-1.235112 1.8327961 2.5598061 21.546125
-1.151317 1.8422413 2.7249267 20.708666
1.6403825 1.7685533 2.4449136 20.189125
-1.2056847 2.006093 2.5681262 23
-1.1248456 2.059953 2.660197 23.042
1.2825055 2.2619576 2.7749171 23.082001
1.6236206 2.3147852 2.7010415 23.084499
-1.0563797 0.71442777 3.1610479 9.2652216
1.7149937 0.69475842 2.8792953 9.0422497
-1.0887333 0.94608033 3.0365748 11.726571
1.6974075 0.97791386 2.8226371 12.0845
-1.0889591 1.3164794 2.9586744 15.377904
1.8163298 1.5186467 3.1749892 15.584
-0.98453945 1.8333608 2.9594402 19.943167
-0.92635596 2.1697166 2.9972787 22.518967
-0.58536845 2.2935193 3.1357455 23.067801
-0.27494004 2.2882941 3.0616419 23.07
0.20291644 2.2878063 3.155777 23.0735
0.62399507 2.2845252 3.0586803 23.076649
1.0198939 2.2924073 3.0304198 23.0795
1.3979988 2.3448396 2.9353542 23.082249
1.6389025 2.3641393 2.8517249 23.084
-0.9037841 0.227446 3.4194734 4.5
-0.90665615 0.70965815 3.3769915 9.1046791
-0.94641244 0.96425968 3.2665265 11.333333
1.840162 1.1058116 3.5290284 11
-0.89922059 1.3970461 3.2587397 15.283
1.8394308 1.3405536 3.4513021 13.04175
-0.88317633 1.8122952 3.2634928 19.066
-0.79618639 1.79893 3.2270889 19.0665
1.8142034 1.6256897 3.4832263 15
-0.8899439 2.3852065 3.5693347 21.0665
-0.68393975 2.3571856 3.5083237 22.067667
-0.19639429 2.3355782 3.2968419 22.695688
0.25458723 2.3088272 3.330169 22.473799
0.64042681 2.3375139 3.4549935 22.07625
0.8015154 2.3242242 3.3030353 22.077499
1.7257557 2.369493 3.4377859 20.83275
-0.84494054 1.5378362 3.7699671 15.067
-0.62962967 2.3785119 3.7794461 20.568251
-0.14377981 2.3542123 3.8310082 20.6712
0.16561761 2.3746052 3.8217101 20.873051
0.61395049 2.3826504 3.8324831 20.575687
1.0370473 2.3758199 3.7918425 20.411501
1.4026698 2.3060215 3.8997631 19.18
1.7091516 2.2833402 3.8275585 19.1817
2.1610603 2.3786476 3.7713647 19.084
-0.73278725 2.4100521 3.8603997 20.567749
-0.092470907 2.4066434 3.9036982 21.071501
-0.74773556 0.69330835 4.125175 8.0679998
-0.6122033 1.799181 4.2898688 15.3688
-0.35409245 1.8025613 4.2487521 15.736833
1.8277423 1.7125013 4.1892791 14.481501
-0.56727374 2.3375032 4.114913 19.40225
-0.26473182 2.3076077 4.1987214 19.070583
0.28872821 2.3046234 4.2158532 19.073624
0.63838565 2.2651074 4.2353849 18.675501
0.99696833 2.2649012 4.1457162 18.74575
1.3843359 2.2328298 4.1751981 17.8794
1.8884306 2.2155561 4.0994482 17.582001
2.1694241 2.0384767 4.2074528 16.083
-0.55129075 2.2310047 4.4968338 17.56925
-0.1331813 2.2024846 4.5459752 17.2714
0.1849864 2.2182081 4.4952502 17.739668
0.46498853 2.2319343 4.4049044 18.074499
0.89547467 2.2644932 4.5717254 17.0765
1.5217772 2.211374 4.7033978 16.07925
1.7866007 2.1445997 4.5238953 16.280699
-0.12894537 2.2300575 5.0530186 16.071501
0.20011973 2.2105637 4.9404025 16.239668
0.59848046 2.2419477 4.9776964 16.274801
1.0403239 2.1951385 5.0277605 16.07675
1.3553674 2.1953645 4.9024372 16.078251
1.8165101 2.2077422 5.1669121 15.079834
-0.4934094 0.99680614 5.4073887 8.0699997
-0.54440403 1.3000892 5.2816296 10.56975
-0.079121582 2.2218328 5.3774338 15.07175
0.19179797 2.159234 5.5076237 14.822876
0.55577564 2.1341617 5.4829221 14.6744
0.98761475 2.1874933 5.3429093 15.07625
1.3902429 2.1872418 5.2438483 15.078
1.7534136 2.2145352 5.2090511 15.0795
-0.38583615 1.2461537 5.7294111 9.0705004
-0.39708108 1.9811292 5.7512593 13.0705
-0.60184127 2.189249 5.8722162 14.06975
-0.21080503 2.1169059 5.6968679 14.07125
0.29248589 2.0927818 5.7935743 13.57325
0.97488707 2.1642547 5.6410837 14.076
1.3814665 2.135632 5.7143645 14.077499
1.7394652 2.1047153 5.7085509 13.745502
1.0120142 2.0864754 6.2457113 13.07575
1.3441378 2.0849917 6.2121682 12.910333
1.6741123 2.0936141 6.0910406 13.07825
2.2135422 2.0863292 6.1484618 12.83
-0.027217371 2.1281471 6.7131596 12.572
0.98412317 2.0565698 6.5807199 12.0755
1.5344625 2.0292559 6.7160358 12.07725
1.9268608 2.0180352 6.700067 12.0785
2.1163392 2.0439949 6.5687304 12.07925
4.6566129e-09 0.34047133 7.1188636 4
-0.029658314 1.1672242 7.1535454 8
0.51716584 2.0504785 6.9940863 12.07375
1.5545391 2.0133371 7.1769366 11.077
1.7717779 2.0173299 7.0376768 11.07775
-0.029999111 0.53810948 7.2150736 5
-0.030310877 0.90417343 7.2713375 6.5
-0.030271329 1.4768566 7.2641954 9.0719995
-0.030530851 1.8409317 7.3110313 10.572
0.1331335 2.0520387 7.3496494 11.0725
0.78023964 2.0785871 7.3659 11.5745
1.3222491 2.0538981 7.5964627 11.076
2.601548 1.9582363 7.799634 10.0795
0.32172948 2.0318012 7.9972243 11.073
0.99713594 2.0446236 7.8032112 10.741666
1.4905829 2.0348086 7.6923051 11.0765
1.9040425 2.0003746 7.9211841 10.0775
0.32182723 1.976115 8.3497696 10.073
0.57248473 1.9848571 8.1437387 10.07375
1.0310651 1.9647624 8.154953 10.075
2.1405849 1.9958712 8.107439 10.078
1.7075517 2.0443869 8.2883015 10.07675
1.5078435 1.953602 8.7554874 10.076
2.5920773 1.9780158 8.5610476 9.7455006
2.8886375 1.9570726 8.6751413 9.0795002
0.66920292 1.9021878 9.401474 9.0737495
0.99676943 1.8568885 9.4871483 9.0745001
1.3252282 1.8602345 9.547123 9.0752497
1.2600011 1.8800861 9.9663792 8.0749998
1.7634423 1.8619642 9.6131477 9.0762501
2.2165234 1.8608242 9.6889153 8.5772495
2.9532533 1.8660114 9.8759794 8.0787506
1.8392391 1.8629974 10.029679 8.0762501
2.1840537 1.853807 10.170564 8.0769997
2.7169313 1.8315496 10.313293 8.0780001
2.786541 1.5204918 16.093054 5
3.9616139 1.450412 16.391972 5
