# .PCD v0.7 - Point Cloud Data file format
VERSION 0.7
FIELDS x y z intensity
SIZE 4 4 4 4
TYPE F F F F
COUNT 1 1 1 1
WIDTH 1222
HEIGHT 1
VIEWPOINT 0 0 0 1 0 0 0
POINTS 1222
DATA ascii
-1.0969596 0.0046406277 3.3377802 2
0.18941146 0.041531861 3.3319621 8.1059999
0.44672805 0.05294095 3.3969784 8.6027498
0.66185278 0.049370483 3.3294246 8.0955
0.97415578 0.048487853 3.3322806 5.5
1.0454899 0.077553213 3.3388083 5.2179489
1.1439226 0.058321461 3.3355255 6.3032498
1.3284776 0.086886704 3.3367417 8.1017494
0.14548272 0.16837974 3.3619621 12.106
0.34581152 0.1600024 3.3510103 11.981277
0.41020399 0.18379101 3.3956294 12.454545
0.5090903 0.17440781 3.3893604 11.666667
0.69459385 0.18561338 3.3349354 11.429
0.7443099 0.13397755 3.3541341 11.35775
0.86383218 0.13817266 3.3644326 9.2779503
0.9663322 0.11923169 3.3332262 9.6018753
1.0443757 0.13176069 3.3265929 7.6789002
1.1461957 0.14059472 3.3725984 10.106
0.18179119 0.22863092 3.3529992 13.106
0.37655449 0.243349 3.3376057 14.104416
0.48073205 0.24200916 3.3638082 13.871077
0.50335228 0.24195197 3.3945618 14
0.62539059 0.27569494 3.3354168 15.108999
0.8622489 0.2395736 3.3834319 8.0924997
0.93707937 0.2722207 3.3508344 11.850357
1.0302246 0.25599641 3.3543372 10.592375
1.1388757 0.23656525 3.3454051 9.9689999
1.2297976 0.26952881 3.3934612 10.59675
1.3214868 0.22273208 3.3242369 10.09775
0.35656238 0.3377054 3.3719151 17.106428
0.46316257 0.36711958 3.3528969 17.420572
0.56176955 0.36122176 3.3240652 18.109751
0.69168669 0.37688455 3.3731778 17.108
0.72121388 0.3809326 3.3909388 17.1075
0.88083005 0.34787631 3.3785563 9.0462494
0.97108245 0.35253397 3.3361759 13.178875
1.1261424 0.3697131 3.3152122 8.0885
1.2303354 0.37656665 3.3532786 12.59525
1.4514561 0.33247274 3.3276656 12.102
-5.4884214 0.41227692 3.3267207 3
-1.1820328 0.47982773 3.3542962 23.018999
0.19580114 0.4545505 3.3635933 19.106001
0.38123077 0.44013995 3.350831 19.667309
0.45519021 0.42728537 3.3427243 18.254738
0.56958824 0.44245318 3.3287613 20.109751
0.66949123 0.43495938 3.371562 19.10825
0.88531452 0.42649409 3.3605494 10.0905
0.94354004 0.45949909 3.3436217 13.49753
1.0404024 0.44101161 3.3348196 11.788168
1.1265947 0.4703021 3.3514721 11.369858
1.2190423 0.46512663 3.3390682 14.5975
1.3017962 0.43294531 3.3931923 13.097
1.7632256 0.45846462 3.3394346 11.101
0.2840206 0.5229128 3.3571029 20.105499
0.37117004 0.59954119 3.3612123 23.105249
0.43962967 0.55244201 3.3591485 22.280025
0.81468374 0.54229444 3.3693333 18.595875
0.9637863 0.56319338 3.3672473 15.760834
1.0517086 0.55425435 3.3560116 12.27495
1.1357931 0.57133353 3.3400769 15.343125
1.2030635 0.50535768 3.3729861 15.097
1.321708 0.57421619 3.338707 15.59775
-3.9071543 0.67733991 3.3681288 8.0225
0.27752632 0.607804 3.3413105 22.106001
0.38988489 0.65545315 3.3859222 22.1045
0.51442063 0.60497487 3.3477833 23.102335
0.62264359 0.63671714 3.3782446 23.10025
0.72064 0.68511915 3.30494 23.109501
0.96753788 0.63678139 3.3497508 17.095083
1.0342617 0.61892086 3.3445585 14.07225
1.1282977 0.67718315 3.3062634 18.3505
1.2344213 0.66962129 3.3650031 10
0.78896147 0.74625713 3.3467999 22.496302
0.95231634 0.76899338 3.352006 18.721437
1.0764357 0.76953143 3.3589051 19.488167
1.1144214 0.74884534 3.3641615 21.102001
1.2544124 0.72703654 3.336381 18.095749
1.3209994 0.75807279 3.3977318 20.1015
1.4539652 0.7331543 3.3922634 18.1015
0.97141314 0.83357888 3.3698082 14.088417
1.0447555 0.85163927 3.366076 19.773563
1.1388853 0.8336336 3.3446338 17.008854
1.2033398 0.83170295 3.3158913 20.098
1.4882832 0.84854567 3.358103 20.101999
-5.0978832 0.95925653 3.3153744 8.0174999
0.95194578 0.99364847 3.3750262 20.096001
1.0629182 0.94667608 3.3393049 17.37211
1.1547817 0.94255495 3.3346679 19.096251
1.2749796 0.98006612 3.305691 14.0895
1.343857 0.93298382 3.3432407 21.098
-5.6599731 1.0650342 3.3516142 8.0284996
0.98712188 1.095559 3.311748 19.091499
1.0278039 1.0271052 3.34272 15.835232
1.1709493 1.0638527 3.3629062 20.092085
1.2341301 1.0028394 3.3039737 14
1.3464615 1.0297412 3.3752706 23.101999
-6.1353951 1.1119816 3.3229766 8.0305004
0.98862451 1.1887244 3.3180599 19.5
1.0475265 1.1685216 3.3277738 19.593834
1.1948361 1.1560971 3.329143 23.09375
1.2234349 1.1524222 3.3270237 17
1.8889151 1.1348273 3.3638706 18.101
0.99730295 1.2523631 3.3736567 20.091249
1.0507469 1.2223227 3.3600001 20.199438
1.1518437 1.2733001 3.3242779 17.088499
1.2300063 1.2586759 3.3420146 17.893
-3.8948514 1.3334131 3.3355811 15.022
0.9755612 1.3356519 3.3628614 15
1.029129 1.3337182 3.3624306 19.588625
1.2621602 1.3585162 3.339752 18.393167
1.8882151 1.3196272 3.3717093 20.101
0.96137083 1.4374108 3.370384 16.042
1.0552182 1.4569974 3.3382173 18.585499
1.2508869 1.4110863 3.3432322 20.04525
-5.9030476 1.5424869 3.3915567 10.045
0.94833356 1.589518 3.388083 18.084
1.0146382 1.5678242 3.3618948 17
1.32268 1.5506901 3.365025 21.09075
-5.9758511 1.6442888 3.3104281 10.536
-5.6058769 1.6332153 3.3085964 11.032
1.0427046 1.6598856 3.3535671 17.789501
1.1302594 1.6910176 3.3144078 17.0795
-5.6324844 1.7859328 3.3178809 12.032
1.0655206 1.7721494 3.3916001 18.079
1.1732785 1.7583728 3.3646297 21.54425
-5.835186 1.8035076 3.3241787 12.029
1.0076883 1.8505898 3.3915958 21.085501
1.3455904 1.8268325 3.3368549 23.091
-5.4650116 1.94214 3.3892353 13.044
1.0912027 1.9630849 3.3325419 21.085625
1.1673989 1.9590222 3.333642 23.088499
1.2160014 1.9296805 3.3028684 23.089001
-5.9066653 2.03492 3.3236504 13.029
-5.4715409 2.0501239 3.3484058 14.0305
1.0780475 2.0443327 3.300405 21.084999
-5.9528093 2.2819896 3.341814 14.0445
-5.8200402 2.2430785 3.3416502 14.029
-5.602767 2.2469099 3.3767393 14.045
1.0968657 2.2720037 3.340914 23.084999
-5.9990511 2.314781 3.3042145 14
-4.2628789 2.4458456 3.3706563 20.026751
1.2121224 2.4916921 3.3252201 23.08
-6.3778086 2.5737402 3.3144121 15.0275
-6.2313423 2.5400012 3.3024216 15.03
-5.8518171 2.5558927 3.3687472 16.028999
-5.6743627 2.552068 3.3936188 16.0305
-5.4980445 2.5564041 3.3516572 16.032
-6.1486859 2.6657031 3.3279214 15.043
-5.9354982 2.6499662 3.3044047 15.7715
-2.3490629 2.6961935 3.329258 21.5
-5.6969538 2.7837675 3.3689017 17.028999
-2.6826224 2.7359614 3.336961 22.060249
-2.5545628 2.7480938 3.3913462 22.061001
-2.3136337 2.7700233 3.3599489 23.062
-2.2157993 2.7203979 3.3241034 22.0585
-2.1318963 2.7388079 3.3577607 22.059
-2.0338631 2.7537532 3.3665998 22.5595
-1.9616411 2.7609427 3.3915327 23.059999
-1.847013 2.7558737 3.3765697 23.060499
-1.7601277 2.7731824 3.3950016 23.061001
-1.5871671 2.7877617 3.3979614 23.062
-5.8617706 2.8686914 3.3454666 17.0445
-5.5241251 2.856828 3.3065069 18.030001
-5.2028122 2.8696845 3.3200822 19.045
-4.7868447 2.8339031 3.335052 20.044001
-4.6391597 2.8774099 3.3693578 21.032499
-4.5515785 2.8399191 3.3415568 21.0285
-4.4181652 2.8399327 3.3233144 21.539999
-4.3683414 2.8587313 3.3618624 21.53825
-4.0698643 2.8418434 3.3560624 21.549999
-6.0035124 2.9275281 3.3012462 17.0315
-5.9841523 2.9324889 3.3199794 17.042999
-5.8465953 2.9818501 3.3063107 18.042999
-5.3867316 2.9377527 3.3513052 19.043501
-5.2086334 2.946799 3.3421359 19.032
-4.9857597 2.9002559 3.3996158 20.028999
-4.4743147 2.924367 3.3499625 22.032499
-4.3342957 2.9504085 3.3541539 23.0315
-4.2077227 2.9981613 3.3330669 23.0445
-4.1516919 2.9399893 3.3478622 22.707748
-3.8588572 2.9870913 3.3899775 23.049
-5.8356142 3.009882 3.3741066 19.023001
-3.865442 3.1162705 3.3804743 23.007999
-0.27695528 -0.14337111 3.4021142 1
0.42587706 -0.12614439 3.498235 2
0.57404393 -0.1401242 3.4973996 2
0.76745301 -0.14394404 3.4592423 0.66666669
0.96464843 -0.17935571 3.4162879 3
1.1361595 -0.14280586 3.479558 2
-1.9084951 -0.056191295 3.4323916 1
-1.862926 -0.028026141 3.4517114 3
-1.7086318 -0.042116892 3.4846966 1.5
-0.74720621 -0.082538858 3.4822292 1
-0.42334425 -0.054496136 3.4819918 2
-0.15159702 -0.095199421 3.4726186 2
0.5363397 -0.010017231 3.4775438 6
1.0483062 -0.054908335 3.4504454 4
1.1105497 -0.057302095 3.4363494 4.5
-5.5255947 0.019459058 3.474937 1
0.54235578 0.071607463 3.4279554 8.7832088
0.60775638 0.045398496 3.4782681 8.0974998
0.86375588 0.077146396 3.483391 8.0939999
0.94238228 0.055982143 3.4392426 9.1055002
1.0895758 0.029605873 3.4150693 6
1.1166497 0.054863438 3.4501073 7.7334161
0.17166528 0.15048425 3.4159179 11.27125
0.26693207 0.1416139 3.4765711 10.936042
0.46968266 0.13990802 3.4438519 10.102125
0.5575062 0.15540001 3.4457488 11.432334
0.60896838 0.11102826 3.4722757 10.09775
0.78077787 0.105539 3.493124 5.354167
0.8403433 0.14122321 3.4680386 9.3046875
0.9266696 0.17487095 3.4629557 10.267834
1.0294422 0.16022551 3.4775674 7.2141666
1.1233786 0.14580369 3.4585438 5
1.2753197 0.11076164 3.4241741 8.600625
0.28332919 0.28588945 3.4182744 14.104
0.4302749 0.22261471 3.4132941 13.468
0.52621269 0.25166869 3.4386454 14.111572
0.63985074 0.25389943 3.45877 14.101069
0.78173858 0.27590767 3.4379582 14.439625
0.82521975 0.22791366 3.4603367 10.795601
0.93364441 0.25515535 3.4565532 9.4637499
1.0563483 0.21166411 3.4178686 10.09375
1.2337039 0.25791246 3.4891729 11.0955
2.2642577 0.26580578 3.4374542 8.0994997
2.4183033 0.27041531 3.4991369 8.099
-5.6570616 0.33520359 3.4004512 3
-5.2416534 0.38006988 3.4908633 3
0.48069894 0.37817898 3.4364614 17.602249
0.54322755 0.35401207 3.4424849 16.736887
0.64376855 0.350328 3.4556181 16.40975
0.71690506 0.36956894 3.4154096 13.60225
0.86038458 0.36156911 3.4631929 12.220625
0.93740243 0.34715661 3.4445221 10.290951
1.0567456 0.36235142 3.4745975 12.099314
1.1352783 0.33319819 3.4628911 12.25
-1.2128754 0.46802685 3.4192462 22.021
0.18335596 0.46055055 3.4457917 20.271
0.26250881 0.4249385 3.4952495 18.602751
0.42969763 0.40421483 3.4246151 18.603001
0.53195995 0.45769799 3.4160838 20.04995
0.63447368 0.41770899 3.483238 18.497799
0.74884295 0.44782966 3.481308 17.09675
0.8704471 0.43612471 3.4700949 14.275111
0.90185833 0.49662036 3.4248192 11.0925
1.0634674 0.45711008 3.4207451 14.653501
1.1377115 0.42683825 3.4374678 14.431167
1.2220821 0.44942245 3.4540687 15.105
1.3026571 0.43311828 3.4742103 13.096
-1.5416982 0.53775036 3.4905844 23.018
0.16637671 0.58745432 3.4067841 23.105499
0.22419363 0.55402666 3.4604356 22.103874
0.46360505 0.50930452 3.4263792 20.769501
0.57368207 0.55976117 3.470881 20.851124
0.67195475 0.51097274 3.4588151 20.431334
0.73324579 0.58337176 3.4632277 21.351124
0.97599781 0.55673778 3.44609 15.8635
1.0553697 0.54411185 3.4626389 15.879501
1.1308028 0.53187025 3.4425704 12.786488
1.2890797 0.59554237 3.4372208 16.0965
0.33433622 0.6058569 3.4499271 22.1035
0.54934955 0.63201976 3.4527683 22.851749
0.79716414 0.61973757 3.4758277 20.848125
0.84336501 0.67503548 3.4631133 17.593939
0.94019574 0.64781916 3.4659405 15.208107
1.0597262 0.64646888 3.4374671 13.965
1.1789947 0.64994103 3.4930797 17.095501
1.2093406 0.64643443 3.4621937 13.0945
0.62926024 0.74956471 3.4760561 21.101999
0.73890227 0.75713009 3.4105353 23.094999
0.88922125 0.75779772 3.4651778 19.094875
0.94227982 0.75214863 3.4308057 19.139084
1.0740615 0.75402641 3.4473934 16.2272
1.1431053 0.77838397 3.4514327 16.471813
1.410336 0.74818236 3.4722321 19.1005
-4.8005304 0.89686108 3.4411135 8.0179996
0.87679338 0.84874934 3.4623547 16.730667
0.94670534 0.84809887 3.4626284 17.798687
1.0505973 0.84152502 3.4591544 17.73
1.1418245 0.843274 3.4384217 18.104458
1.3560281 0.89490098 3.4977989 21.10025
0.9465723 0.94282645 3.4468346 16.446186
1.0433521 0.96906674 3.4341121 15.985199
1.1311042 0.95530111 3.402607 17.094875
-5.5218854 1.08381 3.4462254 8.0445004
0.8841995 1.0111434 3.4885788 19.5945
0.94454253 1.0382504 3.4618995 14.793438
1.0375623 1.0624056 3.4586487 19.087082
1.1468636 1.0519063 3.4460773 18.595249
-5.536499 1.1782856 3.4138379 8.0454998
-5.4058895 1.1837448 3.4875617 9.0459995
-3.1040616 1.1378785 3.4248605 14.0485
0.94655371 1.1445692 3.4434104 19.27305
1.0293632 1.1338117 3.4704134 21
1.1487312 1.1558914 3.4282131 23.092375
-5.868001 1.2740765 3.4177718 8.0439997
-5.517735 1.2869985 3.4714537 8.5469999
-5.3900495 1.2682008 3.4718075 9.033
0.97015435 1.2471941 3.4493139 20.145884
1.0345062 1.2437103 3.4150722 22.096626
1.1636356 1.2765659 3.4722292 17.087999
-5.7958479 1.3610005 3.4876909 9.0454998
1.0340166 1.3623791 3.479131 20.109701
1.1272517 1.3525562 3.4959064 17.377083
-5.5951314 1.4290761 3.4976039 10.0445
0.97572243 1.4064847 3.4558949 22.592751
1.1927707 1.4234202 3.4951673 20.089251
-5.6444774 1.5073266 3.4381094 10.039
1.0603528 1.5084668 3.4315791 23.0935
1.1262209 1.5747875 3.4882169 22.591499
1.2783808 1.561278 3.4729333 20.589874
-5.8657446 1.6617713 3.4605956 11.031
-5.5660863 1.6815617 3.4121039 11.0325
-5.3723221 1.6522943 3.4956183 12.033
1.02909 1.6746663 3.4584706 17.5
1.1426508 1.6476918 3.449338 20.142857
-5.8489623 1.7618835 3.479382 12.031
-5.6637096 1.7867851 3.4389749 12.0325
-5.4993372 1.7240472 3.479785 11.047
0.96092892 1.7938724 3.4965062 20
1.034731 1.7439587 3.4602046 20.085501
1.2934471 1.788691 3.4677036 23.09
1.3231113 1.7443302 3.407979 22.0905
-5.9264622 1.8215159 3.4332018 11.045
-5.5176353 1.8364316 3.4508538 12.0455
1.2351308 1.8713391 3.4732418 23.0895
-5.8571768 1.9463627 3.4811811 13.031
-5.3198996 1.9721568 3.4618726 14.031
0.91492486 1.9376361 3.4770637 22
1.0408525 1.9883916 3.4514585 21.084999
1.1262132 1.9001465 3.4560883 22.087749
-5.9551859 2.0599859 3.4669185 13.028
-5.5073338 2.0537817 3.4515028 14.0295
-4.9018617 2.0258496 3.4267745 16.0275
-6.0714021 2.13099 3.4047453 13.0435
-5.8683147 2.1984351 3.4785094 14.028
-5.5372853 2.1669428 3.432754 14.0325
-5.4776635 2.1723433 3.4561982 14.5375
-6.015924 2.3260348 3.4002149 14.0435
-5.3197055 2.3569798 3.4800637 16.031
1.053766 2.3005974 3.4633329 22.084499
-6.1325722 2.4961989 3.4250386 15.0305
-6.0489268 2.4097652 3.4033651 14.032
-5.6947484 2.4986455 3.471849 16.029499
-5.4908381 2.4270382 3.4805508 16.0455
-5.025569 2.4039135 3.4232621 17.0275
-5.8717289 2.5970089 3.4545538 16.045
-5.7594852 2.5321922 3.4326291 15.045
1.1731666 2.5666919 3.4753294 22.0795
-6.0495958 2.638617 3.4281337 15.0435
-5.8401389 2.6624317 3.4086671 16.043501
-5.6851645 2.6146669 3.4807997 16.044001
-2.9156649 2.6445971 3.4011917 21.0595
-2.8656855 2.6668506 3.4767396 21.059999
-2.2945247 2.6955504 3.4289336 21.0585
-5.7678804 2.7908449 3.4442677 17.045
-4.3803778 2.7929418 3.4853692 21.047001
-3.301038 2.7382102 3.4716284 22.056
-2.4722457 2.7574437 3.418978 22.061501
-2.377413 2.7587507 3.4376383 22.062
-2.2906311 2.7679553 3.4650919 23.0625
-2.1560254 2.776752 3.4835911 23.06325
-2.0162446 2.7729549 3.4863222 23.063999
-1.996096 2.7524588 3.451103 22.059999
-1.6714405 2.7876389 3.4073775 23.061501
-1.3552681 2.793303 3.4995232 23.063499
-5.869421 2.8706112 3.4147468 17.03775
-5.7448115 2.8427143 3.4525743 17.529999
-5.1413612 2.8672285 3.415081 19.0455
-4.6527028 2.8700798 3.4466403 21.031
-4.4254012 2.8296251 3.4156735 21.536751
-4.2800665 2.8571348 3.4440329 21.53875
-4.0008073 2.839201 3.4273121 22.050501
-3.925863 2.8330369 3.4827547 22.051001
-2.7475891 2.8148606 3.4446287 23.059
-2.6803117 2.8355968 3.4976225 23.0595
-5.8133726 2.9771867 3.4881821 19.0235
-5.7273054 2.9629617 3.4095831 18.03775
-5.4489403 2.9803228 3.4483993 18.046499
-5.3481379 2.9421425 3.4558468 19.044001
-5.1713648 2.9497809 3.4456103 19.032499
-4.4133334 2.9169405 3.431946 22.033001
-4.3474584 2.9671588 3.4282432 23.033001
-4.2212996 2.9194057 3.4220912 23.028999
-4.1614079 2.9738145 3.4393382 23.04525
-4.058022 2.9476376 3.4451072 22.7145
-3.9963915 2.9234107 3.4361408 22.008499
-3.8487651 3.1232841 3.4727087 23.008499
1.0692883 -0.21807815 3.5196955 2
-1.7711363 -0.1629039 3.5373182 0
-0.39286721 -0.12394759 3.5794525 0
0.99396086 -0.19393122 3.5041962 2
-5.0748034 -0.025759246 3.5333037 1
-2.0442131 -0.014119729 3.5479844 3
-1.9832394 -0.095509276 3.5479615 0
-1.8678403 -0.043900818 3.5218587 2
-1.5108547 -0.051313691 3.5623298 2
-1.4097807 -0.02268254 3.5721917 3.5
0.048650742 -0.087557346 3.5809984 2
0.64790696 -0.0097952634 3.5099556 8.1049995
0.73580903 -0.00066683069 3.525135 4
0.96944141 -0.079414234 3.5361285 2
1.034107 -0.020473003 3.5841093 5.0999999
0.49247998 0.082495287 3.5728309 9.1000004
0.61409694 0.079222128 3.5702562 11.104
0.75151372 0.072772354 3.5202277 6.54775
0.84330732 0.055219248 3.552474 6.8138733
0.93744659 0.053718943 3.5628359 8.5982494
1.0853932 0.054441795 3.5956457 8.4311666
1.189873 0.098592386 3.5520511 8.0944996
1.36502 0.089658961 3.5068908 8.1037502
0.64192724 0.14628106 3.5291598 10.098249
0.76939523 0.13603258 3.5413082 9.557251
0.8685509 0.12154853 3.5266652 8.5935001
0.96591377 0.1701221 3.5463159 10.032249
1.0874538 0.14880057 3.5585504 8.5935001
1.2188005 0.10046369 3.5189843 8.0950003
0.66624761 0.21907513 3.5499249 13.85
0.75101256 0.23711202 3.5344043 11.34
0.84747905 0.24009256 3.5616786 10.4074
0.92471951 0.23984946 3.5530357 12.263583
1.1405685 0.28343886 3.5668039 11.09425
2.4898975 0.27739364 3.5669897 8.0985003
0.65234017 0.38574284 3.5115948 18.097
0.7890417 0.34377566 3.5592413 16.432249
0.84421086 0.3617774 3.5491159 11.403264
0.95560473 0.35288092 3.5483446 12.21807
1.0671728 0.34340429 3.550668 11.441277
1.1973293 0.31960979 3.5219193 13.104
1.2662749 0.34470469 3.5733709 13.603251
2.4557045 0.39695191 3.5707073 9.0985003
0.65284818 0.45001665 3.5157542 20.105499
0.75799716 0.43497515 3.5558488 13.797875
0.83734214 0.44559991 3.5506945 12.935898
0.95774251 0.45659497 3.5529497 14.594375
1.0302453 0.45902532 3.5526848 12.841249
1.1726067 0.43979609 3.5404003 14.094749
1.2813585 0.46975532 3.5244575 15.104
1.3571949 0.43207583 3.590364 14.103
-5.3262472 0.52496648 3.5113552 4
-1.5618851 0.53767586 3.5711894 22.52025
-1.2310643 0.50081778 3.5069988 23.0235
0.38144308 0.57900238 3.5678055 21.101
0.78316307 0.53898191 3.5055933 20.096001
0.85096371 0.54994929 3.545011 15.0569
0.93680698 0.53481603 3.5390232 14.666499
1.0612717 0.54846442 3.5411766 14.592375
1.1241827 0.54382521 3.5550222 14.428291
1.2152808 0.51001436 3.539613 15.095
2.3618779 0.52647281 3.5193877 10.099
2.4578822 0.54538357 3.585618 10.0985
0.37070817 0.65521157 3.5488453 23.1015
0.75806099 0.6040554 3.5388942 21.098875
0.85658693 0.64120907 3.5586784 22.325312
0.94764024 0.6555481 3.5361328 19.565706
1.0599595 0.65705025 3.5676699 16.397165
1.188761 0.6372878 3.5539718 17.094749
0.84933531 0.75330859 3.5531936 16.831995
0.95538348 0.74107432 3.5461946 17.040657
1.0936003 0.70089746 3.5841899 17.099501
1.2288083 0.76730514 3.535305 20.849501
1.3020678 0.71306664 3.5635104 16.099501
1.4097831 0.75963253 3.5125036 19.1
0.8596704 0.81060338 3.5269434 22.59375
0.9589594 0.8194645 3.5422785 17.465937
1.0777037 0.85513717 3.5238051 15.012542
1.2698064 0.86609679 3.5474782 20.095249
1.3719032 0.88180447 3.5764925 21.1035
1.4390156 0.84133279 3.5191102 20.1
-5.0833035 0.97460467 3.570379 8.0319996
0.84852833 0.9199084 3.5421724 11
0.95384443 0.95148486 3.5585446 19.493149
1.0414941 0.95232165 3.5477068 19.042812
1.1491054 0.92602497 3.5189342 16.423834
1.9770534 0.99058008 3.5709028 16.099001
2.1939414 0.95709395 3.5504518 15.099
-5.5742211 1.0170529 3.5450668 7
-5.2522888 1.0554446 3.5376616 8.0465002
0.88228399 1.0374048 3.5156908 17.0895
0.94332975 1.0445852 3.5750697 17.393667
1.0806692 1.0185888 3.5148902 22.091
-5.7362485 1.1558683 3.5469503 8.0314999
-5.6402102 1.1340655 3.5605268 8.0459995
-5.5517211 1.1197535 3.5665421 8
0.89092779 1.163039 3.54283 19.591499
0.93036413 1.1578668 3.5438612 18.614721
1.0306306 1.117427 3.5774126 23.09
1.1314201 1.1344448 3.5142918 15.892499
2.3042407 1.1871917 3.5643942 17.099001
-5.6918826 1.2600778 3.5455816 9.0284996
-5.5499206 1.2946563 3.5404308 9
-5.3409042 1.2391635 3.5545993 8.5
-5.2588663 1.2234094 3.5772226 9.0407505
0.89334321 1.2149286 3.5639496 20.5
0.94000983 1.2350429 3.5534098 17.084875
1.1328521 1.2655988 3.5707567 16.043751
-5.6037364 1.3596503 3.539494 9
-4.9609156 1.3473481 3.5930054 11.032
0.8868854 1.3194524 3.5911427 23
0.93504226 1.3231041 3.5743263 18.586
1.0304774 1.380469 3.598556 18
1.1183015 1.3442905 3.5624235 17.79425
-5.9196486 1.4211156 3.5393779 10.0285
-5.6435847 1.4713825 3.5532146 11.0285
-5.5570979 1.4571779 3.569581 10.023
0.951998 1.4097723 3.528405 22.091999
1.1624367 1.4003901 3.5464542 19.088749
-5.8945346 1.5018218 3.5821249 10.0315
1.0045681 1.5282 3.5028682 15
1.2158936 1.591002 3.5741024 21.089001
2.2171171 1.5050019 3.5243711 20.099501
-5.8016543 1.6447965 3.5836861 11.0315
-5.5365148 1.636451 3.536526 12.03
-5.1862264 1.6529536 3.525013 12.045
0.88521993 1.6297346 3.5998158 19
0.92223889 1.6266276 3.5431707 17.0835
1.077575 1.6443855 3.5543377 22.59075
-5.8506441 1.7366266 3.5155799 11.27275
-5.3906202 1.7276397 3.5751297 11.0475
1.0121183 1.7635262 3.57161 21.043251
-5.3628507 1.8747554 3.5822902 13.045
1.035376 1.8961776 3.5475726 20.082626
1.1657838 1.8630867 3.5884361 23.088499
1.2118769 1.8754418 3.5466807 23.089001
2.1403878 1.8128687 3.5495825 23.099501
-5.8258762 1.957903 3.5841343 12.0445
-5.7813606 2.0176191 3.5872746 13.0285
-5.5284915 2.0938354 3.5280006 14.0445
-5.4842768 2.0409234 3.5626514 13.046
0.95096302 2.0134947 3.5815415 22.084499
1.0066867 2.0165563 3.5523829 20.084
-5.4183445 2.1482072 3.5366864 14.033
-5.3713808 2.1598604 3.5703297 15.03
-5.990922 2.2126598 3.5735092 14.03
-5.4605355 2.2848861 3.5468619 15.033
-4.6217656 2.2108834 3.5387073 18.018
-6.0227356 2.3354616 3.5275035 14.044
-5.8944774 2.3739357 3.5071895 15.0325
1.1109806 2.3355429 3.5246615 21.079
-5.5099239 2.4333701 3.5927858 16.030001
1.1261581 2.5812466 3.5584292 22.079
-5.8685207 2.654748 3.5116467 16.032499
-5.6050186 2.68926 3.5291529 17.0455
-2.7404001 2.6671634 3.545826 21.060749
-2.2622468 2.6849184 3.5358305 21.059
-5.2777057 2.7747641 3.5389385 18.0445
-4.8196511 2.7864223 3.5684934 20.028
-3.2098217 2.7404947 3.5093668 22.056499
-3.1376052 2.7595797 3.5609255 22.556999
-1.9353899 2.7572851 3.5190413 22.5625
-1.6664072 2.7591186 3.5881639 22.062
-1.5376749 2.768683 3.5005448 23.0625
-1.4530979 2.790524 3.5181327 23.063
-5.8829222 2.8158362 3.5427291 17.044001
-5.7458129 2.8925107 3.5209365 18.028
-5.0917873 2.8673689 3.5119665 19.046
-4.9523964 2.8575778 3.5312662 19.537998
-4.7102232 2.8790634 3.5056412 21.029499
-4.6484661 2.8436618 3.5346618 20.53825
-4.5399575 2.8485043 3.5493715 21.037333
-4.4399271 2.8881531 3.5769901 21.5
-4.3305316 2.8449984 3.5640602 21.701668
-4.2333112 2.8687534 3.545491 22.369501
-4.0903912 2.8890789 3.5627196 22
-3.8717623 2.8516312 3.557045 22.0515
-2.6014373 2.8371716 3.5167422 23.059999
-2.5121596 2.8408797 3.5491567 23.060499
-5.8158031 2.9365611 3.5301895 17.032499
-5.7226028 2.917717 3.5472736 18.031
-5.5754895 2.9743795 3.5140743 18.029499
-5.0903645 2.9338298 3.540092 20.033001
-4.3807282 2.9377608 3.5220518 22.033501
-4.2797985 2.9164619 3.5209432 22.530499
-3.937372 2.9489539 3.5456762 22.504501
-3.8973556 2.9392538 3.5985577 23.049999
-5.4634671 3.0005155 3.5988321 19.033001
-0.15033799 -0.20192745 3.6034057 0
0.74629635 -0.22207296 3.6912899 2
1.1928654 -0.21675906 3.6581092 2
-1.6117558 -0.12739959 3.6985645 1
-0.62814736 -0.10643883 3.6984797 0
0.18472469 -0.13675061 3.6185191 0
0.42765284 -0.17457519 3.6449466 0
0.56508148 -0.13982689 3.6921241 3
0.99194217 -0.19701912 3.6478262 1.3333334
-2.375566 -0.074807838 3.6046734 0.5
-2.1497178 -0.096088603 3.6592832 0
-1.9405892 -0.070109248 3.6212976 0.5
0.75921774 -0.036121 3.6380129 4
0.97179711 -0.02441043 3.692657 4
-5.3914351 0.091191128 3.6446245 2
0.62578267 0.036126077 3.6030645 9.6032505
0.74746102 0.059138641 3.6814525 6.3651671
0.82126915 0.07492277 3.6776695 3
0.9700411 0.079975471 3.6925042 9.0959997
1.0441685 0.048923567 3.6613398 6.5483751
1.1361182 0.091915131 3.6746709 8.5915003
1.4332662 0.073213965 3.6050689 8.1025
0.76575977 0.13858654 3.6515923 7.2982497
0.82803321 0.15854923 3.635462 9.7224169
0.97746438 0.18481529 3.6413136 8.8788338
1.006906 0.13140778 3.6422954 9.0901995
1.1772691 0.12821761 3.6171463 8.5957499
1.2794957 0.12024242 3.6600094 8.0950003
1.3231931 0.13304108 3.6970882 8.0944996
0.77003193 0.23561378 3.6621704 9.0629997
0.84910369 0.24976854 3.6362846 10.922584
0.98738623 0.24978191 3.6046269 6
1.0314778 0.27864644 3.6490691 11.979917
1.2479056 0.23210225 3.6777086 10.596001
-4.9430265 0.38590163 3.6582608 3
0.75528574 0.34191075 3.679188 11.560051
0.82005543 0.33941624 3.6366894 11.200833
0.94393253 0.34425497 3.6562498 12.214875
1.0484339 0.34068143 3.6439762 13.177708
1.1463308 0.36945063 3.6066875 12.093
1.2608052 0.33507866 3.6529148 12.428667
1.3148673 0.34274498 3.6446695 13.10225
2.521559 0.38049805 3.6366544 9
0.37499419 0.40113893 3.6245365 9.0825005
0.78736812 0.42332152 3.6015806 18.1035
0.82491565 0.45866737 3.6369927 12.130333
0.96296436 0.46640083 3.6425929 12.470165
1.0078764 0.429708 3.6314502 8.5869999
1.1527091 0.44479477 3.6644335 13.7615
1.241529 0.45504507 3.6473446 13.721251
1.3869245 0.42483363 3.6288388 14.1025
-1.5715467 0.55202371 3.6159649 23.0215
0.68668741 0.5329442 3.6157825 22.1035
0.79532111 0.53281271 3.6584334 11.5
0.82936406 0.54617441 3.6422701 14.992709
0.91888118 0.53590131 3.6218097 9.7983751
1.0319867 0.57214749 3.6353645 17.841499
1.1270419 0.5491541 3.6518376 16.759249
1.237148 0.55476344 3.6384468 16.095751
1.377664 0.53194815 3.6631007 16.09
2.5522628 0.56415665 3.6506844 10.598
-3.1132054 0.67149651 3.6710076 11.0245
0.74064666 0.6495474 3.6484196 17.428251
0.82333618 0.63059586 3.6003888 22.0975
0.93854833 0.69524181 3.6398885 19.092499
1.0189102 0.62021732 3.6692042 13.338625
1.1653244 0.66955048 3.6933887 18.093
1.2318532 0.67120385 3.6528764 19.09325
1.3057654 0.62732708 3.692333 17.094999
0.85252041 0.74944359 3.6241541 12.43775
0.9268465 0.74379408 3.6475592 22.130068
1.0445229 0.76043528 3.6385148 18.093416
1.1589508 0.78111589 3.6641283 21.343376
1.2415075 0.7751497 3.6780801 21.0905
1.3281417 0.79883999 3.6597323 20.098
-5.0325656 0.86998379 3.6558619 7
0.61311501 0.83507401 3.6948721 23.098499
0.84945679 0.84921002 3.6622574 16.728083
0.93462038 0.80639333 3.6412406 19.780125
1.0131947 0.85122728 3.6616683 16.4538
1.1146185 0.86027074 3.6980014 22.095501
1.2610288 0.86789101 3.6228359 20.762331
-4.1493406 0.91595662 3.6512668 10.0245
0.86081046 0.94638968 3.6640327 16.875801
0.93798941 0.94697356 3.6672676 18.728916
1.0561857 0.91921186 3.6582043 21.091667
1.1002423 0.91248739 3.6399453 14.088
1.2227768 0.90520006 3.6594222 23.091
1.4727261 0.90931344 3.668488 20.768999
2.3884137 0.96548855 3.6066694 15.0985
2.4753783 0.93132436 3.6019917 14.0985
-5.7115359 1.0122689 3.6462541 8.0290003
-5.3693056 1.0219673 3.6060474 7
-5.2714176 1.0298536 3.6745436 7
-5.1087952 1.0748578 3.6273613 9.0340004
-5.0349274 1.0559913 3.6724799 8
-4.9766703 1.0539579 3.6713676 8.0474997
0.86719 1.0545442 3.6696784 18.091301
0.93874919 1.0483378 3.6443551 23.088625
1.0703629 1.0438142 3.6662769 22.758417
2.4882419 1.006834 3.6753693 15.098
-5.6115923 1.1187289 3.6430755 8
-4.975378 1.1811024 3.6824102 9.0474997
0.87587452 1.148291 3.6570957 18.857124
1.1292372 1.1622788 3.6905279 16.543999
2.0195849 1.1326991 3.6462903 18.098499
-5.6161194 1.2488254 3.6629105 9.0319996
-5.4873223 1.2340347 3.6654277 10.029
-5.1694121 1.23392 3.6554649 9.0153332
0.87474203 1.2333018 3.6677349 22.062166
0.94355232 1.2113359 3.6769271 18.755835
1.0430881 1.2840707 3.6531761 16.293251
-5.5874834 1.3662068 3.6753829 9.0465002
-5.4435239 1.3814512 3.6687603 11.029
-5.1632004 1.3553815 3.6141915 10.25
0.87848365 1.3297234 3.6368787 22.091999
1.0164822 1.3873522 3.6138203 18.0865
1.1190014 1.3647159 3.6615303 18.293999
-5.4706526 1.429446 3.6345944 10.0465
-5.2630453 1.4595195 3.6839042 11.034
-4.9896283 1.4157636 3.6742191 11.046
0.89508909 1.494575 3.6011364 16.08325
0.97820783 1.4095199 3.6441741 19.587875
1.0449494 1.4008574 3.6663394 17.0865
-5.5429277 1.5377866 3.647995 10.5
-5.0875878 1.5440593 3.6102629 11.5
-4.9470358 1.507937 3.6948175 11.0475
-3.7044559 1.5807211 3.6367393 18.024
0.95795202 1.5534891 3.6101537 19.084749
1.1746131 1.5943575 3.6576467 20.421667
-5.5583935 1.6513796 3.6399469 11.01675
-5.0606899 1.6568378 3.651149 12.034
0.85642034 1.6308285 3.6491477 17.694334
0.9829905 1.6098231 3.6802649 19.086
1.0629011 1.6462408 3.6280918 21.726831
-5.5799904 1.706902 3.6815059 12.032
-4.8216667 1.736071 3.6943588 14.0325
-3.7545874 1.7958391 3.6453638 19.024
0.91492081 1.7640458 3.678858 21.085501
1.0242443 1.7266374 3.668329 21.838001
-3.6840522 1.8474164 3.6601081 20.024
0.92687374 1.8667822 3.6546676 20.362165
1.1330184 1.867058 3.652776 23.087999
-5.7596178 1.951628 3.638401 12.046
-5.5060315 1.925739 3.6855452 13.032
-5.3835516 1.9815412 3.6480985 13.0465
0.88684332 1.9457066 3.6865895 21
0.97737646 1.9251244 3.6614265 20.082001
-5.4762969 2.0501802 3.6278386 14.045
-5.3555384 2.0072174 3.6603801 14.0305
0.88354933 2.0487309 3.62501 22.042
-4.487411 2.1365473 3.6399429 18.0285
-5.2318134 2.2882187 3.6159754 15.0465
-5.1164417 2.3107235 3.6448898 15.048
-5.0250063 2.3490789 3.6971388 17.034
0.99963617 2.3165224 3.6896844 23.084499
-5.4156456 2.4610953 3.6381996 16.045
-5.7526789 2.5449188 3.6455479 15.54525
-5.5643129 2.5875108 3.6008501 17.030001
1.0682272 2.5895448 3.6757185 22.078501
-5.7438416 2.6071243 3.6457934 16.0315
-5.6978245 2.6788411 3.6598849 16.046
-5.4738541 2.6090434 3.6812737 17.033501
-2.6149321 2.6596448 3.6008284 21.061501
-2.5194612 2.6460736 3.6248436 20.560001
-2.4452767 2.6527896 3.6606488 20.560501
-2.3327234 2.6560922 3.6665502 20.811001
-2.2242644 2.6302822 3.6651595 20.5595
-5.7601357 2.7614708 3.6362073 17.0445
-5.6638813 2.7085969 3.6186523 17.033001
-3.8764656 2.7905908 3.6608086 21.052
-3.0215104 2.7731078 3.6319277 23.057751
-2.9322119 2.7446594 3.6714149 22.05875
-2.8024824 2.7718806 3.6936288 23.059
-2.3939598 2.7133009 3.6176345 22.0625
-2.2414317 2.7243135 3.6996441 22.063499
-1.8502055 2.7429276 3.6343594 22.563251
-1.6031255 2.725955 3.6619699 22.0625
0.73790324 2.7418385 3.6869891 23.0765
0.85228598 2.7732656 3.6480694 23.07725
-5.5545168 2.8742602 3.6353159 18.046
-5.4080777 2.8139853 3.619669 18.030001
-5.1462979 2.8866832 3.6283944 19.045
-4.9195356 2.8425229 3.6692548 19.047001
-4.7057729 2.88889 3.6045446 21.030001
-4.64007 2.8342319 3.6440492 20.54575
-4.5536723 2.8614569 3.6482825 21.032
-4.4617767 2.8725219 3.6274049 21.765999
-4.3239784 2.8568785 3.650187 22.52825
-4.2867732 2.8114905 3.6535854 21.048
-4.1631403 2.8491113 3.6594625 21.025
-4.0391111 2.8883619 3.6469026 21.9
-3.8497224 2.8889897 3.634263 22.009501
-3.760078 2.8511117 3.6466405 22.05225
-0.8955726 2.8039594 3.6617906 23.0665
-5.7548928 2.9224212 3.6416848 18.033001
-5.6808243 2.9145122 3.6464825 18.0315
-4.9724007 2.9049726 3.6153851 20.03175
-4.3057766 2.9422941 3.6485784 23
-4.2457161 2.941946 3.6596377 23.0215
-4.1970673 2.9055865 3.6842675 23.0305
-3.8289931 2.9367118 3.6470747 23.050501
-6.6373529 3.031244 3.6922905 17.0245
-6.5502129 3.0933444 3.6048489 17.031
-3.8333142 3.0595043 3.6407278 23.009501
0.73229712 -0.21942174 3.7376647 1.5
1.1571934 -0.28415912 3.7697897 2
1.291877 -0.27748501 3.7434151 2
1.3086855 -0.2112163 3.7015209 2
-1.605547 -0.16897464 3.7438359 0
-1.4481094 -0.18966076 3.7457874 0
-0.71314681 -0.11374201 3.7806506 0
-0.33084896 -0.11258111 3.7119169 1
-0.26174757 -0.11459798 3.7411566 2.5
0.21329954 -0.15215166 3.741256 1.75
0.52923346 -0.15631747 3.7524984 0.5
0.81999546 -0.16657469 3.7731185 3
1.000149 -0.12377922 3.7894516 5
-2.6986549 -0.054934684 3.7707648 1
-2.1885874 -0.092597269 3.7464387 1
-2.0197313 -0.072449669 3.7591884 2
-1.3984544 -0.047295272 3.7914193 4
0.66759282 -0.027667984 3.7814276 8.0994997
0.8206566 -0.01979183 3.7213318 4.5
1.2954003 -0.076186053 3.736876 4.4000001
1.3614359 -0.07036157 3.7959907 5
-5.2649717 0.078945801 3.7348948 2
0.7666977 0.069735043 3.7517917 7.2950001
0.803931 0.0247653 3.7360563 3
0.94449759 0.074809149 3.7409129 7.1148772
1.0588535 0.037056264 3.7554653 7.046
1.4369283 0.065555088 3.7699807 8.0880003
0.74531889 0.14370793 3.7418582 8.1574163
0.84754497 0.15748122 3.7328911 8.8515997
0.96789348 0.15836388 3.7273455 9.5889997
1.0993123 0.17700584 3.7730844 10.0915
1.1920519 0.16817595 3.7494686 10.096
1.3759069 0.11885691 3.7739134 8.0935001
-5.0403957 0.2945326 3.7567401 3
-4.8252053 0.25089467 3.7354264 3
0.73821402 0.26405224 3.7197735 15.351125
0.99381202 0.28228432 3.7822957 10.0875
1.036042 0.24724545 3.7633972 11.75925
1.1395209 0.27882248 3.7623827 10.597
1.3177615 0.21259408 3.7321794 10.429749
1.4372258 0.26840049 3.7812281 11.588
-5.0041323 0.31573862 3.7496176 3
0.67936581 0.3339805 3.7422097 17.60075
0.76771677 0.3560932 3.7465079 9.4814281
0.85599375 0.37210268 3.7693477 11.715813
0.94157088 0.32241246 3.7636616 12.089
1.3449526 0.3310208 3.7274942 11.92025
1.4537172 0.3483409 3.7578545 12.707749
-3.1534562 0.43723023 3.7915411 8.0257502
0.7737909 0.42076778 3.7510824 15.874611
0.85480022 0.46214688 3.7310605 9.3970003
0.95043182 0.49203354 3.7618253 11.452716
1.0365443 0.46904576 3.7717285 15.091249
1.1024525 0.44782752 3.7539854 14.425167
1.3633308 0.4569864 3.7495866 14.432794
1.5575199 0.45622212 3.7561636 14.08825
0.770693 0.51969594 3.7399757 12.895667
0.86761421 0.53174913 3.7025847 19.601749
0.9419173 0.54047871 3.7360933 13.338625
1.0441363 0.58463883 3.7191346 17.091999
1.1064386 0.57891643 3.7473328 16.091999
1.3324518 0.57536125 3.7074749 16.29475
1.4538689 0.55419677 3.7397296 16.338749
1.5429957 0.528355 3.7923007 15.421165
0.84908766 0.61891538 3.7384608 12.752
0.94903755 0.62012839 3.7086458 9.0845003
1.0263616 0.6882844 3.7648859 17.087875
1.1446688 0.67686105 3.7218618 18.092501
1.3098204 0.65943897 3.72644 17
1.4314575 0.65321779 3.7566347 18.088625
0.78907007 0.70769769 3.7157106 20.098
0.86121368 0.74736071 3.7528837 17.019285
0.91728783 0.76282406 3.719095 13.047875
1.0344603 0.76865524 3.7331872 12.0435
1.1607089 0.79774499 3.735512 21.5965
1.2317462 0.78568608 3.7352526 20.59675
1.3873975 0.78208226 3.7465463 20.089001
-4.9548225 0.83814126 3.7824936 8.0314999
0.65744644 0.82565188 3.7229555 23.098
0.77423698 0.85028857 3.741504 16.089666
0.87067419 0.82835919 3.7581093 19.256582
0.94984794 0.84767056 3.7349219 15.774644
1.0416791 0.85872686 3.7601109 18.591375
1.1455638 0.89301044 3.7902007 20.425165
1.2289472 0.85760587 3.7348003 21.094749
1.3194104 0.83395636 3.7824221 20.214916
1.4705167 0.85590374 3.7462192 20.595123
-4.9965754 0.99535519 3.7573199 8.0504999
-4.8909402 0.93545973 3.7971292 8.0469999
-4.7727585 0.97444618 3.7524123 8.5419998
0.78313643 0.91140497 3.7743654 12.292938
0.86565423 0.94761521 3.7367451 17.029501
0.92000932 0.93985194 3.7401078 16.612701
1.0430309 0.96273595 3.7711349 21.69305
1.1962631 0.94319642 3.7272859 22.094999
1.285856 0.92477977 3.7662044 21
1.3405869 0.91523969 3.7346127 23.0895
1.4363575 0.94030493 3.7476773 22.089001
1.5084183 0.9424752 3.7391191 21.1015
-5.504096 1.0281098 3.7061067 8.0340004
-5.2982612 1.0623173 3.7113967 8.0459995
-5.1574049 1.0497061 3.7941983 8.0465002
-4.9167337 1.0384156 3.766763 8.6943331
0.83230209 1.0809855 3.7633801 19.395582
0.94807518 1.0441167 3.7529335 22.0875
1.048022 1.0496249 3.7495241 19.589626
1.2707841 1.0439801 3.7629373 23.0945
1.3316216 1.0559076 3.7980936 23.094
1.4557652 1.0221267 3.787863 23.088499
2.3666506 1.0324314 3.7517171 15.0975
-4.9544172 1.1238089 3.7354889 9.5
-4.836061 1.1661373 3.7704227 9.3658333
0.83899933 1.1588287 3.7462239 17.4655
0.96973878 1.1469369 3.7968221 23.08725
1.1286373 1.1780124 3.7382834 16.391832
2.2270868 1.1649562 3.7549977 17.0975
-5.2712564 1.2285427 3.7458265 9.0485001
-4.9333153 1.2396985 3.782954 9.7107496
-4.890481 1.289445 3.7701402 10.5
-4.6638298 1.2099386 3.7340875 11.033
0.8769154 1.2593728 3.7731912 20.196749
0.93835068 1.2679486 3.7561698 17.542875
1.0701758 1.2392223 3.7085619 17.0875
-5.3449993 1.3837138 3.7025995 10.047
-4.9651408 1.3770218 3.7548952 10.698501
-4.8313713 1.3575838 3.783015 11.035
-4.7695522 1.3397046 3.7940936 11.047
0.86554646 1.3650229 3.7946582 22.091999
0.93324202 1.349131 3.7584965 18.555555
1.074698 1.3154533 3.7431922 17.777779
-5.5783901 1.4250033 3.7715816 10.0325
-4.8734579 1.4473705 3.7735634 11.048
0.79108894 1.4843115 3.769794 17
0.85399306 1.4478036 3.7592034 18.231667
0.94264495 1.431847 3.7304773 19.08725
1.0889267 1.4038954 3.7299557 18.5875
-5.5889053 1.5670134 3.7115552 11
-5.4034166 1.5700219 3.7534347 11.047
-4.9040031 1.5234232 3.7852917 13.0295
0.83615416 1.5524607 3.7979319 16.0825
-5.53826 1.6325415 3.7579038 11.266251
-5.0140238 1.680846 3.7446527 12.0475
-4.8921824 1.6041222 3.7609305 12.0465
-4.7000141 1.6118348 3.7861571 12.051
-4.6638293 1.6583989 3.7641158 14.033
-3.7670414 1.6363006 3.7687764 18.025
0.83658701 1.6397578 3.7366352 18.06275
0.95548844 1.6192751 3.7438431 20.816313
1.0420766 1.6567405 3.7854712 22.029833
1.1155185 1.6022696 3.7542968 20.0875
-5.1715078 1.7166375 3.727109 12.0485
-5.0376439 1.7733176 3.7288043 13.040501
-3.7339504 1.7974668 3.7140515 20.0245
-3.6760321 1.7810012 3.7812142 20.025
0.85565013 1.7635986 3.736295 19.722666
1.0185206 1.7813541 3.7648797 23
-5.5180273 1.8910712 3.7494564 13
-5.1457729 1.8747149 3.7672422 13.046749
1.0228857 1.8290707 3.764622 21.084665
1.1031847 1.8702986 3.7258096 23.0875
-5.3598576 1.9564836 3.7065287 13.537251
-5.2496099 1.908954 3.718261 13.047
0.86834699 1.9134511 3.7592766 21.084249
0.91021144 1.9278775 3.7531955 20
1.0024087 1.9801071 3.7916059 23.0865
-5.0120063 2.0291882 3.738203 14.05
-4.8442492 2.0889993 3.7219329 16.032499
-4.7417178 2.0279126 3.795146 16.033001
0.91113406 2.0314691 3.759608 19.083
-5.2016582 2.1846511 3.7102852 15.034
-5.1199827 2.1263967 3.7521045 14.0485
-5.0674162 2.1811209 3.7841632 15.0475
-4.6587415 2.1614931 3.7874038 17.033001
-5.4988456 2.2113807 3.7668791 14.0455
-5.1728172 2.2453184 3.7096589 15.047
-5.044785 2.2922809 3.7701159 15.02425
1.005872 2.2662504 3.7523613 20.077999
-5.2044158 2.3138659 3.7933354 16.031
-4.9591618 2.3224363 3.7871039 17.0345
-5.5373001 2.4852576 3.7365739 16.046499
-5.450429 2.4781415 3.7167723 16.032
0.93887466 2.4401853 3.7941544 22.083
1.0147278 2.4112625 3.7744472 21.077999
-5.558682 2.5090406 3.7054925 16.0305
0.97428727 2.5975976 3.7740574 22
1.0097947 2.5051491 3.751992 23.0835
-3.3776314 2.6198413 3.7736399 21.056999
-2.978637 2.6754301 3.7126975 19.056499
-2.8645306 2.6734581 3.7372739 19.056999
-2.7231917 2.648582 3.7208908 20.057501
-2.2897143 2.6765437 3.7666676 21.063499
-2.1618826 2.6325836 3.7507746 20.559999
-2.0471809 2.6382658 3.72505 21.060499
-1.9504044 2.6438732 3.7440984 21.061001
-1.8255736 2.6782758 3.7066782 21.061501
-1.766584 2.6594057 3.7977965 21.062
-1.6635094 2.6582856 3.7915173 21.0625
-1.5740883 2.6636515 3.7993121 21.063
-1.4720604 2.6664248 3.7895095 21.063499
1.0062163 2.6007128 3.7496462 22.077999
-5.6870394 2.7638643 3.7411432 17.045
-5.2788482 2.7397339 3.7777729 18.034
-4.6517773 2.7601612 3.783608 20.048
-3.551563 2.7534232 3.7712455 21.054501
-2.8465047 2.7137387 3.7417474 21.05975
-2.7123828 2.7396584 3.7548568 22.059999
-2.1403818 2.7186344 3.7046115 22.063999
-2.0604298 2.7464738 3.7222159 22.064501
-1.7508094 2.7712402 3.7886727 23.06625
-1.60357 2.7563729 3.7507625 23.066999
-1.5243142 2.7347145 3.7485986 22.56525
-0.92791069 2.7271557 3.7900181 22.0665
-0.83933914 2.7404909 3.7918215 23.066999
-0.74911433 2.7555013 3.7813082 23.067499
-0.65831345 2.7610555 3.7603147 23.068001
-0.57036573 2.7725852 3.7473128 23.068501
-0.44565332 2.7747908 3.7448146 23.06925
0.33607572 2.7514484 3.7803519 23.073999
0.41469207 2.755197 3.7264977 23.074499
0.66639745 2.7456818 3.7600877 23.076
-6.7696786 2.8700924 3.7990932 16.025
-5.546597 2.8541594 3.7324147 18.0385
-4.9757223 2.8397403 3.7804608 19.046
-4.8589411 2.8531139 3.7174795 19.704
-4.7921958 2.8382461 3.7829585 20.0345
-4.6564355 2.8671749 3.7442358 21.0345
-4.5466518 2.821275 3.7727194 21.03875
-4.4633899 2.8401065 3.7552471 22.03175
-4.3446946 2.8652275 3.7866123 22.365667
-4.2323041 2.8144124 3.7157116 22.0485
-4.1499577 2.8552129 3.7770231 22.540001
-4.04987 2.8559623 3.7803483 21
-3.9495654 2.8981681 3.7305326 22
-5.705996 2.9904222 3.710155 19.0245
-4.462729 2.9032309 3.7146924 22.0345
-4.2425342 2.9475789 3.7547019 23.035
-4.1151614 2.9860311 3.7332435 23.047001
-3.8680589 2.9181714 3.7102473 22.5
-3.7322645 2.9451036 3.7414794 23.05125
-1.189505 -0.20647702 3.8740659 0
-2.3945966 -0.12817509 3.8346968 0
-1.9946491 -0.12076594 3.8055587 0
0.3053658 -0.19783129 3.8538816 0
-2.5755022 -0.062295657 3.8854947 1
-1.7788274 -0.083472766 3.8302736 2
-1.1137488 -0.058235623 3.8342929 4
0.8606782 -0.045495439 3.8273945 3
-5.2731457 0.062040865 3.8077095 1
-4.8129888 0.075680934 3.8440394 2
0.96799374 0.06052205 3.8766742 8.0942497
-5.0573416 0.11083858 3.8947945 2
0.75372982 0.148976 3.8493953 9.2746878
0.83938366 0.15117057 3.8601284 8.5604162
0.9331097 0.19511931 3.8475745 9
1.0434086 0.13796227 3.8762734 9.0900002
1.1394885 0.15319134 3.8093522 10.094999
1.3939157 0.12905699 3.8151531 8.59025
1.4602098 0.10853449 3.8294125 8.0600004
1.5172887 0.11174085 3.8790915 8.0865002
0.68308228 0.21919361 3.8682456 14.76475
0.7481249 0.24537589 3.8568525 9.6978331
0.8005349 0.28015652 3.846076 9.0939999
0.94509095 0.27194247 3.8515728 10.558667
1.059319 0.21090917 3.8583643 12.094
1.1788573 0.26884973 3.802583 10.0965
1.3788381 0.23405604 3.8193674 10.5965
1.4254762 0.23874255 3.8383191 10.592751
1.5073341 0.23335785 3.8333077 10.753833
0.67845088 0.3646253 3.8783224 18.098
0.75674182 0.35088503 3.8565137 13.395917
0.84319341 0.34484076 3.8335238 9.5440006
0.93198782 0.35854837 3.8475959 12.153584
1.0197818 0.31335956 3.8686967 12.09
1.497211 0.31324509 3.8313813 12.1
1.5816636 0.36605367 3.8832648 12.0995
-5.453186 0.43069467 3.8072534 4
-4.8488121 0.40812904 3.8501015 3.8
-4.7458973 0.43026912 3.877079 4
-4.6561804 0.42198285 3.8945234 4
-1.2713878 0.48999134 3.8071668 23.032
0.73789203 0.44292265 3.8428907 13.424376
0.88488305 0.45393759 3.8583202 15.29675
0.92478889 0.44681522 3.8255129 14.091249
1.0124521 0.48618847 3.8241224 15.0905
1.1221869 0.47166961 3.83391 14.091
1.3503492 0.49512926 3.8019671 15.0935
1.4239649 0.44946447 3.8323531 14.0965
1.5876973 0.49924749 3.891705 14.833333
-3.8343542 0.58919537 3.8796248 8.0305004
0.72011811 0.53854704 3.8449752 22.099001
0.85766387 0.54581493 3.8461475 17.760252
0.99122232 0.51920092 3.8683491 9.5865002
1.4155185 0.53838778 3.8608704 15.092751
1.538805 0.57031131 3.8239844 16.093876
1.6082722 0.50174791 3.8472288 15.087
-4.1004996 0.69286436 3.8565955 8.0345001
-3.8690953 0.6821574 3.8379195 9.0200005
-3.1321876 0.66178912 3.824878 11.026
-3.0873489 0.60015297 3.8741615 11.0265
0.76670176 0.68180847 3.8259211 9
0.85520136 0.64970011 3.8528402 16.967251
0.94441295 0.61193395 3.8348975 9.5
1.3772755 0.64305079 3.8185368 16.762335
1.4528681 0.66108608 3.8545685 17.719875
-4.8490443 0.79476929 3.8822951 6.75
-4.641222 0.71106046 3.8786001 5.5
-3.8828664 0.78899586 3.8897941 10.0305
0.76510274 0.75132608 3.8300939 12.42
0.83370751 0.70276833 3.8217161 23.099751
0.97496432 0.76859415 3.8679161 22.59375
1.0531627 0.76826936 3.8742008 18.258249
1.1296985 0.70526934 3.8026226 18.091499
1.2860067 0.79650104 3.8050711 20.096001
1.3635947 0.77474606 3.8144884 18.700001
1.4315634 0.72790337 3.8388748 18.060165
2.4267297 0.7836315 3.8093038 13.097
2.5159385 0.7800225 3.8779826 13.0965
-4.7587013 0.81670451 3.8634343 8.0319996
-4.6726341 0.87575573 3.8699617 8.0489998
-3.5424786 0.81214243 3.823761 9.0109997
-3.0832195 0.83583277 3.8629174 13.52625
0.78620028 0.83781338 3.8131886 14.632167
0.96022189 0.84731781 3.8475871 18.45385
1.0530198 0.87122422 3.8472896 23.0945
1.1630948 0.84185964 3.8620183 21.317389
1.4741567 0.88589436 3.8330648 21.666666
1.5289432 0.88232839 3.8802314 21.087
-5.2296638 0.94715422 3.8067541 8.033
-4.754065 0.93578523 3.8545365 8.0474997
-4.6574302 0.98188281 3.8275204 8.0515003
-4.1588254 0.91382861 3.8905745 10.0345
-4.0616193 0.92050111 3.8070669 11.0255
-3.4523399 0.9781521 3.8367209 10.011
0.79284036 0.97794676 3.8499267 15.5885
0.86315107 0.93521291 3.8208802 16.560833
0.93151879 0.95627499 3.861994 20.561167
1.0102478 0.99691767 3.8642592 14.0865
1.4935664 0.93979269 3.8142481 22.087999
-5.3102684 1.0145514 3.8730304 9.0299997
-4.8149347 1.0634511 3.8389411 9.0485001
-4.7164531 1.0810666 3.8575914 8.6785002
-3.0097382 1.098366 3.8526478 17.025999
0.77796471 1.0603439 3.8051739 12
0.92862445 1.0543852 3.855201 20.420832
1.386225 1.0498606 3.8817296 22.25
1.4763832 1.005496 3.8555067 23
1.5126886 1.0081791 3.8887713 23.087
2.3694282 1.0411527 3.886507 16.0965
-4.8465734 1.1616981 3.8478265 9.7677498
-3.9338543 1.109586 3.8847027 13.026
-3.8680894 1.1459299 3.8588624 13.02
0.78503966 1.149248 3.8464508 20.091
0.85748857 1.1380268 3.8494511 18.894501
0.9286024 1.1511998 3.8524942 20.293251
2.3092904 1.1714425 3.8218842 17.097
-5.1708584 1.2314374 3.818294 9.0489998
-5.0050383 1.2823963 3.8077905 10.048
-4.9064007 1.2454301 3.8797667 10.0485
-4.6555738 1.2741529 3.8567722 10.5495
0.86355358 1.2731308 3.8532879 17.085499
-5.3150587 1.3579191 3.8258672 10.0475
-4.7831154 1.3965062 3.821085 11
-4.6733704 1.3257027 3.8943782 11.049
0.84578085 1.3622949 3.8745766 22.592751
0.83244962 1.462994 3.8673325 15.789875
1.0040555 1.4783633 3.8867188 19
-5.3185964 1.5745312 3.8583825 12.033
-4.7767415 1.5897211 3.8905268 13.0355
-4.686235 1.511222 3.8826146 11.0515
-4.5788999 1.5499191 3.8285184 12.0515
0.92258507 1.5862761 3.8023465 15.0775
-4.8449693 1.6009165 3.8307545 12.291
-4.6500454 1.6414609 3.8687444 13.041
-4.1078219 1.6899656 3.8157988 16.019501
-3.7031622 1.6019309 3.8341832 18.025499
0.7891804 1.6395206 3.8580494 19
1.049098 1.6069549 3.8689444 20.725166
-4.9433041 1.7781708 3.8923941 13.047
0.80758488 1.7241164 3.8636284 18.083
0.95213985 1.7316775 3.8643229 19.082874
-5.2915058 1.8404318 3.8826711 13.033
0.94693851 1.8577271 3.8380828 19.581749
1.0130923 1.8616037 3.8174012 22.0865
-5.4416709 1.9421446 3.8224235 14.0295
-5.2065058 1.9782499 3.8235366 13
-5.1298895 1.9287983 3.8554046 13.049
-4.772871 1.9428986 3.8435879 15.0315
-4.5980144 1.9521613 3.8630695 16.033501
0.82887721 1.934921 3.838871 21.084499
0.95926225 1.9754937 3.8481932 23.086
-5.13941 2.040128 3.8174665 13.5
-4.8640203 2.0765815 3.8151035 15.048
-4.7567806 2.0192649 3.8794544 15.0485
0.88198638 2.0917733 3.8277693 21.0835
0.94602579 2.0019629 3.8822646 18.077499
-5.5272245 2.1328995 3.8261867 15.0295
-5.1491032 2.1377532 3.8020244 14
-4.5831232 2.1935401 3.8737133 17.033501
-5.0285864 2.2890928 3.8159292 15
-4.970192 2.2680345 3.8042421 15.049
-4.6446667 2.2349753 3.8063178 16.051001
0.98511678 2.2909951 3.8200655 20
0.90233946 2.4300671 3.8987329 20.5
0.90883106 2.5847669 3.832237 21.5
-3.3162432 2.6345363 3.845547 21.057501
-3.1097791 2.6547327 3.8218684 20.059
-3.054101 2.674706 3.8684578 21.059
-2.9955471 2.6834719 3.8937089 22.059
-2.1554542 2.6810808 3.8088748 21.064251
-2.0617828 2.6582775 3.8322577 21.06275
-1.9542413 2.6537843 3.8342748 21.063251
-1.8944585 2.6244376 3.8468485 20.061501
-1.3919526 2.6844301 3.8151515 22.063999
-1.2943391 2.6874399 3.8089068 22.064501
0.85982311 2.6120949 3.887202 22.077
0.94740868 2.6324449 3.8509436 22.58025
-4.8821206 2.7791412 3.8406601 18.050501
-4.7055988 2.7299306 3.888948 18.051001
-4.5749969 2.751591 3.8585186 20.0485
-4.3175039 2.785104 3.8493032 20.05175
-4.1141596 2.7275364 3.8946404 20.0525
-3.4566004 2.7577889 3.8551881 21.05525
-2.8721666 2.7484708 3.8902926 22.0595
-2.6698725 2.7621546 3.8355238 22.560501
-2.5531793 2.7215974 3.8687119 22.061501
-1.8439455 2.7007015 3.8800941 22.066
-1.6584859 2.7142375 3.8995876 22.066999
-1.3830035 2.7355647 3.8912301 23.068501
-1.2276697 2.724865 3.8494663 22.567125
-1.1138723 2.7330194 3.8321512 22.567749
-1.0217124 2.7343187 3.8286624 22.066
-0.85846186 2.7007074 3.895436 22.066999
-0.76817536 2.7261922 3.8946373 22.067499
-0.67449409 2.7262721 3.8696392 22.068001
-0.33016557 2.7588201 3.8327606 23.07
-0.25126183 2.7444477 3.8940725 23
0.17153519 2.7357798 3.8651619 23.073
0.2551102 2.7456751 3.8300614 23.0735
0.42515534 2.7056315 3.8832605 22.074499
0.53506374 2.7214603 3.8346581 22.741835
