# .PCD v0.7 - Point Cloud Data file format
VERSION 0.7
FIELDS x y z intensity
SIZE 4 4 4 4
TYPE F F F F
COUNT 1 1 1 1
WIDTH 1212
HEIGHT 1
VIEWPOINT 0 0 0 1 0 0 0
POINTS 1212
DATA ascii
1.0413277 0.97243351 3.3988843 18.466866
1.3333026 0.92883176 3.3288927 20.075178
1.9329842 1.0627036 3.4673867 17.1
2.2490911 1.0721428 3.5574231 16.099001
-6.2119884 1.4341753 3.2430663 8.9635
-5.8230491 1.4383098 3.4247119 9.7026262
-5.4446616 1.3016809 3.5231044 9.0887775
-4.9609156 1.3473481 3.5930054 11.032
-3.8948514 1.3334131 3.3355811 15.022
1.0479643 1.3252889 3.396987 19.895494
1.2767626 1.4251617 3.3278048 19.361412
1.8882151 1.3196272 3.3717093 20.101
2.2171171 1.5050019 3.5243711 20.099501
-6.2829185 1.7963355 3.2672296 11.0365
-5.8152857 1.7600871 3.3954713 11.591001
-5.4565916 1.7756857 3.465816 12.0399
-5.1862264 1.6529536 3.525013 12.045
1.0812892 1.8102906 3.4290986 20.397163
1.2803105 1.7663875 3.3386836 21.943563
2.1403878 1.8128687 3.5495825 23.099501
-6.0778618 2.2188802 3.3725841 13.438499
-5.8500371 2.182111 3.3895221 13.805347
-5.4380031 2.1531475 3.4723933 14.451
-4.9018617 2.0258496 3.4267745 16.0275
-4.6217656 2.2108834 3.5387073 18.018
1.0731292 2.1861193 3.4140694 21.834126
-6.1400013 2.5762863 3.3101442 14.911014
-5.768599 2.623106 3.3914626 16.190811
-5.4441285 2.547894 3.490983 16.538
-4.9226103 2.5951679 3.4958777 18.52775
-4.3216286 2.6193938 3.4280128 20.536877
-3.2554297 2.7393525 3.4904976 22.05625
-3.0141401 2.7076519 3.4999456 21.808374
-2.5757606 2.7314551 3.3710985 21.990719
-2.2160459 2.7496953 3.3987391 22.413717
-1.846688 2.7629728 3.4559791 22.686251
-1.483302 2.785068 3.4790404 23.06275
1.1496624 2.5739694 3.5168793 22.07925
1.2321353 2.4795332 3.2757738 23.08025
-6.0490875 2.9346836 3.2520809 17.029833
-5.8052654 2.9197221 3.38448 17.698502
-5.3699598 2.9407396 3.3738127 18.764364
-5.0125432 2.8997259 3.4035921 19.763226
-4.5427456 2.8578537 3.3802652 21.238585
-4.2290955 2.9134922 3.4020598 22.406324
-3.8881817 2.9993207 3.4375615 22.624998
-2.6317666 2.827637 3.4433465 23.059799
-2.8721023 -0.22257888 3.9224973 0
-2.6418989 -0.074212819 3.869313 1
-2.2256398 -0.092823699 3.7208562 0.69999999
-1.8128563 -0.12804116 3.7822359 0.58333331
-1.4467205 -0.11484198 3.8817935 2.05
-1.1516268 -0.13235632 3.8541794 2
-0.6301502 -0.12713701 3.8261147 0.33333334
-0.23699205 -0.15014793 3.7898915 1.0833334
0.21566448 -0.16459361 3.7756705 1.1
0.61246753 -0.16157246 3.7448463 2.1221666
1.0092286 -0.17100453 3.7476816 2.7222221
1.3819039 -0.16826616 3.8114102 3.1799998
-5.3098507 0.0773926 3.7290764 1.6666666
-4.9477887 0.22324653 3.8007715 2.5714285
-4.5927248 0.14507638 3.9232931 2.4375
-4.107183 0.24149784 3.9103551 3
0.74804521 0.23489268 3.7582617 10.947337
0.95975596 0.21907271 3.764801 10.379125
1.4066842 0.2350565 3.8044441 10.550498
1.631948 0.29325646 3.9682255 11.358917
-5.453186 0.43069467 3.8072534 4
-4.8489285 0.60144913 3.8661983 5.2750001
-4.6472797 0.56780005 3.9343801 5.2083335
-4.1476703 0.73541236 3.8991508 8.0357494
-3.8440213 0.66677105 3.9303176 8.6499376
-3.0813072 0.60649645 3.8722286 10.650688
-1.3625393 0.48769447 3.7989399 22.530083
0.37499419 0.40113893 3.6245365 9.0825005
0.75939304 0.55679673 3.7604048 15.930983
0.95939171 0.59832817 3.7397032 15.363293
1.3848495 0.59131783 3.7870588 16.468079
1.6698865 0.60150272 3.9427097 16.018251
2.5026498 0.62210822 3.7822635 11.2779
-5.6615639 1.0654988 3.6446648 8.0144997
-5.324924 1.0368223 3.7710679 8.1960831
-4.9471703 1.0526525 3.7942178 8.7001667
-4.6614914 0.99050307 3.8893042 8.4621887
-4.1114459 0.91581839 3.8232155 10.279875
-3.8836372 1.097046 3.9261191 12.528916
-3.4974093 0.89514726 3.830241 9.5109997
-3.0237362 1.016264 3.9039171 15.859917
-2.7331252 1.022916 3.9437704 14.0115
0.7669695 0.92788148 3.8281496 16.096043
0.95361871 0.97261637 3.7783608 19.236824
1.4083624 0.92300892 3.8411431 21.486759
2.2800758 1.084695 3.7446773 16.430918
2.4818101 0.9690792 3.6386805 14.598249
-5.6161194 1.2488254 3.6629105 9.0319996
-5.4319677 1.4242452 3.7188699 10.380037
-4.9770765 1.3295051 3.7960424 10.446421
-4.6429315 1.3827221 3.8936229 11.293569
-3.8382406 1.4688641 3.7962911 16.029499
-3.0388477 1.3384968 3.9682987 20.027
0.72800028 1.2505307 3.9860315 15.0835
0.93325895 1.3855755 3.7739291 18.577188
-5.7596178 1.951628 3.638401 12.046
-5.4013114 1.8594958 3.7626295 12.869874
-4.9796081 1.7393383 3.8152812 12.858816
-4.6399908 1.7813901 3.9020381 14.098969
-4.2520466 1.6966478 3.897784 14.536
-3.719804 1.7433258 3.7339494 19.191334
-3.5406725 1.7362734 3.9019201 20.025999
0.7891804 1.6395206 3.8580494 19
0.95357215 1.7696053 3.7760751 20.500345
-5.35183 2.1704412 3.7924941 14.855136
-5.0135169 2.2038872 3.7804673 15.337999
-4.6418734 2.1337171 3.8830442 15.967383
-4.3588233 2.0612452 3.9485786 17.700834
-3.1708033 2.2082016 3.9790225 22.011499
0.91312367 2.1275935 3.8089998 20.885181
-5.7225833 2.6585333 3.656111 16.327213
-5.4684386 2.5528319 3.6938479 16.607357
-4.9177227 2.7353809 3.9115324 18.049002
-4.5729828 2.74 3.8984339 19.466249
-4.2497225 2.7659149 3.8644154 20.052
-3.8764656 2.7905908 3.6608086 21.052
-3.3580487 2.7033458 3.8701489 21.342144
-2.9414451 2.7018898 3.8092825 21.176601
-2.6025009 2.7011838 3.7704532 21.489019
-2.2010131 2.6817997 3.746078 21.312338
-1.7950112 2.6958954 3.7804677 21.73045
-1.4055601 2.6984022 3.8491662 21.994089
-1.0022054 2.7202687 3.8407452 22.209642
-0.62401766 2.7415109 3.8392339 22.568281
-0.25320554 2.7392321 3.8854768 22.713667
0.25696149 2.7125835 3.8838999 22.5735
0.59021866 2.7194972 3.8332427 22.600048
0.93073064 2.5699339 3.8387096 22.036015
-6.558814 3.0161145 3.7810364 16.828201
-5.6921239 2.9569116 3.7521987 18.627901
-5.482286 2.8487391 3.706948 18.039999
-4.9335985 2.8660159 3.7411823 19.539724
-4.5305901 2.8444414 3.7726529 21.201881
-4.2149949 2.8822124 3.8007131 22.416037
-3.7947984 2.8963792 3.7694874 22.463091
-3.4567673 2.8533194 3.902606 22.791
-2.8803263 2.8554401 3.9865954 23.058001
-2.1166694 2.8130014 3.9024954 23
-0.8955726 2.8039594 3.6617906 23.0665
-6.3559151 3.4393485 3.9039626 18.033501
-4.1087103 -0.045417055 4.2137055 1
-3.6359024 -0.041106753 4.3823795 1.3333334
-3.4210382 -0.14194556 4.3441267 1
-2.5858648 -0.085274279 4.2880425 2
-2.1959066 -0.13445817 4.2439165 1.125
-1.8018519 -0.19501267 4.1562543 0.33333334
-1.3655199 -0.18165392 4.3518095 1.3125
-0.98937136 -0.21224587 4.2348084 0.67500001
-0.51436442 -0.15362844 4.2014623 2.3888888
-0.0901196 -0.16674435 4.2802029 2.1666667
0.24484538 -0.16968356 4.1775999 1.8333334
0.62599558 -0.19343516 4.1740761 1.6666666
1.0038018 -0.18031806 4.177969 2.2
1.4098366 -0.27933171 4.2205725 1.3333334
1.6535538 -0.28027734 4.0510998 1.5
2.0587506 -0.32902908 4.180325 2
-4.60221 0.22582376 4.1452284 2.84375
-4.1611619 0.31779587 4.1566973 3.875
-3.7995279 0.20191722 4.2481809 3.5111113
-3.5022645 0.11358738 4.3185596 2.5
-2.8379517 0.22699647 4.1635618 6
0.75704849 0.081124142 4.0072198 4
1.0036962 0.25299135 4.1035357 10.518731
1.3160124 0.20650704 4.1589866 10.231084
1.7445903 0.22414447 4.1528783 9.7895117
2.0183659 0.36170664 4.0816126 11.098
-4.6246467 0.774885 4.0822983 8.0349998
-4.1445622 0.69058728 4.2441816 7.001687
-3.8040948 0.68800151 4.1777239 8.2398186
-3.5024455 0.71540296 4.2750492 9.0821247
-2.9332418 0.58763647 4.2009602 10.945343
-2.6838002 0.58284825 4.3227839 11.127474
0.73813331 0.78050846 4.0530267 11.0835
0.9268285 0.60848504 4.1000891 13.615982
1.4300371 0.58232266 4.1392474 16.186022
1.8185961 0.56135631 4.1864662 14.902835
2.2224159 0.5145238 4.2895002 11.757335
-5.8525496 1.0828291 4.1719513 8.5270004
-4.869576 1.0369893 4.0716758 9.3570833
-4.590446 1.0369309 4.1622052 9.2032661
-4.1538296 1.0167516 4.1527143 9.4762163
-3.809665 0.98937225 4.2370405 10.090189
-3.4759796 0.98715794 4.2883668 11.179185
-2.9395304 0.97436351 4.1416793 16.027958
-2.6858582 1.0737097 4.2976427 17.454
0.63082319 0.95431614 4.0965614 12.832625
1.0379096 0.94205517 4.1176186 19.804497
1.3974037 0.93308681 4.180306 21.095583
1.8312144 0.99251783 4.2347608 19.898396
2.3155925 1.0418475 4.1096148 18.098499
2.535044 1.0753876 4.2939701 17.09725
-6.1304674 1.4082251 4.1405902 10.026751
-4.9019237 1.3847277 4.1228094 11.259194
-4.6456561 1.4166379 4.166976 11.655727
-4.1675534 1.390853 4.1977172 11.685966
-3.8001266 1.3706067 4.2711878 12.706318
-3.4447472 1.429672 4.2924461 16.058575
-2.8795853 1.3313326 4.1368432 19.651207
-2.7081425 1.3297855 4.2701173 21.365126
0.85946864 1.4676936 4.1517134 19.086
1.5551131 1.3655913 4.2833943 22.092501
1.852985 1.3217101 4.2230811 22.754
2.1122508 1.4935923 4.3315992 22.089001
-4.9439874 1.7435063 4.118566 13.699501
-4.5443864 1.8230292 4.1750607 14.222565
-4.1861897 1.8258514 4.2335296 14.669598
-3.7673011 1.8026409 4.2545514 15.601508
-3.4581501 1.7673681 4.2963181 18.536905
-3.0665541 1.8200738 4.2684617 19.891312
0.75412762 1.7430971 4.0420694 19.0835
0.91530704 1.7241901 4.069531 20.763157
-5.3734312 2.0853338 4.2409906 15.52725
-5.0118709 2.1190522 4.0438418 15.540751
-4.5382223 2.1725428 4.1714258 16.563797
-4.2002835 2.1967218 4.2249212 17.449081
-3.8649902 2.2565539 4.3089218 17.873857
-3.3502164 2.0694363 4.2436175 22.283031
-3.0098448 2.177043 4.2162275 22.450874
0.81544846 2.1915038 4.0241961 18.5
3.4045756 2.3147697 4.1687641 21.595501
-4.9162312 2.661402 4.0929613 18.369249
-4.5607662 2.7200913 4.1440363 19.778652
-4.1838613 2.6176283 4.2428985 20.21373
-3.8174512 2.6340435 4.2685537 20.147078
-3.3806124 2.6903682 4.2393937 19.58013
-3.0078421 2.6929548 4.2332873 19.978333
-2.6079869 2.6850791 4.2233953 21.120697
-2.2613599 2.7062528 4.207664 21.789116
-1.8111651 2.6951361 4.2114353 21.296385
-1.4026316 2.700423 4.2046366 21.566895
-0.95887083 2.6614106 4.2228432 21.6315
-0.57530701 2.6328754 4.1921601 21.498749
-0.21618076 2.6441498 4.1943479 21.455214
0.22491212 2.6467052 4.2076235 21.810749
0.61628878 2.6340394 4.1749773 21.964352
0.81068772 2.5493727 4.1056399 21.246666
-6.8887329 3.151547 4.1833887 16.0455
-6.3948736 2.8452327 4.1632833 15.046
-4.6275949 2.8266225 4.1068306 20.289124
-4.1939349 2.8601098 4.1337066 22.386585
-3.7938836 2.8535554 4.1749802 22.775545
-3.4136872 2.8606298 4.187428 22.964088
-3.0323889 2.8410759 4.1690755 23.038168
-6.9737968 3.2268345 4.3655777 16.046501
-6.778162 3.470659 4.3357344 17.048
-6.3127685 3.3542879 4.2729297 18.033501
2.4920113 -0.41574711 4.5993824 0
-3.6674192 -0.049074817 4.4762001 1.7
-3.3795979 -0.062939443 4.6036739 1.9166666
-3.0431571 -0.10713397 4.6260428 1.4166667
-2.6291573 -0.085142218 4.6227937 1.75
-2.1227725 -0.11087782 4.5578804 2
-1.8233153 -0.16516376 4.6547503 1.5
-1.3947462 -0.19131742 4.5933399 1.09375
-0.99601966 -0.20751138 4.6518817 1.5833334
-0.4464553 -0.27577466 4.681438 1
-0.192578 -0.23605937 4.678544 2
0.19568896 -0.22350234 4.4823432 0.66666669
0.4815855 -0.25715753 4.6101279 1.25
1.0617473 -0.29876301 4.6032271 0.88
1.7308588 -0.31728214 4.5414085 0
2.6280718 -0.21849294 4.6162934 3.4000001
-3.6912489 0.18033034 4.5773959 3.7833335
-3.3569374 0.19233529 4.5723166 3.9486961
-3.0557346 0.29362467 4.628643 5.5118332
-2.5506861 0.29766518 4.6373005 7.6983609
-2.2873511 0.35159054 4.7099261 8.1945829
1.2729695 0.15498419 4.4079018 8.0900002
1.6847922 0.17759423 4.4211636 9.5939999
2.0246425 0.23343311 4.4355378 9.5804996
2.6998849 0.25663519 4.6844568 8.1861076
-4.0649762 0.576675 4.5304303 6.6820831
-3.7581489 0.64165324 4.5623689 7.8482943
-3.3873153 0.65009212 4.5877323 8.2671099
-2.9607494 0.64845324 4.6448884 8.6872959
-2.5649912 0.60990208 4.6128554 11.62192
-2.2857347 0.58367682 4.7068253 11.624942
2.0398638 0.53055996 4.4459753 14.0805
2.6504796 0.57264638 4.6677608 11.724917
2.91749 0.6530413 4.7570119 13.0795
-4.0863075 1.0275831 4.4353776 10.51475
-3.7642653 1.0444136 4.538517 10.219685
-3.4064674 1.0237254 4.6099977 10.996114
-3.0621967 1.0159158 4.6411929 11.658442
-2.5628893 1.014432 4.6060853 16.80438
-2.2749629 1.0361791 4.7061563 17.929598
1.482626 1.0485904 4.5379362 19.33975
2.0658245 0.93735486 4.4481907 18.747332
2.5861046 1.0629028 4.6209946 16.555401
-4.4820714 1.3198811 4.4598279 12.037
-4.1172552 1.3864287 4.471312 12.048715
-3.7636175 1.4346333 4.5821452 13.118245
-3.3833811 1.4053378 4.6030326 13.901016
-3.0325425 1.3955539 4.7266402 14.41927
-2.5312812 1.344926 4.5867376 21.077744
-2.2298551 1.3618842 4.6653266 21.42511
1.5862579 1.4048436 4.611383 22.0895
1.83917 1.476869 4.4640198 22.091499
2.1921127 1.5207117 4.6174154 21.090799
2.5635927 1.4100354 4.6868644 20.178286
-4.4386272 1.898818 4.4306202 16.041752
-4.1525636 1.9246846 4.4952927 16.040344
-3.7789726 1.8353246 4.5647507 14.872434
-3.3888676 1.782653 4.605392 16.893217
-3.0382535 1.759692 4.6501379 18.7715
-2.7620506 1.7499737 4.7814198 19.050165
2.3748379 1.7750686 4.5652723 22.317123
2.6522398 1.656368 4.754683 22.57925
-4.1278901 2.1497693 4.4931731 16.782324
-3.8009133 2.2057328 4.5822191 17.408375
-3.410321 2.1648014 4.6151533 18.913418
-3.0461156 2.1305842 4.6920128 21.041445
-2.7493882 2.1351397 4.778264 23.046
3.1159511 2.3506062 4.5333338 22.693199
3.5103042 2.2381968 4.502183 21.09375
4.7808089 2.2078245 4.7597628 17.0935
4.9290371 2.2577515 4.5873914 17.09425
-4.5767317 2.7834005 4.4031258 21.035999
-4.1438723 2.6208014 4.4648824 19.987822
-3.8097057 2.5691445 4.6240034 19.365704
-3.4060063 2.5976775 4.6095281 19.074959
-3.0442142 2.6592374 4.5985785 19.563726
-2.6004558 2.6602783 4.5678477 20.045202
-2.2260492 2.6541553 4.5213485 20.642973
-1.7918437 2.6167994 4.5564585 20.357235
-1.3853663 2.6730995 4.6323195 20.735067
-0.98530167 2.6378865 4.5650034 20.88299
-0.59040397 2.5975654 4.5916433 21.124882
-0.20582291 2.6045871 4.5943656 21.659
0.18009125 2.5949421 4.5639925 21.625967
0.59309781 2.5879734 4.5922427 21.117188
0.87986356 2.5558217 4.6164293 21.482203
2.9755526 2.4133101 4.7137508 23.091999
-6.9522243 3.1266098 4.4240227 16.035
-4.0711637 2.8288648 4.5001917 22.442551
-3.8861763 2.8382809 4.563612 22.545626
-3.5088713 2.8556507 4.4451723 23.054251
-2.649291 2.8189373 4.6263099 23.061001
-6.9432478 3.354367 4.5969172 16.245398
-6.7503757 3.5735853 4.5634537 18.0355
-6.8240614 3.7034497 4.5300288 18.046499
-0.72225428 -0.40013975 5.1728768 0
-3.2544508 -0.024126401 4.8683734 2
-2.9519215 -0.092896998 4.9607735 1.75
-2.5955853 -0.12482395 5.0207915 1.375
-2.2079427 -0.14549871 5.0404539 1.5897435
-1.7539785 -0.19755815 5.0434675 1.4333334
-1.4051894 -0.24984406 5.0289145 0.98809522
-1.0523132 -0.27465776 4.9223809 0.70238096
-0.60495704 -0.27007085 5.0529361 1.1388888
-0.14196315 -0.34353271 5.1254992 1
0.26375508 -0.27245179 4.9538417 0.58333331
0.60475618 -0.28019172 5.0031047 0.94444448
0.89895201 -0.30176848 5.1002388 1.3333334
1.3954185 -0.33359799 4.9903765 1.0666667
2.2339184 -0.22071068 4.8631415 3
2.8856192 -0.1853984 4.9822693 4.25
-3.3143775 0.26487017 4.8846045 4.5
-2.9787979 0.18914343 4.9158692 3.9383957
-2.5727689 0.22810309 4.9917274 5.2963042
-2.1711428 0.2610971 4.998179 8.0338612
-1.856346 0.25771698 5.0682573 8.5449429
-1.4584757 0.30387488 5.1271319 9.0557499
2.1158073 0.25465155 5.0939107 8.0872498
2.9428041 0.26743516 4.9606929 8.7198057
-3.7684083 0.65064549 4.9312215 9.2338009
-3.3153687 0.5619756 4.9401917 8.3902349
-2.9642944 0.6140824 4.9705696 8.30445
-2.5601888 0.60593879 4.9743934 9.4712801
-2.2027559 0.59896982 5.0084238 12.062597
-1.8672965 0.60421669 5.0621514 12.543175
-1.492034 0.64299738 5.1258831 13.314434
2.9466574 0.54161912 4.9953923 11.329778
-3.7307804 1.0621959 4.8781447 13.366666
-3.2810349 1.0147125 4.9051309 11.630924
-2.9897377 1.0308248 4.978065 11.482154
-2.598181 1.0035865 5.0192547 12.026712
-2.1895878 0.96899921 5.0103378 16.767841
-1.838848 1.0383041 5.065691 18.816727
-1.4564725 0.98874128 5.1392331 18.179718
1.9672368 1.132062 5.0133486 17.0875
2.7757504 1.0929052 4.8669529 17.078501
2.8423538 1.0351262 4.914927 16.468834
-3.6050656 1.3215039 4.8096514 11.06
-3.3114305 1.4061228 4.8931394 15.173598
-2.9815545 1.386389 4.9359899 14.269128
-2.6101208 1.384096 5.0107303 14.956594
-2.2070446 1.3574294 5.0846224 17.728117
-1.8304942 1.3063153 5.0270734 22.03706
1.9778483 1.4384004 5.0245814 20.0875
2.0405569 1.263819 4.902585 18.088499
2.763123 1.4098482 4.8717914 20
-3.6550326 1.7386086 4.8378067 14.057
-3.3410494 1.7893014 4.872293 16.576881
-2.9824328 1.8184956 4.9889469 17.731373
-2.6037266 1.7719541 5.0312185 17.294092
-2.2687523 1.7105473 5.0843902 17.288879
-1.810464 1.6276076 5.1084676 23.05175
1.8898987 1.7000585 4.9298272 23.087999
2.2973089 1.7723355 4.9781656 22.088499
2.6018195 1.7786295 4.9105158 22.420124
3.4624937 1.9823633 5.1902094 20.085501
6.096808 1.9603573 4.9680228 14.093501
-3.6790912 2.3286622 4.8233514 18.371834
-3.2999928 2.1813607 4.9184484 17.153397
-2.9759738 2.1598139 4.9402099 18.209984
-2.6151123 2.1541998 5.046227 19.909119
-2.2479031 2.1416986 5.1095834 21.699608
3.0886843 2.3227768 5.0604782 22.421915
3.3652663 2.2280922 5.0120478 21.552885
4.0880523 2.2547405 5.1142364 19.091999
4.6060195 2.1548672 5.0218787 17.092251
5.5666013 2.0276906 5.1503987 15.0925
5.7410364 2.0353289 4.9866652 15.09325
-3.7395706 2.6014612 4.9101706 19.056999
-3.3811536 2.5998862 4.902617 19.977781
-3.0253754 2.592519 5.0313444 19.915476
-2.6027339 2.5993226 5.0030251 18.876072
-2.1958158 2.6165276 5.0038133 19.811369
-1.791348 2.6050806 4.9837589 20.067066
-1.3980889 2.6110494 4.9968724 20.137159
-1.0027258 2.5912678 4.9872723 20.585026
-0.60044998 2.5960672 5.0183001 21.246748
-0.22249234 2.5787427 4.9316497 21.338947
0.24103741 2.6065218 5.0479045 20.617958
0.58377093 2.5716751 5.0100608 21.287821
0.93813998 2.5294955 5.0642304 21.499311
1.3315021 2.4714603 5.0910082 22.075062
2.0841343 2.4367237 5.1700945 23.09375
-3.6801 2.8226061 4.8109174 23.054001
-3.4927387 2.8162134 4.9115644 23.055166
-2.5787888 2.8192544 5.0203428 23.06175
-7.2164097 3.4486747 5.1224966 16.0485
-7.1555119 3.4370556 5.0017524 15.5495
-7.04603 3.8192561 4.9797931 17.707502
-0.14891696 -0.48114464 5.424736 0
1.349721 -0.41348761 5.3400779 2
1.9866331 -0.45876691 5.4979715 0
-2.487442 -0.04402633 5.2602739 2
-2.1666861 -0.092543341 5.3730884 2.125
-1.8160954 -0.16423398 5.3811393 1.7233334
-1.4247009 -0.14063622 5.4369025 2.5358975
-1.048128 -0.2408144 5.423564 1.6428572
-0.53948474 -0.21650888 5.4741497 2.5
-0.1517428 -0.33546454 5.4739122 1.25
0.26040959 -0.34386826 5.4106207 0.89999998
0.60492712 -0.33548859 5.3507752 1.8333334
0.99032456 -0.30311057 5.4494944 1.1666667
1.3981628 -0.38214356 5.3180003 0
1.7602992 -0.38748929 5.3107052 1
-2.6167412 0.22687881 5.3124671 5.4588809
-2.1734164 0.23789062 5.37851 5.7601247
-1.7732199 0.22686438 5.3400536 7.7712903
-1.3942934 0.22289029 5.4139271 8.7618036
-1.0264851 0.23393607 5.48316 9.4573193
-0.76701695 0.21656325 5.5534706 10.228
2.1994565 0.23345532 5.2398643 8.0865002
-2.9628687 0.67783821 5.2722249 10.21125
-2.4855366 0.61488682 5.2994351 8.7931118
-2.1671286 0.61636716 5.3479581 9.9457798
-1.7738254 0.58915836 5.3651848 12.026319
-1.401794 0.60703033 5.4347324 13.098853
-1.0569458 0.60688722 5.4352593 13.732254
-0.7007075 0.62221819 5.4737678 13.979833
-2.8980682 1.0143324 5.2492104 11.887042
-2.5599864 1.0405326 5.2772007 11.769902
-2.1821666 1.0284278 5.3615999 13.305883
-1.7707273 0.96111774 5.3853116 15.211673
-1.4058247 0.97765303 5.4457293 18.530928
-1.089391 0.98681653 5.5307298 19.899553
-2.9000812 1.3865459 5.240294 17.409149
-2.5305233 1.3911866 5.3378501 13.897225
-2.1834729 1.3783251 5.3658643 14.479099
-1.7978122 1.3738563 5.4338012 16.567675
-1.4398663 1.3272942 5.4490881 20.019363
-1.1478742 1.3270488 5.5634151 21.389292
-2.8845391 1.6996469 5.2357621 16.7547
-2.5713 1.8218265 5.2925186 18.138298
-2.1969173 1.8003987 5.3590117 18.072001
-1.8301977 1.7995471 5.4361119 17.545731
-1.5182832 1.7718941 5.5352883 17.868181
5.8743043 1.9340222 5.3792639 14.092
6.1570106 1.9045788 5.4425635 13.425334
7.546617 1.7778746 5.5717597 12.0925
8.3238811 1.6824294 5.5127358 11.093
-2.8423662 2.0377085 5.2771502 18.061001
-2.5452511 2.1396983 5.3230901 18.1068
-2.2229002 2.2255092 5.336319 18.979401
-1.8669105 2.1549585 5.4498825 18.496101
-1.4845012 2.065815 5.5480556 17.933432
1.0576788 2.380367 5.5242867 21.084
1.5079012 2.3761227 5.4159188 21.0865
1.8208359 2.3743987 5.4668751 21.9025
2.2766454 2.3267426 5.4556336 21.862453
2.6713376 2.3173251 5.4514813 22.386274
3.0062199 2.2720668 5.4041538 22.339376
3.3541412 2.207927 5.4067106 21.335606
3.7490234 2.1936224 5.4721627 19.872431
4.2124124 2.1581755 5.4546885 18.090708
4.4759684 2.0886526 5.4089451 17.091
5.0711422 2.0693345 5.4541507 16.091
5.3538156 2.034843 5.3869324 15.091499
-2.9431858 2.6786375 5.2403188 21.726999
-2.5513608 2.588444 5.3330436 20.214943
-2.2275364 2.5908008 5.3816476 19.822935
-1.8098348 2.5517137 5.4361176 20.10067
-1.4042789 2.5747292 5.4275575 19.521513
-1.027074 2.5658669 5.4027605 19.281183
-0.59546864 2.570658 5.4109993 19.683205
-0.21455163 2.5557363 5.4004641 20.269768
0.18401767 2.5479662 5.4006877 19.555298
0.62246627 2.5347378 5.3754473 20.409935
0.9709006 2.4882245 5.3982 20.60607
1.3110963 2.457128 5.4371233 21.771576
1.7685869 2.4583638 5.2920866 23.090399
2.2527084 2.4093704 5.3030496 23.0875
-7.2458158 3.5372546 5.2658358 16.04925
-7.4489708 3.8843937 5.5636311 16.050501
-1.0234122 -0.45611757 5.6983175 0
0.12738982 -0.42077166 5.7322431 1
0.53014153 -0.40804809 5.8263078 0
0.86430973 -0.42549658 5.9558935 0
1.8854239 -0.48642817 5.6965427 0
2.2626257 -0.54206169 5.6866865 0
2.536706 -0.56811309 5.8184729 0
-1.7886206 -0.17368545 5.7058368 1.8333334
-1.4412032 -0.16072558 5.761065 2.1083333
-1.0121351 -0.1776233 5.7836208 2.1137416
-0.63081563 -0.20063254 5.8145304 2.5572324
-0.21194954 -0.21723334 5.8077388 2.8112104
0.12860581 -0.23916741 5.7506804 2.4722221
0.68456209 -0.34030759 5.7595353 1
1.6117421 -0.39075562 5.677743 1
-2.2485423 0.39243972 5.6481786 8.052
-1.726631 0.19005941 5.6749573 5.9345832
-1.3621954 0.18599848 5.711493 6.7555842
-0.99796182 0.23981342 5.7472372 8.8497658
-0.59980369 0.21968243 5.7751122 9.1799526
-0.21511798 0.22435912 5.759624 9.9948874
0.16945763 0.23053852 5.7177863 9.8714495
0.48380649 0.22585832 5.7460279 9.3436384
-2.1753852 0.72305554 5.6197419 12.050667
-1.753104 0.63147092 5.700213 9.1050348
-1.3476789 0.61409682 5.7285886 11.637379
-1.0027232 0.60724127 5.7792597 12.661602
-0.64086491 0.60510224 5.8472509 12.902133
-0.23670228 0.63837391 5.8520064 14.76101
0.17118958 0.50451773 5.7817254 13.857196
0.51131964 0.50638407 5.79036 13.074
-2.1483972 1.1325274 5.6525822 13.72375
-1.7382822 1.0039845 5.698318 12.215374
-1.3750805 0.95184433 5.737978 13.54914
-1.0004396 0.9935084 5.7571874 17.014406
-0.61678642 0.99586284 5.8004727 18.908392
-0.24526453 1.0173056 5.8317733 20.529512
0.1544096 1.0043836 5.7582626 19.980091
-2.1579993 1.37096 5.6521859 15.784703
-1.7872061 1.4118884 5.736866 15.125761
-1.4041218 1.3886868 5.7418489 15.277925
-0.99538594 1.3701274 5.8171854 16.882608
-0.67376709 1.3811893 5.9019856 18.114311
-0.096595846 1.246071 5.9229932 22.735001
0.053814083 1.2466416 5.7393198 22.819937
-2.0857878 1.7445127 5.6822095 19.872999
-1.7719473 1.7778554 5.7319741 17.342966
-1.408864 1.8027537 5.7551131 17.531307
-0.98994839 1.7951856 5.8668957 17.955536
-0.69371444 1.7490237 5.9356079 17.716845
4.5017128 1.9172332 5.8816485 16.08975
5.9393587 1.8979158 5.7755585 14.09075
6.2255402 1.8576057 5.9270916 13.0905
8.3519802 1.6540695 5.7265749 11.0925
8.4104595 1.6378744 5.9514203 10.092
-2.472173 2.2658703 5.6008096 16.066
-2.1335497 2.1497557 5.6845069 18.732752
-1.7476499 2.2144737 5.7410817 17.861193
-1.4094235 2.1640644 5.7962947 18.153263
-1.0278502 2.1499183 5.8872509 16.388306
-0.68751162 2.0918336 5.9768014 17.074333
0.6017732 2.3872731 5.825232 20.414499
1.0175765 2.3837392 5.8452253 21.226786
1.4263343 2.3666825 5.8129935 20.998175
1.7549311 2.3295462 5.8105764 21.232073
2.2652051 2.3358438 5.8536034 21.668875
2.5936322 2.2824376 5.804811 21.946344
2.9833782 2.2434521 5.7836823 22.172619
3.3396983 2.1823061 5.8213043 20.792652
3.7687697 2.172122 5.8225846 19.67701
4.2006588 2.1157074 5.821846 18.156693
4.5349479 2.0522914 5.8247514 17.289801
4.9782114 2.0358465 5.7694831 15.947429
-2.1124876 2.6080847 5.6459427 19.066916
-1.7944249 2.5106859 5.7424097 19.397953
-1.3862072 2.5010412 5.8112917 19.75029
-1.0297185 2.5444679 5.8243842 20.106112
-0.62851733 2.5555856 5.7958889 20.299854
-0.20334359 2.5053287 5.769908 18.500427
0.21442579 2.5143974 5.807724 18.729618
0.5993526 2.5055399 5.799952 19.246416
0.98072249 2.4788232 5.7778668 20.103666
1.3546636 2.4420412 5.8046737 21.195778
1.6392072 2.4256854 5.834012 20.334251
2.0737176 2.4213257 5.6336536 23.082125
-7.6322737 3.7604456 5.9049611 15.052
-7.5411606 3.642297 5.8737283 16.050501
-6.6280556 3.845372 5.941227 17.054001
-1.0886626 -0.42145115 6.1546292 0
-0.28280351 -0.44449052 6.0881233 0
0.22019872 -0.43770602 6.1611729 0.75
0.56928229 -0.42488208 6.0920987 0
0.93602598 -0.46504325 6.2242799 0.5
1.391629 -0.45517778 6.1136713 0
2.6485734 -0.50285912 6.0663757 0
2.9133413 -0.46024096 6.3812399 2
-1.235991 -0.14652331 6.048912 3.125
-0.96526498 -0.12354503 6.1312084 2.8928571
-0.61879778 -0.20864643 6.1156993 2.1527779
-0.22136462 -0.18389545 6.2230735 2.6745098
0.14142723 -0.19792533 6.231483 3.0166667
0.585877 -0.27686659 6.178206 2.2291665
1.1092079 -0.16622767 6.3635159 4
1.400094 -0.24979426 6.1458473 3
-1.5255821 0.31254864 6.0486026 8.0580006
-0.80052179 0.39884955 6.1156754 9.0632496
-0.58188874 0.27633256 6.1304369 7.7443209
-0.19638166 0.25806093 6.1649413 8.39256
0.12076335 0.24467532 6.2701406 7.5885324
0.52952504 0.18270653 6.3453665 6.166667
1.0239196 0.28379321 6.1842213 8.8257504
1.3815238 0.28927183 6.2183537 8.7026253
2.1975496 0.38896465 6.2939596 9.0810003
-1.3819447 0.47605616 6.1088004 9.059
-0.89036757 0.58926797 6.1110296 9.0581341
-0.60806078 0.61128038 6.1401181 11.211622
-0.20858166 0.61622632 6.1899104 11.355466
0.14847445 0.61536521 6.2397294 12.038191
0.5503906 0.45577276 6.2213817 10.572959
1.0707502 0.51958901 6.246316 11.27575
1.3968951 0.57938921 6.2297015 11.47765
2.2460213 0.7431103 6.3358827 11.581
-1.3958986 0.87745011 6.0408797 14.057751
-0.93616134 0.97393972 6.1174459 10.668461
-0.59667653 1.0194393 6.1614246 13.048291
-0.19740181 1.0043497 6.2066774 14.922484
0.16327344 0.9826479 6.2440104 15.947904
0.58122104 0.94346225 6.2691388 13.923625
1.1338675 1.1777953 6.148375 18.0765
1.4708743 1.0120673 6.1891217 15.078251
-1.3315403 1.365352 6.0712924 16.17898
-0.98776591 1.4020667 6.1548567 15.04205
-0.57601887 1.4130404 6.1967764 15.374372
-0.21179058 1.3894122 6.2415142 16.329584
0.1480446 1.3560076 6.2759538 18.157499
0.60892218 1.3633022 6.2681656 19.405916
1.0198073 1.3026717 6.3011894 19.075127
1.2461966 1.216282 6.1412039 18.07725
9.9956255 1.4330615 6.3199558 9.092
-1.356984 1.841904 6.0774994 17.191929
-0.97045797 1.7951101 6.1290183 17.937838
-0.57231653 1.8079597 6.2076283 17.708742
-0.2160278 1.7689077 6.2655325 17.64333
0.08196681 1.7686851 6.3485618 18.022411
0.65359622 1.6607952 6.2610955 22.7395
0.96561044 1.6928915 6.1366019 23.0755
1.2950563 1.8787662 6.2531862 23.077
1.688659 1.659348 6.3583965 20.078501
3.7987905 1.9402223 6.3527226 16.085501
4.281868 1.9369003 6.2866879 16.08675
4.5546823 1.9316937 6.2075229 16.0865
5.0518355 1.9828036 6.2502422 15.690399
5.3222613 1.9467551 6.2294521 15.09225
5.842433 1.8330421 6.272449 14.092751
6.2686157 1.8325181 6.1952677 13.08975
7.9371152 1.667317 6.2400746 11.091
8.4404364 1.6106319 6.1734352 10.0915
-1.3390096 2.2110269 6.0514808 20.320833
-0.99410784 2.2018976 6.1555352 19.183779
-0.61326867 2.1920972 6.1914129 17.722942
-0.21947686 2.218071 6.2761292 18.093853
0.1233608 2.1904562 6.2891936 19.064501
0.6252504 2.3706465 6.138226 21.415499
1.0342683 2.358202 6.2452731 19.877645
1.3892715 2.3489916 6.2092237 19.605097
1.7824699 2.3205171 6.2445316 20.314693
2.1946471 2.3220527 6.1890225 21.238041
2.6259305 2.2577019 6.2226124 20.938625
2.982661 2.2065916 6.1952529 20.409874
3.371141 2.1542006 6.2033291 20.075315
3.7254567 2.1312242 6.177259 18.751974
4.171392 2.0687466 6.2258539 17.752144
4.5747027 2.0304925 6.1439633 16.722589
5.0179424 2.0090477 6.1989536 15.757
5.3802552 2.0205355 6.122427 15.0915
-1.2779512 2.4712458 6.1128783 21.821249
-0.94470787 2.50528 6.1159301 19.709929
-0.60760927 2.4802313 6.1777349 19.489147
-0.18130711 2.4820604 6.2171249 19.366133
0.17740342 2.4762218 6.2064705 18.899811
0.552715 2.456424 6.2207422 18.936953
0.9696328 2.4438519 6.1773252 18.281067
1.3596807 2.4240963 6.1143856 19.70475
2.0928257 2.4219129 6.1283665 20.419167
-7.482338 3.6344669 6.0490289 16.051001
-0.1671665 -0.40909311 6.518415 0
0.27672291 -0.46505475 6.4945111 1.25
0.57571638 -0.44570005 6.600163 1.1076922
1.0006801 -0.50609028 6.6914005 0.66666669
1.2168698 -0.49740618 6.7226467 0
2.1140113 -0.6026327 6.768322 0.5
2.7327397 -0.57020539 6.4084129 0
3.3749599 -0.6904974 6.4770708 0
-0.826882 -0.0056857765 6.4818759 5
-0.47744858 -0.22533271 6.5796347 3.125
-0.12893936 -0.23144288 6.5605187 2.5
0.25779387 -0.21968402 6.595367 2.7708333
0.56065184 -0.19345485 6.5899634 3.0993335
0.89455575 -0.17389356 6.6325088 4.3333335
1.3742096 -0.248129 6.7149744 3.5
-0.59319651 0.24638644 6.49506 7.2386003
-0.19166273 0.21201642 6.5616193 6.6479998
0.19507705 0.23345365 6.5582023 7.0989933
0.58005816 0.19576718 6.6337099 7.2083645
0.89749008 0.28244448 6.6630621 8.3996105
1.2090528 0.25072134 6.5076895 8.0754995
1.8048474 0.34256774 6.7735949 8.0777502
2.003742 0.26466835 6.4603434 8.0795002
2.5927682 0.294433 6.6892786 8.0807495
-0.48544389 0.63556838 6.4751158 10.4695
-0.17733045 0.63530803 6.5725589 10.774905
0.21105435 0.59113616 6.5991569 8.9577456
0.55318594 0.59424305 6.6628885 9.3725643
0.9509266 0.53345203 6.5828071 11.362535
1.272871 0.62274706 6.6590214 12.0775
2.1124499 0.50332081 6.4520168 9.5799999
2.7230213 0.59679091 6.5718527 10.065201
2.8236589 0.58436865 6.4392524 10.0825
-0.83451229 1.0052435 6.4757934 15.062
-0.55523461 0.99971741 6.4894695 13.624778
-0.20919515 1.0180724 6.5801072 13.235159
0.1821903 1.0397557 6.5666199 13.06503
0.57876796 1.0174747 6.6556873 13.90017
0.93549055 0.99358749 6.6458526 14.894234
1.2501909 0.97925091 6.6133828 14.075665
1.7249901 1.0166073 6.6551065 14.077499
2.6408954 0.94165391 6.55057 12.481501
2.8285005 0.92332876 6.4497433 12.0825
-0.53296429 1.4706663 6.4646773 19.866449
-0.17128411 1.3908449 6.5256786 15.408909
0.20074236 1.3951489 6.5777917 16.221672
0.56895328 1.4100729 6.6665335 15.84894
0.88337535 1.3268465 6.6682153 16.0774
1.2717004 1.2828898 6.7839193 15.0755
1.8601301 1.405773 6.6635633 17.077999
2.1463223 1.4126748 6.7391338 16.079
8.640008 1.5604682 6.6563797 10.0905
9.8542624 1.4397857 6.5371985 9.0915003
-0.54896885 1.8227755 6.4878106 16.294777
-0.19453485 1.8145932 6.5535984 18.035343
0.21307538 1.7903317 6.5840273 15.740868
0.5735873 1.7469316 6.6486497 17.944355
0.95525241 1.8014425 6.6273122 18.088701
1.7868044 1.6042958 6.5993843 19.077999
2.356585 1.7275774 6.5600042 18.5805
2.6397908 1.7356874 6.4422798 18.082001
3.7568355 1.9690788 6.5641012 16.084749
4.2679949 1.9411536 6.6386909 16.253418
4.5708103 1.9391456 6.5946431 15.974889
4.9752107 1.9419168 6.5651121 15.585649
5.5126057 1.9330982 6.5868745 14.751667
5.7328362 1.8682461 6.5341797 14.0893
6.3449039 1.805612 6.6400447 13.0895
7.9531903 1.6419463 6.46663 11.0905
8.075388 1.6397415 6.6873693 11.09
-0.51790082 2.2645254 6.451786 19.85042
-0.1835057 2.1294332 6.4990935 16.054436
0.22559583 2.2064109 6.6082635 17.265596
0.55738282 2.2307994 6.6591392 17.655416
0.9905023 2.3200123 6.5851727 18.98336
1.40465 2.3185802 6.648109 19.468439
1.8020636 2.2829669 6.6124625 19.890596
2.1763861 2.2596962 6.5919089 20.531342
2.5948174 2.200978 6.6036434 20.262926
3.0113885 2.1388714 6.5837255 19.51071
3.3810325 2.1125224 6.5871611 18.5825
3.7972214 2.0856712 6.6057787 18.005238
4.1868229 2.0571647 6.5966296 17.510452
4.6472116 2.033807 6.5317264 17.242916
-0.5626682 2.4527683 6.4658165 21.5755
-0.20754065 2.440697 6.4769878 20.756556
0.23424174 2.4414763 6.6035185 17.632151
0.58554393 2.4435813 6.5569353 16.445477
0.88470417 2.4383597 6.5632157 18.896181
1.4230368 2.4289129 6.5864868 19.4804
1.6691281 2.4740732 6.7248793 17.0835
1.0747132 -0.48519892 6.9547434 0.9375
1.3677757 -0.48289931 7.0633793 1.1666666
1.7341328 -0.58982706 7.076509 0.125
2.1612787 -0.63547301 7.001441 0.5
-0.055048943 -0.2442266 6.8724947 3
0.26806509 -0.17730917 6.8960571 2.625
0.68552387 -0.13457347 6.8541889 3.5
0.9859488 -0.18252185 6.9567032 3.29304
1.39898 -0.21898705 7.0155773 3.8148146
1.9566579 -0.25423133 6.9947939 4
2.1599655 -0.23664285 7.092618 4
-0.15094531 0.22050913 6.8400865 8.0657501
0.23359336 0.23878717 6.8878465 8.0458336
0.61194897 0.21786375 6.8851519 6.4625621
0.98552942 0.25329646 6.9711962 6.8047142
1.4074612 0.27445048 7.0823898 8.1512146
1.754408 0.30961248 7.0504441 8.0778341
2.2905519 0.33730674 6.9797702 8.413167
2.5355392 0.36196786 7.0307207 8.5807495
-0.079350084 0.65458918 6.8572316 12.441124
0.20810585 0.53276694 6.924468 10.61165
0.67286909 0.60862029 6.9057455 10.677957
0.98566097 0.60449338 6.9756041 9.4040098
1.3821665 0.59780139 7.0850329 9.6196461
1.667424 0.4568767 7.1829586 8.0760002
2.4818342 0.77833056 6.8606358 11.07975
3.4500048 0.46865427 7.1981483 8.0815001
-0.15238185 1.0941304 6.842041 16.0655
0.19648688 1.0114292 6.8877616 13.571625
0.62597889 1.0296421 6.8896303 13.363351
0.9783572 0.97411531 6.9666357 11.819417
1.3839389 1.0200821 7.0791068 12.719493
1.6651137 1.0347676 7.1669474 12.08075
2.2280939 0.80760157 7.1667085 12.0805
-0.10153943 1.2588093 6.8732066 18.06575
0.31341091 1.319257 7.0014849 14.5735
0.71263164 1.3853488 6.8939824 15.398075
1.01082 1.3812048 6.9961963 14.181486
1.3687179 1.413655 7.0373669 15.525743
1.7335008 1.3865623 7.1366119 16.276798
2.1726475 1.2948425 7.0225759 14.745
2.5051882 1.292706 6.8101597 15.08
8.6630697 1.4870335 7.1234331 10.0895
9.3062162 1.4174343 6.9831729 9.09025
10.294511 1.3220923 6.9059515 9.0909996
11.081914 1.3073187 7.1166935 8.0909996
-0.058232129 1.7009888 6.8518505 21.066
0.30908424 1.9023784 6.9429312 16.275101
0.65722424 1.7809899 6.9314575 16.201643
0.99543446 1.7532917 6.9783769 17.565912
1.3814358 1.7210013 7.1133389 18.071251
2.1397557 1.7568501 7.1811767 19.08
3.9023697 1.9777178 7.0903149 15.923084
4.1952305 1.9259599 7.020288 15.818133
4.5897088 1.9404852 7.0170693 16.078444
4.9263654 1.912181 6.968358 15.444182
5.3809009 1.8439198 6.9698091 14.912251
5.8056436 1.8045307 7.0402622 13.836333
6.2113252 1.7924484 6.9932518 13.089084
6.5388069 1.7683562 7.0220375 12.588001
8.016468 1.6113374 6.8823357 11.0895
0.3120231 2.1859386 6.9131665 18.439375
0.65712947 2.2192538 6.9807372 17.552706
1.0077693 2.2701805 6.978425 17.819782
1.3827101 2.2726989 7.0049834 17.548395
1.795146 2.2380695 7.0175648 19.86904
2.2135959 2.1842675 7.0064201 19.35096
2.6073523 2.1670175 6.9381857 19.379225
3.005306 2.1137471 6.984817 19.061649
3.4352846 2.076694 6.9920559 18.123032
3.7704649 2.0631993 6.9886332 17.225834
4.1411176 2.0253088 6.9448695 16.666376
0.16523488 2.4323375 6.8831849 22.071188
0.54170859 2.4174876 6.9640117 18.827625
0.92677718 2.4160614 7.0815492 13.075
3.4058409 -0.80047929 7.593358 0
1.5840013 -0.59650409 7.4522667 0
1.7453395 -0.58189708 7.3216476 0.42857143
2.2160802 -0.55140722 7.3877797 1.3333333
2.4626153 -0.61423612 7.4470572 1
2.9754622 -0.62629372 7.5160232 1
1.1165462 -0.076921657 7.3223777 4.6666665
1.424682 -0.23796205 7.341815 3.5
1.8141102 -0.24371748 7.4168062 3.2666664
2.2204983 -0.23921576 7.4264908 3.55
2.481714 -0.21804133 7.4900551 3.4166667
0.48943752 0.040905967 7.3281603 6
1.0985175 0.34806773 7.2842026 8.7408333
1.3790208 0.2254273 7.3505268 6.6719379
1.8352495 0.21087874 7.409986 6.3793569
2.1956496 0.26725164 7.3791418 7.6995001
0.52133614 0.51718372 7.3832569 10.069
1.1053474 0.64523268 7.2962055 8
1.4400703 0.66368937 7.3110785 8.7852221
1.7710793 0.62899458 7.3159599 8.9264288
2.1503901 0.55509508 7.4015498 9.1532822
2.5452795 0.57026792 7.5644093 8.0784998
0.56932884 0.90458357 7.3509264 13.06925
1.0638794 0.95246667 7.2589049 10.684625
1.4422482 0.99381852 7.344202 10.488864
1.7701855 1.0096406 7.3752828 10.854765
2.2304566 1.0241045 7.4418168 10.967601
0.35931331 1.4638498 7.3046751 18.068001
0.58992887 1.4366224 7.3680172 17.069626
1.0444894 1.4242336 7.3105569 13.789834
1.4217839 1.4153007 7.3242731 13.941698
1.7454062 1.4234827 7.3937058 13.179168
2.1593101 1.3970795 7.4216542 14.007834
2.6068912 1.5668814 7.5118465 15.07925
3.0553768 1.5008582 7.4427061 14.081
6.6818271 1.3010066 7.5530643 10.0865
8.0291929 1.5661795 7.5838647 11.091
8.5684013 1.4833722 7.4615259 10.09025
9.1278028 1.4385929 7.5063934 9.0889997
9.2388029 1.4338596 7.3323288 9.0895004
10.42571 1.2940012 7.2116904 8.0904999
0.58677298 1.7287161 7.4553862 19.069
1.0097508 1.754212 7.2708549 13.057438
1.410578 1.7030013 7.3421607 11.729723
1.7379465 1.8086368 7.3988967 18.216333
2.234143 1.7807374 7.425261 16.57407
2.4149797 1.9515799 7.5491843 16.748499
2.8972263 1.7110081 7.5206757 15.08025
3.4955766 1.9431447 7.4653625 16.194221
3.8077335 1.9517411 7.3885422 15.876313
4.1899118 1.9268559 7.3909726 15.226895
4.5677981 1.9076807 7.4197254 15.412333
4.9504085 1.8896824 7.4455557 14.958751
5.3784027 1.8106018 7.4411392 14.081149
5.84484 1.7650572 7.4531422 13.305332
6.3059268 1.7564418 7.387105 12.685101
6.5040069 1.7282705 7.3776793 12.249333
0.67553109 2.1179457 7.539537 21.06925
1.0502514 2.236618 7.2558694 17.740499
1.4192491 2.2099741 7.2991648 20.341333
1.8190088 2.1929924 7.3632989 19.049713
2.1825781 2.1518791 7.4000969 18.633881
2.6163917 2.11429 7.3988428 18.507309
2.9588788 2.083174 7.3840351 17.674284
3.3745606 2.0476594 7.4021454 17.471109
3.7432425 2.0408804 7.3699484 17.502428
4.202105 2.0228424 7.3571591 17.31975
4.8153 2.0666354 7.5995932 14.0845
1.5393653 2.4408517 7.5507889 23.067749
1.8151209 2.403616 7.4014187 23.060499
2.217536 2.6086369 7.5114312 22.0765
1.8380332 -0.64453381 7.6859379 0
2.2710423 -0.60973251 7.7680721 1.3333334
2.5481963 -0.60223794 7.6190062 1.5
3.0032458 -0.50819069 7.8804936 1.75
1.1860213 -0.27051497 7.8508654 3.5
2.3472929 -0.31774318 7.8011551 3.4000001
2.5509322 -0.2825146 7.7127438 3.3333333
2.9793162 -0.27968514 7.7953315 4
1.4283476 0.24296016 7.754343 7.0359998
2.3586457 0.26413417 7.7468233 7.0155001
2.6044955 0.20677941 7.6309094 6.5359998
3.0767283 0.38308951 7.8632073 8.0815001
3.2732875 0.32129186 7.7548156 8.0815001
1.0204716 0.48770261 7.7892976 9.0707502
1.2277145 0.47332138 7.9000072 9.0714998
1.7869164 0.72940153 7.681747 10.409667
2.2822073 0.63088691 7.775641 9.073
2.5897655 0.63151699 7.7674561 9.1004591
3.0050836 0.6045512 7.841754 8.9000664
1.0678551 0.99600196 7.7610116 12.737667
1.2736732 1.0657918 7.8409138 13.07175
1.9312416 0.88355941 7.6383271 9.4151659
2.2291708 0.9572131 7.7078209 10.557051
2.593971 0.97917366 7.7637415 10.31227
2.9524937 0.94765025 7.8293209 10.792
3.2534895 1.0416479 7.9076819 12.081
1.0025771 1.4981589 7.7759347 16.052876
1.9399776 1.4792446 7.6068029 12.0845
2.2027745 1.4162472 7.7102013 12.708215
2.6124728 1.4296538 7.8100605 12.618724
2.9478018 1.3548431 7.8254223 12.396501
3.3407402 1.3301809 7.9999857 11.0885
6.6918235 1.2358565 7.7531643 10.086
6.932436 1.5503032 7.9888964 12.073
8.2721262 1.5115765 7.8125324 10.424333
8.5728693 1.4939076 7.7784181 10.088
8.8540077 1.3983555 7.7689843 9.0882502
10.628598 1.2032557 7.8316059 8.0895004
1.0079563 1.7097661 7.7542591 17.677876
1.8875742 1.8218715 7.6720085 13.5795
2.1926377 1.8143613 7.7861495 15.218858
2.5691342 1.8518349 7.8083081 14.856354
2.9668372 1.8340049 7.8542819 15.134624
3.4034958 1.9348773 7.8238492 15.545732
3.8056159 1.9353429 7.8017135 15.659842
4.2068839 1.9077102 7.8595757 15.277635
4.6058841 1.8589488 7.7958441 14.651465
4.9696078 1.8573378 7.7663503 14.442318
5.3853536 1.8016006 7.8045883 13.581249
5.8073025 1.745946 7.798275 13.082084
6.1087646 1.7316704 7.968133 13.0875
6.5179954 1.7098424 7.8235178 12.085
7.0140281 1.6757342 7.826098 11.420834
7.4016848 1.6692022 7.6104708 12.091
7.6363111 1.6088519 7.8122272 11.087
0.50808579 2.3012555 7.7144279 21.734667
0.91266543 2.0963552 7.6564331 20.57025
1.8947026 2.1065335 7.7725306 18.8578
2.1730852 2.1200199 7.7650852 17.079054
2.648428 2.0824776 7.7207222 17.577286
2.9988892 2.0475805 7.801434 16.765762
3.3309281 2.0339494 7.7764821 16.185133
3.7321239 2.0161133 7.6444774 14.591249
4.196137 2.0182071 7.7466264 15.078
4.5692787 2.0405989 7.6908588 14.08375
0.2752125 2.498502 7.8499084 22.5665
1.4624097 2.4686046 7.6806717 23.066999
1.8342841 2.5387404 7.9416566 22.0765
3.2958553 -0.74031085 8.1244383 0
3.6680937 -0.46172154 8.1937666 3
1.3761878 -0.37529081 8.0062227 3
3.2733517 -0.25860745 8.1058102 4
3.0906982 0.20484722 8.1206379 7.3871665
1.4333038 0.46770388 8.0798607 9.0719995
2.5367408 0.66763276 8.0064602 9.0780001
2.9629393 0.77355951 8.0776062 9.0842495
3.461838 0.68973917 8.1719942 8.7496672
1.5029795 1.0397539 8.1909342 12.072
2.7852755 1.0196377 8.0786943 12.08
3.0709076 0.85165232 8.144454 10.416833
3.2226846 0.82337373 8.1768656 8.0885
7.8506074 0.97569776 8.3792334 8.0860004
2.6668231 1.3540541 8.0492382 13.078501
2.9824369 1.4229933 8.1088848 13.312
3.3261807 1.4101506 8.1989374 13.075168
3.6117508 1.3827097 8.1621923 11.089
7.0414367 1.5626076 8.1538801 11.581
7.37956 1.5647352 8.0014076 11.09
7.8369284 1.5728364 8.0436344 11.0905
8.1395664 1.472631 8.1590319 10.087125
8.4471521 1.4314046 8.1286354 9.5887499
8.8679419 1.4171865 8.1678066 9.0874996
1.7207322 1.8452926 8.3317461 15.409333
2.1127915 1.8892434 8.0830202 15.164749
2.7005551 1.8779197 8.2501392 16.077
3.0402284 1.8640406 8.1109896 15.024199
3.4068809 1.9348432 8.1934576 15.170409
3.7732816 1.9174048 8.1666451 15.227178
4.177577 1.892948 8.2129765 14.77177
4.5502114 1.8280476 8.1859398 14.426347
4.9429483 1.800936 8.2522182 13.579438
5.3579831 1.7731622 8.1456823 13.7435
5.8175406 1.699914 8.1867704 12.655643
6.2536459 1.6604843 8.2854404 12.087749
6.5071902 1.6571678 8.1490345 11.941215
1.5477035 2.1980867 8.2256298 19.072001
1.9096339 2.165539 8.2486305 16.994991
2.0469239 2.1832747 8.1473484 16.154551
2.558104 2.0374956 8.1654482 16.909918
3.1210377 2.0456612 8.1234064 17.069571
3.4206262 2.0442805 8.2377901 15.57675
3.6255414 2.0729041 8.1832943 17.0655
1.9436307 2.4363468 8.218339 16
4.8138299 -0.90709645 8.4077387 0
3.3243647 -0.76530457 8.5156355 0
3.7450199 -0.49253446 8.5317326 3
3.8126223 0.92574167 8.5098019 9.0895004
3.5486372 1.3362473 8.4044952 10.089
3.9340103 1.5788816 8.6347733 11.0895
6.2382851 1.5826213 8.7738609 12.07
6.6614156 1.554685 8.726922 11.740167
6.9854198 1.505366 8.6588421 11.0715
7.467947 1.4569397 8.6102238 11.07225
7.9746485 1.4320537 8.7548809 10.0885
8.2330847 1.3936852 8.5521746 10.083833
8.7382193 1.3856268 8.6220512 10.09025
9.1343679 1.2923653 8.4474945 9.0909996
2.1205382 1.9650747 8.6997175 16.07325
2.5572665 1.9589865 8.5670938 16.075001
3.1607959 1.994296 8.4212151 16.0795
3.4997909 1.9333074 8.4923229 15.870799
3.8698404 1.8800341 8.5951385 14.364785
4.2226481 1.8262138 8.5631037 13.828938
4.5494175 1.8004421 8.5841694 13.67865
4.9738555 1.7758292 8.5452309 13.204749
5.440793 1.7177112 8.5715761 12.70375
5.8193536 1.6703252 8.5698566 12.083428
6.2728977 1.6878086 8.584157 11.418667
6.5681701 1.6322126 8.4631109 11.582874
7.0830383 1.6404638 8.5001297 11.0885
1.9365364 2.3739378 8.4796696 14.0825
2.2569861 2.0430958 8.4864759 16.740831
11.833547 1.1034069 8.8262043 8.0885
6.6334739 1.5618269 8.9599953 11.07825
7.058682 1.4644964 8.9153881 11.071
7.8939295 1.4019939 8.963748 10.088
8.5639029 1.3296551 8.9556646 9.4169998
9.0251617 1.2787151 9.1772842 9.0895004
9.4562578 1.2572125 9.1378555 9.0900002
9.7902727 1.2234616 9.0298214 9.0904999
3.6653602 1.8360541 9.0165176 14.07725
4.3498602 1.7321904 8.9874249 13.079
4.5984483 1.781767 8.917079 13.242833
5.0263729 1.7378609 8.9655018 12.875
5.3588676 1.7082398 8.8803005 12.57575
5.8441987 1.6375586 8.9414272 12.078937
6.2558994 1.6546731 8.9567766 11.58525
6.5495481 1.6328092 8.8357773 11.086
16.046667 0.58505523 9.3252096 6
8.9841633 1.1120353 9.3855572 9.0725002
10.69713 1.1623516 9.5003681 8.0904999
4.9825778 1.4551921 9.47363 12.066
5.6888132 1.2713029 9.4931602 10.5755
6.3291969 1.5546297 9.314991 11.080999
6.4583988 1.5403335 9.3208313 10.585
6.8414059 1.5119447 9.2835588 11.0865
7.8802872 1.3924009 9.3179159 10.0875
8.2914534 1.335103 9.5146294 9.0869999
8.5980015 1.3653924 9.3394489 9.8387499
3.4700797 1.8025545 9.3700485 13.742667
4.3416533 1.7197657 9.3184566 13.07825
4.6277647 1.7460411 9.2817888 13.5655
5.0506859 1.6973877 9.3137064 13.072
5.4420362 1.6343282 9.4453182 11.742001
5.8493419 1.6085629 9.3471193 12.081833
2.2260196 3.0418153 9.547205 20.075001
19.319681 0.15104045 9.9041882 5
5.7998252 0.97940284 9.9231548 9.0667496
6.690383 0.95113367 9.7211342 9.0767498
7.1995754 0.84739292 9.8135719 8.0860004
7.3266087 0.88801217 9.640296 8.0865002
9.0048904 1.1169114 9.7012482 9.0802498
9.4495802 1.1697021 9.7246895 8.5802498
11.047203 1.0653118 9.7726154 8.0855007
6.5570641 1.4865392 9.744647 10.412167
7.1694241 1.4145489 9.7067795 11.0695
7.8418808 1.338097 9.7150097 10.0865
8.1967659 1.3265722 9.8670216 9.0860004
8.7048006 1.215602 9.6895275 9.0795002
4.275218 1.6930524 9.6030674 12.0775
2.2483718 2.5571566 9.8959827 14.0835
2.1700156 2.8116908 9.8570395 14.082
19.317425 0.1331792 10.36551 5
8.6626434 1.1791369 10.378193 9.0869999
9.0197763 1.1290299 10.157764 8.7515001
10.196607 1.0972 10.305342 8.0799999
10.706529 1.0923355 10.001699 8.0810003
11.103548 0.99980819 10.0379 8.0892506
5.9283962 1.5385251 10.152218 11.0665
6.2438102 1.4971659 10.231403 11.067
6.5354896 1.4357902 10.23508 11.0675
7.090826 1.3834124 10.230082 10.07675
7.4152746 1.3384111 10.318306 10.07275
7.8293934 1.3199139 10.019765 9.5860004
8.2262535 1.2696323 10.22016 9.0837498
8.678628 1.2339902 10.180352 9.0830002
4.1944313 1.6804103 10.194519 12.07625
1.9645399 2.6960633 10.199026 12.0815
2.1348104 2.6232586 10.039021 14.083
1.9069946 2.9586673 10.153194 12.581
2.0908136 2.8179288 10.002381 13.0815
8.2821512 -1.4500031 10.757552 0
17.767849 0.2520647 10.748572 5
16.7139 0.44106412 10.410789 6
8.7115717 1.1487956 10.683749 9.0865002
9.1508656 1.0289935 10.627026 9.0705004
9.400692 1.0707564 10.645144 8.5747499
9.8218851 1.1010457 10.43973 8.0795002
10.782336 0.84657985 10.758687 8.0719995
11.177258 0.94575161 10.424198 8.0889997
11.354113 0.92113501 10.65701 7.5447502
11.77731 0.89974606 10.559077 7
6.9573317 1.2994354 10.618464 10.0675
7.750524 1.2684705 10.456937 10.069
8.2086134 1.2751539 10.625795 9.085
1.6770697 3.0329754 10.572208 12.077167
8.4658089 -1.2925802 10.94111 0
8.192028 1.1428806 11.090712 9.0684996
8.6173182 1.1022273 11.050584 9.0775003
8.9973068 1.0280142 11.052462 8.3216248
9.7487526 0.96020323 11.049168 8.0705004
10.032583 0.91115707 10.939564 8.0710001
10.426019 0.88533002 10.868148 8.0714998
11.038769 0.93269324 10.968224 8.0885
11.407056 0.90503198 10.92239 7
6.9999948 1.2823038 10.955609 10.067
24.833925 -1.6839215 11.494081 3
8.1895638 1.1188517 11.428415 9.0679998
8.9714317 0.94642204 11.455654 8.0690002
10.048728 0.94563341 11.35589 8.0869999
10.718481 0.89417481 11.323752 7
11.486826 0.84200406 11.369653 7
11.630376 0.82174933 11.338408 7
11.56829 0.78447974 11.788726 7
10.758815 0.84519541 11.712663 7
15.095271 0.37043998 12.198917 6
9.0125628 0.89122897 12.136461 8.0679998
15.11889 0.38877884 12.6615 6
12.394429 0.71517587 12.641368 7
12.972952 0.59144318 12.772185 6
24.174873 -2.1946037 13.135235 2
12.602649 0.60353982 12.951144 6
13.178786 0.4769333 13.060863 6
24.373007 -0.78786731 13.275557 4
15.555671 0.22537383 13.387835 6
18.122059 -0.11204222 13.808268 5
15.767954 0.26482654 13.879271 6
16.530014 0.026531309 13.909111 5
17.139294 0.017260045 13.933732 5
15.394526 0.3655954 14.009006 6
17.417366 -0.07003811 14.662592 5
18.316753 -0.050555855 14.45249 5
15.219346 0.13487157 14.789876 5
22.125849 -2.7294512 16.966387 0
22.514896 -0.91540837 16.864815 4
