# .PCD v0.7 - Point Cloud Data file format
VERSION 0.7
FIELDS x y z intensity
SIZE 4 4 4 4
TYPE F F F F
COUNT 1 1 1 1
WIDTH 1200
HEIGHT 1
VIEWPOINT 0 0 0 1 0 0 0
POINTS 1200
DATA ascii
-2.8822019 3.0710254 -5.2793713 19.011
-2.0837445 3.0164592 -4.9190168 20.008249
-2.5283668 3.0021651 -4.7993402 20.0105
-2.1912279 2.9774127 -4.7208214 20.384876
-1.7076926 2.9715083 -4.6418338 20.957714
-1.4093417 2.9355497 -4.5455217 20.857866
-2.5683713 3.0508184 -4.0132561 23.012501
-2.2414386 3.0202744 -4.3330312 22.010099
-1.7851657 2.9459429 -4.1920176 22.061752
-1.3962204 2.9293346 -4.2547154 22.173668
-1.0971349 2.9121032 -4.1372561 22.756001
-1.9359696 0.73931581 -3.7946029 8.0107498
-1.6221167 0.93947309 -3.6798022 10.01075
-2.3778551 1.5592849 -3.7069578 14.0135
-2.6820323 1.6509113 -3.9017382 14.3465
-1.6892992 2.6111288 -3.7096829 21.00975
-2.3262687 3.0162811 -3.999671 23.011332
-1.953245 2.957247 -3.8036358 23.011332
-1.0003188 2.9103203 -3.9666023 22.756374
-2.5184045 0.7333256 -3.4579356 8.0135002
-2.199935 0.69658536 -3.2958741 8.0135002
-2.6190848 0.92576045 -3.3866503 9.5143747
-2.259995 0.92084074 -3.274195 10.014
-1.7943884 0.99796748 -3.3903961 10.51175
-1.5630291 0.99660867 -3.2616796 11.0115
-1.6957978 1.2490101 -3.419908 13.0105
-1.5296825 1.3197885 -3.223532 14.0115
-2.5929601 1.9032903 -3.3626332 18.0145
-2.395721 1.9254069 -3.5703022 17.512751
-1.7681211 1.7568733 -3.4807329 16.428457
-1.5536563 1.6951768 -3.4883707 16.011
-2.0121655 2.3897281 -3.341116 21.262751
-1.658112 2.3071785 -3.303395 20.761499
-2.51389 2.5855873 -3.4132264 22.180723
-2.1202955 2.5107303 -3.4670436 22.012083
-1.6889247 2.4463036 -3.3454266 21.76075
-2.4651206 0.70788765 -3.1909432 8.0142498
-2.1613204 0.67401445 -3.026114 8.0142498
-1.6798481 0.77250695 -2.9649024 9.6791668
-2.151495 1.0118171 -3.0223508 11.63925
-1.6606982 1.0724499 -2.9832501 12.56235
-1.556648 0.96061099 -3.0050178 11.136625
-2.4172347 1.2394733 -3.017833 14.01475
-1.7311934 1.485788 -2.9002111 16.417582
-2.455513 1.8065963 -3.0247555 18.515125
-2.0351658 1.9018054 -3.0204434 19.347166
-1.645371 1.8010232 -3.0464587 18.345501
-2.4557271 2.1654468 -2.845253 21.516001
-2.017705 2.2528088 -2.8966048 22.51425
-1.6500983 2.2119527 -2.9312434 21.762627
-1.6795278 2.4689753 -3.0606475 22.511499
-2.4687331 0.79777759 -2.7296484 9.6830006
-2.0663419 0.74759573 -2.5495346 9.68225
-1.6886637 0.65667951 -2.4975777 9.5144005
-2.4240851 1.1246383 -2.5638337 14.017
-1.7475573 1.0195173 -2.608489 13.125083
-1.5817482 0.96863556 -2.5777006 12.513374
-2.2211919 1.4912562 -2.6752729 17.140709
-1.6660956 1.4481577 -2.5256882 17.117691
-1.7632384 1.8607363 -2.6408014 20.537916
-1.6546381 2.1136212 -2.6231394 22.638813
-1.6834289 0.26441479 -2.0807648 5.5
0.39179605 0.31174177 -2.1267583 8.1315002
-2.1940439 0.61115456 -2.1617017 9.2263527
-1.7336496 0.53097469 -2.0933335 8.7311316
-1.5857497 0.72108763 -2.2202621 11.01425
0.41205484 0.51579398 -2.1039815 11.131287
-2.1719973 1.1698351 -2.2023673 15.80353
-1.6611055 0.96179253 -2.1098344 13.697482
-1.5959086 0.98027289 -2.1837249 13.932083
-2.2803497 1.4738894 -2.2954016 18.892687
-1.7228925 1.399264 -2.1659994 18.290482
0.55984509 1.5289794 -2.188045 23.132999
-2.2319784 1.8122083 -2.1652212 22.76825
-1.7640473 1.7981828 -2.14381 22.211004
1.0782695 1.6157658 -2.1689196 22.633125
-1.6810398 2.0305653 -2.291991 23.0145
-1.6934232 0.31684107 -1.7578335 6.5999999
0.5077917 0.33589795 -1.8076233 8.9981308
0.95664656 0.30931276 -1.7476526 8.1316252
-2.826575 0.56842804 -1.6245503 8.1944447
-2.5466583 0.59720653 -1.6737839 9.1577339
-2.1938183 0.57106221 -1.737682 9.8044348
-1.7715223 0.52629244 -1.7497343 9.0221062
0.53889602 0.49774036 -1.833403 11.677554
1.020753 0.50688869 -1.7848536 10.731251
1.2944002 0.70489454 -1.8132132 12.62975
-2.215337 1.089631 -1.7508483 16.745193
-1.6722761 1.0138949 -1.7607802 15.582639
0.52644455 0.99290204 -1.789827 19.814213
1.3738126 1.1528769 -1.7139794 18.1285
-2.4191439 1.3896332 -1.6883863 19.933609
-2.1894422 1.3848729 -1.799927 20.21195
-1.7579437 1.3590609 -1.7218126 19.77581
0.59378219 1.3243589 -1.8460398 23.130249
1.0595762 1.3946695 -1.7962257 22.81233
1.2346174 1.5836444 -1.7580904 23.129999
-1.8218707 1.7458591 -1.872663 22.795612
-2.0278277 0.28716093 -1.3528862 6
-1.7031155 0.33141142 -1.3613625 6.8803749
-0.50247794 0.39603007 -1.3230165 13.0085
0.53026199 0.29631859 -1.4818931 9.1953011
0.97321713 0.30106857 -1.5072907 8.574111
-3.770618 0.61149824 -1.3137045 6.5152502
-3.3845959 0.70414466 -1.419812 8.3574543
-3.045608 0.69113362 -1.4644718 9.1109581
-2.6769416 0.72688103 -1.51546 10.42575
-2.1329737 0.57986104 -1.4602001 9.9481001
-1.7584584 0.61334264 -1.3820012 11.084867
-0.99070293 0.52336478 -1.3492118 18.009333
-0.50905299 0.49113232 -1.2805538 15.009
0.57951677 0.57777399 -1.4228054 14.631899
1.0111318 0.57242298 -1.4745743 13.343351
-4.0004764 0.80711991 -1.3265336 8.3643332
-3.4819272 0.89663327 -1.4717664 10.029
-2.9612396 1.1151391 -1.4886723 14.376404
-2.6303973 1.0051165 -1.4324318 14.026168
-2.1463478 1.0651026 -1.4401798 17.685364
-1.7515036 1.0335033 -1.3727496 17.264841
0.62389255 0.98139995 -1.418041 21.078018
1.0068326 0.95279092 -1.385385 20.237394
-4.0276031 1.3822868 -1.2566117 13.0315
-3.750437 1.2327436 -1.335989 12.0305
-3.4419956 1.2385452 -1.3388133 13.52975
-3.0180564 1.5719459 -1.4853216 18.576565
-2.6753247 1.5293474 -1.4739643 19.539747
-2.1835513 1.3911442 -1.4365505 20.57939
-1.7296606 1.3185309 -1.3677655 20.818291
0.68923557 1.2296648 -1.5939306 23.129831
1.0949538 1.2516358 -1.4331843 22.629002
-4.1415119 1.8188635 -1.2667823 16.281624
-3.7608731 1.8330733 -1.2849708 17.530832
-3.5140796 1.7914864 -1.3942616 18.556583
-3.073952 1.9091277 -1.5130496 21.5275
-2.7273707 1.7931013 -1.4910406 21.651312
-1.6537864 1.622375 -1.4501548 23.019501
-4.2402668 2.0114381 -1.223784 17.032
-3.7207451 2.2432659 -1.332582 21.0305
-3.9567516 2.4159389 -1.2688516 21.364668
-2.7234788 0.18943924 -0.83318907 3
-2.0979595 0.29114199 -0.91975391 6.0137501
-1.7567844 0.30177897 -0.99827051 6.7863531
0.58501428 0.29497507 -1.0809199 10.153129
0.95854205 0.29564163 -1.0793601 9.812664
-2.0910549 0.76254964 -1.0443087 14.25626
-1.7213318 0.62041485 -0.98559284 12.113276
0.61628139 0.53196305 -1.0795823 15.004563
0.96203613 0.52967054 -1.0556513 14.784993
-4.7495666 0.97447616 -1.149927 8.033
-3.0088482 1.0707459 -1.0734831 13.0305
-2.6270256 0.9784534 -0.96822053 13.780499
-2.184381 1.0059203 -0.95095724 16.629101
-1.7435722 1.0841833 -1.0168252 19.287912
0.67634135 0.90682667 -1.0909673 21.746473
0.99190146 0.88100642 -0.90437162 22.150772
-3.8260846 1.3704761 -1.1872813 13.0315
-2.6629333 1.5079414 -1.0720761 20.029499
-2.0871868 1.3415148 -0.95270985 21.278751
-1.7506514 1.3140562 -1.005845 22.221035
-19.824244 1.9481372 -0.9956882 4
-4.6604004 1.9685283 -1.1264762 16.033001
-5.2403598 2.0565555 -1.0119658 15.034
-4.6529646 2.2559912 -1.1231617 18.033001
-9.7901478 3.166554 -1.0063202 12.036
-8.4500313 3.1618099 -0.91880214 13.0355
-7.9451342 3.1711569 -0.84489751 14.036
-7.2900934 3.1397419 -0.83083701 14.0355
-6.9686832 3.0932415 -0.90387005 15.0355
-6.5442901 3.0779238 -0.85155368 16.0355
-4.9819851 3.014127 -0.92116016 20.684288
-4.7325201 3.0353732 -0.94912493 21.284
-2.1972992 0.14731976 -0.53684628 3
-1.7660872 0.23275656 -0.58730936 5.7893214
-1.5809977 0.035089284 -0.6567297 3
-1.1313801 0.086820617 -0.54344118 4
0.6513654 0.27484769 -0.70171994 10.382736
0.91312474 0.2772817 -0.6266675 11.112763
-1.7248597 0.5900656 -0.63804924 12.244055
0.66940969 0.54301888 -0.65690255 16.519732
0.93786061 0.59414506 -0.56856143 18.879208
-1.7254317 1.0577095 -0.61503541 19.789898
0.71371734 0.85959381 -0.68920004 22.165405
0.91891783 0.85935223 -0.72160006 21.962973
-1.7160802 1.247004 -0.66892421 22.014252
-12.529496 3.1562598 -0.42347518 9.0369997
-9.5266914 3.1488786 -0.57458818 11.53675
-9.1669712 3.1385846 -0.74671793 12.0365
-8.2320547 3.1558301 -0.55585319 13.5365
-7.3149285 3.0954664 -0.58370626 14.03625
-7.1550894 3.1217279 -0.55989271 15.03675
-6.550746 3.0652127 -0.599186 16.036186
-6.182219 3.0535257 -0.59542871 16.702917
-5.7928329 3.0734541 -0.60035735 18.202778
-5.4030876 3.0429144 -0.43643692 19.036625
-4.9587574 3.0506001 -0.63489175 20.348093
-4.5741987 3.0205936 -0.68212646 21.53528
-4.3602924 3.000495 -0.6200158 22.0355
-15.472963 3.34408 -0.63433337 8.0367498
-14.505713 3.2890322 -0.43632758 8.0375004
-13.859386 3.2033346 -0.72162533 9.0369997
-5.7834463 0.24185267 -0.2611317 2
-4.9120359 0.19862953 -0.15528058 2
-2.4363654 0.14571609 -0.23701254 3
-1.7682874 0.18610647 -0.21981558 4.8910704
-1.3336182 0.086161613 -0.15134399 4
-1.0675218 0.057397008 -0.15390329 4
0.70022261 0.24035491 -0.29242983 9.6744576
0.88450241 0.29340604 -0.19984882 11.797809
-1.7223246 0.61163968 -0.20565102 13.43662
0.68905926 0.64761156 -0.31248316 19.202484
0.89195246 0.54710025 -0.22738855 17.81501
-1.7402071 0.96472013 -0.18611529 18.961193
0.90985918 0.95971274 -0.1857678 21.695786
-1.7342956 1.2663972 -0.3220135 22.831799
-12.310301 3.1653552 -0.18673655 9.0375004
-10.866974 3.1583047 -0.064861208 11.0375
-10.589948 3.181731 -0.24241786 11.037666
-9.2010851 3.1397469 -0.084819883 12.03775
-9.0636797 3.0988655 -0.18294637 12.038
-8.6374016 3.1386807 -0.12906212 13.037874
-8.1840725 3.1024542 -0.042274177 13.537875
-7.6569633 3.1573808 -0.031613946 15.038
-7.4859591 3.123898 -0.12767035 14.787937
-6.9944563 3.0631385 -0.37014818 15.370251
-6.532289 3.0714872 -0.22142772 16.704332
-6.2686105 3.0544088 -0.12595315 17.03825
-5.7737718 3.0468285 -0.23099287 17.570967
-5.5023489 3.0446682 -0.21187398 19.037624
-5.1348457 3.0327401 -0.32504857 20.4373
-4.5843115 3.0167387 -0.20311078 21.695007
-4.2938204 3.0140054 -0.22086845 21.593
-15.523458 3.2586448 -0.14543119 8.0375004
-14.793093 3.3227258 -0.16616063 8.0380001
-12.613945 3.2097764 -0.28707939 9.0377502
-11.814976 3.233357 -0.1570988 10.0375
-10.195818 3.2005043 -0.39735624 11.037
-1.6688373 -0.01166445 0.11170929 2
-1.512736 -0.0082977414 0.20239048 2
-2.1377017 0.097759843 0.048258781 3
-1.7184808 0.16558118 0.28455585 4.7940063
-1.3527479 0.047045141 0.17878315 3.5
-1.0330213 0.04131509 0.22721097 3.6666667
0.62407297 0.20615745 0.094985843 9.133008
0.91268373 0.28214243 0.19843383 10.173872
-1.718962 0.5890379 0.19733295 13.066555
0.60634911 0.69158733 0.056886017 21.161789
0.90182501 0.5741033 0.18886176 16.932009
-1.7314142 0.99410069 0.18335077 19.421841
0.9312771 0.96173894 0.15918112 20.931358
-1.7251875 1.2560556 0.28256661 22.664688
-13.091496 3.1599684 0.13319655 9.0384998
-12.208492 3.1741562 0.091984145 9.53825
-11.249125 3.1607642 0.20510855 10.03825
-10.681059 3.1907747 0.14787328 11.038
-10.148053 3.1458268 0.25562501 11.039
-9.3708649 3.1414278 0.21775867 12.20525
-9.0193424 3.1068473 0.20473397 12.03875
-8.7008247 3.1333063 0.39840958 12.539
-8.2572956 3.0902576 0.26943636 13.372375
-7.6522603 3.0755405 0.1880209 13.705667
-7.0555191 3.0622327 0.24937642 14.622458
-6.5726762 3.0611796 0.19566511 16.239117
-6.2852831 3.0247619 0.36334205 16.540127
-5.8240385 3.0037854 0.1740815 17.539276
-5.3977623 3.0166142 0.18786341 18.906267
-4.9625363 3.0034769 0.14566733 20.873083
-4.5669746 3.0115051 0.055710394 21.872625
-4.2976294 2.9876485 0.21649563 22.352751
-3.9090703 2.9857891 0.20824662 22.790001
-15.022566 3.2881627 0.28406376 8.0380001
-14.651703 3.2789285 0.096351445 8.0375004
-12.754557 3.2004859 0.14135683 9.0377502
-10.91444 3.2091899 0.21642455 11.0385
-1.6716418 -0.0016894341 0.56924522 2
-0.48796099 -0.016773853 0.77371138 1
-0.079950809 -0.0027849749 0.45292097 2
0.18187284 -0.040533777 0.6713624 1
0.78550261 -0.077930257 0.55687469 1
0.95355105 -0.072849475 0.4542422 1
-6.8420076 0.27343532 0.53256148 2
-4.1810298 0.16553843 0.45254275 2
-3.6667702 0.15316205 0.42940521 2
-3.5358672 0.15856048 0.5037064 2
-2.1105576 0.11416791 0.58441991 3
-1.7327077 0.16166469 0.61202019 4.5835876
-1.3396859 0.065968722 0.50702387 3
-0.99728507 0.065152511 0.51677197 3.5
-0.47654927 0.013800866 0.57631093 2.6666667
-0.21123274 0.031164942 0.67581868 2
0.62824166 0.259018 0.60269916 9.2723618
0.97747028 0.26061496 0.6104396 8.9792118
-1.707334 0.60694253 0.59645337 13.021883
-1.5420624 0.52342308 0.71777868 12.046
0.60328728 0.67664349 0.4236806 19.562517
0.93802702 0.5436703 0.57684571 14.81679
-1.7275567 0.99987209 0.56877387 18.946663
-1.5905492 0.87407935 0.78742224 17.046499
0.95225602 0.92705661 0.55551678 20.191639
-1.7111338 1.2961723 0.59104258 22.686428
1.0795588 1.2625206 0.56690806 21.929335
-13.681766 3.1501188 0.43782002 9.0389996
-12.527927 3.1369166 0.63148212 9.2891254
-11.929169 3.1780469 0.58870935 10.0395
-10.421513 3.165709 0.64588386 11.039499
-9.92974 3.1410882 0.45791286 11.0395
-9.4240522 3.1458797 0.63165915 12.0395
-9.1388988 3.0986242 0.60649157 12.03975
-8.4577684 3.0898528 0.72609007 12.54
-8.1902351 3.0755844 0.67038167 13.54025
-7.7828064 3.0666485 0.66770458 14.040625
-7.2132835 3.0546932 0.72154021 15.041
-7.0739255 3.0269547 0.73504579 14.0405
-6.5535212 3.0598016 0.68167496 16.165813
-6.2446012 3.0374889 0.73710907 16.291252
-5.8585262 3.0071352 0.66940618 18.0415
-5.3970222 3.0361309 0.57680416 18.860674
-5.0992436 2.9920108 0.62510103 19.458416
-4.6989455 2.9738679 0.53253096 21.042
-4.3289208 3.0048084 0.52419776 22.242025
-3.807549 2.9882865 0.48347938 23.041668
-14.632541 3.220823 0.4952918 8.0384998
-11.721904 3.212604 0.61607397 10.039
-1.3322878 -0.0022653304 1.1400707 2
-0.9509964 -0.00064757653 0.91128653 2
-0.61473995 -0.006994328 1.1023568 1.6666666
-0.15079445 -0.037443288 0.92782694 1
0.1597088 -0.036821537 1.0425407 1
0.62744713 -0.064811788 0.95063049 1.3333334
-4.1521797 0.12722145 1.1287172 2
-2.2738781 0.114031 0.84003037 3
-1.8155228 0.1081432 0.91729468 3.1744168
-1.4531428 0.012792799 0.97655565 2.1666667
-1.0633867 0.006492272 1.063161 2.5
-0.64209366 0.038932502 0.84009832 2.75
-0.29810998 0.0018150238 1.0770493 2
0.5854584 0.039262801 1.0194583 4
0.94594491 0.30687374 0.98061001 9.2754383
0.66539037 0.55535448 0.91550356 13.600045
0.97502035 0.53805989 0.956016 13.374996
-1.7026609 1.0452192 0.81709564 19.046249
0.71728754 0.9258762 0.92450148 19.3328
1.0071979 1.042035 0.99860805 20.568598
1.1661881 1.459692 0.98072433 22.009541
-14.804396 3.17769 1.0823087 8.04
-13.854782 3.1476262 1.1949186 9.0395002
-12.668129 3.1044548 1.1981348 9.0404997
-12.104965 3.1252337 0.91855699 9.5397501
-11.74841 3.1671829 0.98213631 10.04
-11.540632 3.1124263 0.98923731 10.04
-10.635074 3.1495106 0.81971759 11.0395
-10.25318 3.10343 1.1794683 11.0405
-9.8883276 3.1473999 0.96141249 11.040333
-9.2817707 3.1082997 1.0063074 12.040751
-8.6698647 3.0922554 1.1021514 13.041
-8.2989388 3.0950339 0.97602439 13.041
-7.6948495 3.0559616 0.97851175 14.041333
-7.2596016 3.003782 1.1074243 14.54225
-6.9565573 2.9481871 1.1436969 14.291875
-6.6610956 3.1151228 1.1149795 16.542374
-6.1230774 2.997647 1.0320439 16.292625
-5.7347341 3.0179787 1.0773472 18.043251
-5.5050335 2.978617 0.9502418 18.459665
-4.9334707 2.9871035 0.97644591 18.976467
-4.6180096 2.9772344 0.89085037 21.360575
-4.1912518 3.0262444 1.0327899 21.694489
-3.7406034 2.9486547 1.1388818 23.0455
-15.636702 3.3232336 0.85529858 8.0395002
-13.935644 3.200114 1.0561332 8.0395002
-2.1322389 -0.0076192319 1.456007 2
-1.2535064 -0.0056037866 1.4611533 2
-1.0132852 -0.0081531778 1.2613028 2
-0.446096 -0.031721327 1.4191885 1
-0.10084689 -0.026828492 1.4112064 1.3333334
0.49586904 -0.057352655 1.4222592 1
1.1024572 -0.07411918 1.2642802 1.75
-5.2757902 0.15691014 1.369149 2
-5.1876025 0.17035741 1.2179108 2
-3.8093147 0.13608995 1.2478155 2
-2.0724192 0.068929702 1.3287394 2.5
-1.7993494 0.14434363 1.3880444 3.8302143
-1.4323683 0.1333774 1.4405266 4.0999999
-0.88068962 0.0096295541 1.422604 2
-0.65822518 0.012916067 1.3838621 1.75
0.92154109 0.27871129 1.347138 7.3725781
-2.1769953 0.71505827 1.5233712 10.582936
-1.8154254 0.66709095 1.4210864 11.25275
-1.510039 0.57802343 1.393272 10.743389
0.64844757 0.50260311 1.2476552 11.922355
0.95394236 0.56067324 1.4292496 11.857238
-2.4029648 1.0165253 1.5970142 13
-2.0790882 1.0366572 1.5230868 14.779194
-1.7394717 1.1178095 1.4743412 17.045399
-1.4942923 1.0054464 1.3851105 17
0.63505936 0.97315967 1.3785509 18.268196
0.93812436 0.98008621 1.4222832 18.098463
1.270465 1.04406 1.3156942 15.795625
-2.0637999 1.4791458 1.5956016 19.258635
-1.7843506 1.4116271 1.5174637 19.865017
-1.4860592 1.3022692 1.4297348 20.521187
0.93921632 1.348654 1.3967466 22.436691
1.2757903 1.3755112 1.4080415 19.661083
1.3247825 1.7012892 1.4991442 21.507042
-18.257969 2.0479691 1.3137252 5
-15.322949 3.1735055 1.501526 8.0404997
-13.5027 3.1701732 1.3166269 8.04
-13.121893 3.148808 1.5664946 9.0404997
-12.435779 3.1532722 1.3241036 9.0405006
-11.983789 3.1354947 1.340879 10.041
-11.338367 3.150939 1.4457282 10.041
-10.811711 3.0892477 1.4945832 10.041
-10.533864 3.1403873 1.4069343 11.0415
-9.8900928 3.0938134 1.5791177 11.0415
-8.9071436 3.0982063 1.4485136 12.264167
-8.773262 3.1040297 1.3668766 12.708833
-8.1828556 3.040978 1.5631347 13.043
-7.8209219 3.0469439 1.3810179 13.442248
-7.4128265 3.0213985 1.3968079 14.542875
-6.9514589 2.9926074 1.4810804 14.9434
-6.3490672 3.0131359 1.3775618 15.459749
-5.7606001 2.9256363 1.4246037 17.044624
-5.3999634 2.9820354 1.3848051 18.044666
-4.9423108 2.9957955 1.5197744 19.696274
-4.5821605 2.9662592 1.3063459 20.440016
-4.1911144 2.8728433 1.3030899 22.045
-3.7449689 2.9579592 1.3515211 23.047501
-3.5319061 2.9490888 1.3491285 23.047127
-15.71059 3.297709 1.4480197 8.0395002
-2.3118908 -0.015084565 1.7016562 2
-1.4150592 -0.036442321 1.7079768 1.1666666
-0.99247473 -0.023173928 1.6330203 2
-0.59135008 -0.0082163364 1.7958307 2
-0.12593284 -0.016820116 1.6595831 1.75
-4.1123343 0.075349249 1.753581 2
-3.5230858 0.082846582 1.9680759 2
-2.9779823 0.26258329 1.776967 3.9444444
-2.5231333 0.21289577 1.7798848 3.8333333
-2.1299348 0.21443938 1.7233025 4.25
-1.3309927 0.047579102 1.767663 3
0.91109854 0.3219811 1.759344 7.390667
-3.3722558 0.68740398 1.9106908 7
-2.4809361 0.75829899 1.6908989 10.181063
-2.0449898 0.71367067 1.7122289 10.683437
-1.6885419 0.65454292 1.7661524 10.853167
-1.4683313 0.51410532 1.6298038 9.7775002
0.58695763 0.53890413 1.7106373 11.085501
0.92341137 0.48080531 1.8811692 9.2943163
1.2694854 0.58586669 1.7342529 10.506479
-4.1187687 0.92287099 1.9220022 8.5504999
-3.714817 0.97008008 1.8977273 9.0517502
-3.3234568 1.0439051 1.8604679 10.580444
-2.8932903 0.91074687 1.7298533 10.665867
-2.4755023 1.1377616 1.7192189 14.170431
-1.8510238 1.1922977 1.8090084 16.622732
-1.4007075 1.0514382 1.6858637 16.473204
0.69333971 1.0680301 1.8586019 17.08375
0.91249698 1.0819968 1.7777421 17.168688
1.2813283 0.88326699 1.7813367 12.83875
-4.0203648 1.503139 1.8847127 13.0505
-3.7215905 1.4520864 1.875437 13.0515
-3.3033166 1.4328657 1.871819 13.80275
-2.9495089 1.4429789 1.7932358 15.304074
-2.5936666 1.4642673 1.8342873 16.639297
-2.1962359 1.5500594 1.7311978 19.029381
-1.7281308 1.4718632 1.7361336 20.238539
-1.4376649 1.3802353 1.7699254 19.902716
1.0113429 1.3643932 1.7818745 20.100098
1.284703 1.2950374 1.7712384 17.506124
-3.8528543 1.9367639 1.9571527 16.301334
-3.3096049 1.7987418 1.8748548 16.552999
-3.0382719 1.7467917 1.8623396 17.035666
-2.649529 1.7796614 1.7530544 19.377583
-2.2383385 1.7249949 1.7110276 20.598146
-1.7814105 1.846121 1.8419975 22.644646
-1.4122338 1.7186122 1.921502 22.189657
1.1110212 1.6564054 1.8399084 22.337
1.39852 1.7171161 1.7953353 20.089167
-3.0035827 2.252913 1.8313586 21.220417
-2.5526838 2.3688684 1.9224331 23.056749
-2.2308896 2.1402438 1.9298147 23.0585
1.315165 2.0778749 1.8195314 23.088499
-6.0487552 2.7188296 1.6340508 16.042
-5.9179716 2.7088518 1.8022037 16.042749
-3.2577426 2.7824795 1.9370347 23.04825
-3.1458335 2.5044789 1.8936299 22.553249
-14.922865 3.1725421 1.6861253 8.0405006
-12.827431 3.0905907 1.6225631 9.0404997
-12.349133 3.105617 1.8248519 9.0413752
-11.686918 3.0695984 1.9371457 9.5415001
-11.301116 3.0951042 1.6846317 10.0415
-10.508462 3.1052754 1.7793697 10.708583
-9.4064159 3.0762258 1.8756824 11.5425
-9.003746 3.098372 1.8344253 12.04325
-8.1309681 3.0090222 1.7945955 13.04325
-7.9923997 3.0252395 1.6725199 13.0435
-7.3878088 3.0064638 1.7508032 13.843851
-6.8414154 2.9988008 1.935454 15.045126
-6.5885124 3.0149841 1.8776914 14.5445
-6.0544701 3.011951 1.6713288 16.54475
-5.2777987 3.0065289 1.8194344 17.212584
-5.0495691 2.9500544 1.7754436 19.113867
-4.6437049 2.9725635 1.7278444 19.402514
-4.1758561 2.9383492 1.7259617 21.151005
-3.7142625 2.9205995 1.7307084 23.050249
-3.5288029 2.932858 1.843627 22.550667
-14.560895 3.2632544 1.758845 8.0404997
-5.45362 -0.10363668 2.1267424 2
-2.001687 -0.16225076 2.3935537 1
-1.6057792 -0.14507169 2.1964614 1
-1.3889103 -0.043775544 2.250319 1
-0.58432227 -0.023912089 2.1575835 2
-0.30432436 -0.021294862 2.0043972 2
-5.3842964 0.1583637 2.2214303 2
-5.0748348 0.16664234 2.1169269 2
-4.6727018 0.15593374 2.2086318 2
-4.30161 0.22691941 2.2805209 3
-3.6735301 0.34221417 2.3025537 3.625
-3.3787358 0.22873214 2.1659651 3
-2.9324489 0.19768953 2.2202127 3.0833335
-2.5747161 0.19198854 2.1981139 3.3611112
-2.104037 0.25365588 2.1978872 4.2380953
-1.7753423 0.15879053 2.2849312 3.5555553
-24.393291 0.57334715 2.2814205 2
-5.2056465 0.58706748 2.2782645 4
-4.8518505 0.46904624 2.2885172 3.5
-4.489151 0.71468681 2.3989201 5.75
-4.0532484 0.57345605 2.197865 5.25
-3.7564344 0.66764361 2.2619123 6.375
-3.2744236 0.7457757 2.3205626 7
-2.8912716 0.7282505 2.3132098 7.4285712
-2.5303369 0.74459875 2.3118632 8.1949167
-2.1649764 0.67711931 2.250246 8.6672306
-1.7016904 0.61677068 2.2476258 8.7805996
-1.3250164 0.56297404 2.2085476 8.8166103
0.72842258 0.60099268 2.2218556 10.519063
0.81415635 0.63481194 2.0937781 11.0805
1.3510097 0.60960072 2.1474988 10.089
-8.4238205 1.103627 2.3731182 5
-4.4562283 1.0660095 2.2720656 8.5501251
-4.1766181 1.0683076 2.2696648 8.7838745
-3.7357874 1.0668445 2.285919 9.5524168
-3.3514366 1.0979129 2.3043242 10.218133
-2.9737287 0.98496521 2.2701554 10.122156
-2.666142 1.0358214 2.3239698 10.647778
-2.181339 1.0352832 2.3204165 12.326183
-1.7433877 1.1413286 2.3422935 13.480249
-1.2507932 1.0354537 2.216382 14.442437
0.87533742 1.058014 2.154633 15.831625
1.3086581 0.90085006 2.1408963 12.83875
-8.4600334 1.4883949 2.3939834 6.5
-6.1885953 1.44918 2.3266022 8.0465002
-5.3958979 1.3122246 2.3309324 8.5477505
-4.986834 1.3477248 2.2906129 9.1992502
-4.6199327 1.3786188 2.2949932 10.199666
-4.2154627 1.3018619 2.3169761 9.8835001
-3.8080268 1.4031215 2.2977138 11.463291
-3.4037704 1.4437726 2.2980828 12.53174
-2.849654 1.4937611 2.2755756 14.320159
-2.4765482 1.4033858 2.2937598 14.375958
-2.0928831 1.4002218 2.291358 15.333113
-1.6778969 1.5045208 2.3463302 17.240042
-1.3887658 1.4097294 2.230798 17.666067
0.91903496 1.3207762 2.1819661 18.250458
1.5873344 1.3591232 2.2856028 15.088
-8.3773108 1.9356694 2.394017 8
-6.0437927 1.7899787 2.251734 10.0465
-5.7193599 1.7101978 2.2623384 10.047
-5.5690699 1.9921142 2.349329 12.0475
-4.9239025 1.8261636 2.2927189 11.826222
-4.5663066 1.7180686 2.2200496 12.605278
-4.1751084 1.788059 2.331295 13.186966
-3.7804115 1.7612293 2.2390208 14.241333
-3.3807685 1.9480937 2.2788661 16.0895
-2.8971097 1.8447865 2.3023577 16.870001
-2.5060003 1.8832457 2.3416729 17.652937
-2.020134 1.7927505 2.3272238 18.5
-1.7329381 1.798208 2.3001595 19.809505
-1.3291934 1.8304291 2.3301475 21.5665
1.0132107 1.9246684 2.3535011 23.0825
1.5017595 1.7520068 2.1967402 19.588625
-11.304269 2.3929641 2.3303938 8.0424995
-8.7314825 2.1276724 2.2531996 9.0445004
-6.0771351 2.1497808 2.2961078 12.0465
-5.3102574 2.1042175 2.245213 13.798625
-5.0930939 2.280535 2.2276421 15.049
-4.4699507 2.3080542 2.2660382 16.050501
-4.1483665 2.1812515 2.1655209 16.050583
-3.7818477 2.2287261 2.2653725 17.016037
-3.2901657 2.3180647 2.3685918 18.25
-2.9580104 2.3135881 2.2733121 20.04756
-2.4272637 2.1755085 2.1724091 21.724583
-2.2198129 2.2540045 2.2396717 22.192118
-1.7076877 2.2271957 2.3693781 22.060501
1.0344281 2.1501858 2.2155423 23.084999
-8.4294662 2.4653239 2.3319199 10.021999
-7.1363626 2.5309882 2.1851401 12.04525
-5.5936489 2.7033737 2.1919558 16.0445
-5.1285496 2.7185528 2.2895596 16.048
-4.1474586 2.6419833 2.368006 18.271749
-3.6727872 2.6745868 2.332459 19.808626
-3.3045249 2.7410481 2.2926793 21.621408
-2.9800479 2.7224679 2.2765229 23.053249
-2.6020024 2.6995292 2.3781893 22.555679
-15.743581 3.1614406 2.2057133 8.0415001
-15.361959 3.141402 2.0745125 8.0404997
-15.00497 3.1600075 2.2986012 8.0410004
-12.543111 3.1345522 2.2379246 9.0419998
-11.571878 3.0537698 2.1791339 10.042375
-10.577341 3.0453048 2.18437 10.542875
-10.329164 3.0933478 2.0942585 10.0425
-9.8554354 3.0760467 2.2807741 10.821334
-9.3105469 3.0608525 2.2205417 11.543375
-8.0034866 2.996665 2.2959785 13.04475
-7.9876904 3.0261142 2.1255217 13.04475
-7.3829975 2.9927607 2.1302128 14.045166
-6.9911923 3.0098436 2.1991692 14.378583
-6.5288811 2.9722328 2.2583234 15.013049
-6.2306867 2.9706213 2.2009609 16.046875
-5.8137431 2.9576464 2.1480296 15.546333
-5.4144764 2.9728637 2.1952612 16.672625
-4.8290448 2.9278774 2.0462666 19.04875
-4.6320605 2.9198143 2.1729794 18.48868
-4.2064743 2.9095004 2.0539167 20.594076
-3.783428 2.9036834 2.1737785 20.784317
-3.4249699 2.8614244 2.363018 20.979445
-3.066339 2.8378856 2.2448804 22.053125
-18.785452 3.3316307 2.2730579 7
-15.138471 3.2852557 2.1804035 8.0410004
-1.4568011 -0.040713996 2.5489917 1
-0.75943571 -0.038190749 2.6147871 1.6666666
-0.25315207 -0.073417708 2.5816193 1.5
-1.6825292 0.20620809 2.6427557 4
-4.8262482 0.62848008 2.6217139 5
-3.7531829 0.70170546 2.6958456 6
-2.4953685 0.73312771 2.7240827 8.0579996
-2.2037139 0.73902279 2.7422493 8.0594997
-1.7086115 0.73566121 2.6599493 9.4383755
0.5024488 0.59367037 2.4744687 10.082
0.89862847 0.50319427 2.420006 9.085
1.5659842 0.75305831 2.6912425 10.0865
1.6147895 0.50582457 2.6388819 8.0869999
-3.3968863 0.85579383 2.5913155 8.05375
-2.0127571 1.0590988 2.5754766 11.309875
-1.7605585 1.049387 2.6227953 11.861501
0.75862205 1.1776081 2.4571362 16.0805
0.95143193 0.89615947 2.6150739 12.413333
-2.1136541 1.4772663 2.6283932 15.560625
-1.6305484 1.480687 2.6509767 16.06225
-1.2322462 1.574019 2.4229834 18.567749
1.4666653 1.4539402 2.5676398 16.087
-19.830563 1.643631 2.4485688 4
-4.0361695 1.976174 2.6864097 14.052
-3.110348 1.8950337 2.566808 15.3045
-1.7142491 1.9798427 2.5462472 19.561249
-1.3481352 1.7498469 2.579771 20.06675
1.6654189 1.7740507 2.5541637 18.087334
-19.875965 2.382143 2.513118 5
-8.4484634 2.1686871 2.4842315 9.0225
-8.3929319 2.2016416 2.4025111 9.3785
-1.7807264 2.2993679 2.5589342 21.810749
-1.1442568 2.0611377 2.6086767 22.068501
0.93233025 2.1607065 2.5243604 22.583874
-19.889664 2.791816 2.4991479 6
-5.6480875 2.6940353 2.7099705 16.046249
-5.3231468 2.6267819 2.4741976 15.797125
-5.0824671 2.7094595 2.6454861 17.047001
-4.6960392 2.544625 2.6612287 16.382334
-3.8150854 2.6998608 2.5535054 20.049501
-3.3702173 2.7281697 2.5777373 21.175936
-2.9945188 2.7265067 2.6896224 22.05275
-2.6474948 2.5504756 2.5481272 21.305563
1.6923306 2.467433 2.6536126 22.087
-15.082902 3.1025114 2.787612 8.0424995
-12.940916 3.1598363 2.7721195 9.0424995
-12.770579 3.1487076 2.6057577 9.0430002
-10.850529 3.034658 2.7373705 10.0435
-10.095866 3.0300725 2.5969775 11.04375
-7.1423397 3.0130949 2.5677836 14.0465
-6.5769687 2.9913638 2.6334128 15.0475
-6.1324725 2.9456356 2.4165201 16.047501
-5.4544902 2.817899 2.461313 15.548
-19.953043 3.3028347 2.4010448 6
-11.682227 -0.063989669 2.8664656 2
-1.487855 -0.13173988 2.9990349 1
-0.20198417 -0.10234599 2.8164182 1
0.028651282 -0.099649154 2.9783976 0.5
0.41084224 -0.19703794 2.9651268 0
1.7834148 -0.13550103 3.1276727 1.5
-1.7569395 0.71455705 2.8823285 9.0649996
0.85063261 0.62555259 3.0492866 8.5782499
1.5687454 0.65643251 3.0428553 9.08675
-1.6390158 1.1161844 3.0364025 12.066
0.92389435 0.89289725 3.1516893 11.0785
1.6666889 1.0522687 3.0081038 12.086
1.3628902 1.3696311 2.8820407 15.086
-7.9785743 1.7776752 2.9870682 8
-1.8544992 1.8514527 3.0177345 17.062
-1.0427048 1.933238 2.8628311 20.0695
1.7069006 1.8695933 2.9807572 17.58675
-8.0139008 2.1401851 3.0023563 9.5
-1.794546 2.1923699 2.9523308 20.062
-1.1569195 2.0893152 2.8219335 22.068501
0.81495321 2.1744795 2.8213069 22.08275
-7.9955835 2.4308965 2.9950655 11
-6.5581303 2.7052193 3.0572648 14.046
-6.2519283 2.6610017 3.0888033 14.046499
-5.7126255 2.6910477 3.060992 15.04725
-5.3668075 2.6660175 2.9425461 16.047501
-4.9790015 2.6542432 3.0571902 16.6486
-4.4677043 2.6876531 2.8587224 18.049
-4.1705713 2.6674838 2.9912453 18.050251
-3.8906598 2.6601913 3.1294875 19.0515
-3.3141859 2.7178454 2.992733 20.452801
-2.9937823 2.7062588 3.0660048 21.054251
-2.7734456 2.7020233 3.1621914 21.0555
-2.2088706 2.7405269 3.029197 23.057501
-1.9784696 2.7238431 3.1101689 23.059
0.41283888 2.64432 3.0719142 23.078751
0.97657728 2.607373 2.979089 23.082582
1.7518249 2.4861703 3.0741835 20.752583
-12.868386 3.1589675 2.9007835 9.0434999
-12.162043 3.0736592 2.9867284 9.0432501
-10.206266 3.0033813 3.0984731 10.54475
-9.8188438 3.0176632 2.853128 11.0445
-1.8297977 2.8001044 3.195704 23.064751
-0.21183552 -0.10338753 3.3319304 1
1.7145867 0.094638854 3.2318602 4
-3.3416176 0.73304993 3.3394432 7
0.78838378 0.68740678 3.2031302 9.0775003
1.7466545 0.56637198 3.3288622 8.0854998
-5.5471954 1.0559053 3.5498502 8.0489998
-1.6821054 0.97550923 3.5755134 10.0645
0.786044 0.86647511 3.202955 11.0775
0.91615391 1.0207291 3.4024048 12.078
1.6915191 1.0293006 3.3952963 11.085416
-2.0595217 1.4187523 3.2317681 14.064
1.6560223 1.3250377 3.5211551 13.0845
1.8200886 1.7661055 3.3350418 15.918917
0.39258248 2.0966277 3.2175694 20.07925
0.6309821 2.1250637 3.3713715 19.828667
0.93699956 2.1131253 3.4204428 19.5795
1.8542581 2.1205778 3.3604717 18
-6.5554643 2.6181962 3.5116653 13.54725
-5.7880583 2.6914885 3.4355552 15.04825
-5.4237456 2.6531057 3.5379415 15.04925
-4.823844 2.6527646 3.2322245 16.0495
-4.6066003 2.6387041 3.4321249 16.479216
-4.1401281 2.6740839 3.4457812 17.442417
-3.6924191 2.6648042 3.3427553 18.7195
-3.4001853 2.6549547 3.335125 19.053749
-3.0028 2.6522095 3.4599164 19.8556
-2.5985599 2.694062 3.3182971 21.056749
-2.1588156 2.7202144 3.3529797 22.201715
-1.7260789 2.7530928 3.3705094 22.395584
-1.2814291 2.7630463 3.5023553 22.595036
-0.90398169 2.72874 3.4875746 22.790529
-0.48322773 2.6941955 3.5065215 22.797102
-0.18558817 2.6838706 3.5195081 22.776373
0.34101185 2.6703551 3.4483793 22.943518
0.74200344 2.6656444 3.4600677 22.578417
0.98943818 2.6363759 3.355691 22.622478
1.5209129 2.5609312 3.4241583 20.639444
1.8065306 2.4838023 3.3970761 19.7925
-15.052081 3.0568092 3.3447485 8.0424995
-12.450913 3.0819337 3.517648 9.0439997
-10.393827 3.0571184 3.2979658 10.045
-9.8520746 2.9931026 3.34182 11.0455
-5.0544486 2.8142951 3.3940849 17.0495
-1.9762436 2.8084333 3.2181821 23.063999
-1.4938064 2.8260746 3.2212472 23.064251
2.3770423 2.8936276 3.379333 21.0875
-5.1063108 -0.12268579 3.932822 2
-4.0696135 -0.14668828 3.9244611 2
-2.9971395 -0.10668029 3.9016089 1.5
-2.7096829 -0.140838 3.7891057 1
-2.2227213 -0.062897608 3.9721749 2
-1.9092083 -0.099933252 3.9402735 2
1.3648062 -0.10537884 3.7462137 1.6666666
-7.0032349 0.37718892 3.9568 4
-6.2141819 0.13510922 3.9385481 3
-5.9496098 0.11390245 3.9851313 3
-5.5586829 0.18915087 3.9382465 3.5
-4.6240306 0.38286269 3.9584329 4.3333335
-4.1337347 0.26049617 3.969733 4
-3.8717582 0.18266366 3.9661176 3.5999999
-3.3383391 0.18477769 3.9636042 3.3333333
-3.0805638 0.12310724 3.9328864 3
-2.5150256 0.21225722 3.9649317 4
-2.2032042 0.13391957 3.9626884 3.4285715
-1.9047519 0.14921814 3.9483647 3.5
1.2954861 0.010712397 3.9580722 2
-6.482645 0.43291289 3.9531851 4
-5.9708576 0.68452245 3.9615169 5.75
-5.4421477 0.52064186 3.9604411 5
-4.9980607 0.61952883 3.9603958 5.5
-4.5763059 0.62707388 3.9804411 5.8000002
-4.232564 0.63445908 3.9892597 6.1428571
-3.7840335 0.66841429 3.9842455 6.3333335
-3.4455128 0.63500971 3.9910421 6.4000001
-3.0079675 0.46387997 3.9910669 5.5
-2.551899 0.58282393 3.9855433 6.3333335
-2.1424007 0.55449289 3.9768717 6.5
-1.8679947 0.58941072 3.974333 6.6666665
1.6885053 0.60047466 3.7148333 8.0854998
-8.4874382 1.0602627 3.9811077 6
-6.6089368 0.93715292 3.9614246 6.5
-6.0844736 0.92988235 3.9766679 7
-5.7763934 1.0935574 3.9474821 7.7750001
-5.3906584 1.025797 3.9508033 7.4252501
-4.9993467 1.0515963 3.971684 7.6257501
-4.5552874 1.0776827 3.8018007 8.5257502
-4.1102052 1.0201004 3.9247994 8.5266247
-3.8226752 1.0622783 3.8904648 8.7769165
-3.3634894 1.0575423 3.9051542 9.0279169
-2.9803774 0.95014346 3.9470532 8.5
-2.6354103 1.0586485 3.9414756 9.5958338
-2.2459912 1.0301844 3.8817329 9.5802002
-1.8575771 0.91792989 3.887188 9.5808506
1.6408663 1.0095342 3.7951665 10.585
-6.8392448 1.3030093 3.9488356 8.0480003
-6.5396237 1.2481805 3.9558866 8.02425
-4.5816708 1.4287584 3.8378367 10.192417
-4.3231072 1.5772736 3.7976081 11.0525
-3.8491488 1.3947041 3.9100833 10.693583
-3.3690493 1.466442 3.9417634 11.778
-3.0477858 1.2639282 3.8128057 10.828
-2.5876093 1.2217782 3.9305854 11.02925
-2.1558135 1.2295619 3.9350107 11.0605
-1.8270391 1.2471009 3.9306872 11.728667
1.5884947 1.3612479 3.8936801 13.0845
-5.9545493 1.7818758 3.6336942 11.0485
-5.4819341 1.6227338 3.6508236 10.0495
-4.9922395 1.7676692 3.8991218 11.3845
-4.6690259 1.7967167 3.918014 12.052
-4.2349858 1.8225311 3.9394679 12.3865
-3.8152606 1.7288699 3.9471781 12.527
-3.5941751 1.6248102 3.9596012 12
1.5202807 1.6852651 3.9519262 15.084
-7.400712 2.2093239 3.9669752 11.04725
-6.4116049 2.2590413 3.9044378 12.0485
-6.0779471 2.1296387 3.8896828 12.049
-5.76052 2.1272509 3.9135666 12.52475
-5.0369864 2.2926033 3.9502969 14.025499
-4.6936178 2.141674 3.9542391 13.052
-10.88651 2.6774983 3.7285116 9.0454998
-7.6565895 2.6179349 3.9894044 12.047
-6.9071646 2.6723669 3.7856071 13.0475
-6.5133028 2.6357005 3.85922 13.04825
-6.2290769 2.5511448 3.8936138 13.524375
-5.8412805 2.6374102 3.8274977 14.04925
-5.4485264 2.5683658 3.8619745 14.349999
-5.1620026 2.6843834 3.8743572 15.05075
-4.2243967 2.5548584 3.6993935 16.151001
-3.7977331 2.6191225 3.8109674 17.27725
-3.3258674 2.6525922 3.8004811 18.3055
-3.0275128 2.6700361 3.8865039 18.8615
-2.6173472 2.663389 3.8273387 19.529062
-2.1759021 2.6572032 3.7025492 20.859798
-1.7911742 2.725086 3.8296695 20.546768
-1.3203176 2.711282 3.8307674 21.233688
-0.94017285 2.7152035 3.7881927 21.800486
-0.54877895 2.681783 3.7815609 21.963505
-0.12158535 2.672163 3.8188372 21.792379
0.27524647 2.6658154 3.7850275 21.91338
0.59490222 2.6407316 3.7947655 21.575134
0.93977249 2.6316369 3.7085919 21.768986
1.4776523 2.541934 3.7973251 19.583374
1.7917798 2.493016 3.7145262 19.084999
2.4103799 2.7568169 3.7174852 19.58675
-15.162383 3.0717003 3.7003152 8.0430002
-13.726343 3.0719018 3.6843743 8.0440006
-12.473516 3.0691504 3.8212426 9.0445004
-0.59924555 -0.14321603 4.1823597 1
-0.095688164 -0.22959119 4.0731831 0
-6.2565651 0.014813274 4.0571055 2
-5.7833567 0.075082064 4.0440116 3
-4.5994077 0.18524143 4.0484123 3
-3.3683569 0.29551205 4.0319872 4.5
-2.9979899 0.24917211 4.0472908 4
-2.5427244 0.29930508 4.0406857 4.3333335
-2.222842 0.28350031 4.0173469 4.5
-1.907734 0.26823795 4.0059543 4
-0.79935837 0.22903618 4.2746878 4
-4.2354336 0.57831329 4.0102162 5.6666665
-3.7387798 0.65102768 4.0066338 6.25
-3.4124045 0.63077915 4.0088749 6.4000001
-3.0427637 0.56542414 4.0131435 6
-2.6382279 0.70418155 4.0171499 7.4578218
-2.2221253 0.58278668 4.0120959 6.5
-1.8521458 0.52760679 4.0278587 6.4000001
-0.77470571 0.75166422 4.2665601 8.0719995
-4.8370385 0.87634391 4.0037384 7
-3.3514481 1.057284 4.0144911 9
-2.99843 0.96551883 4.0279188 8.75
-2.7631376 0.90425617 4.027555 8
-2.1971409 0.80818158 4.0305262 8.0301247
-1.8343084 0.85199261 4.196075 8.3648338
-5.4308362 1.5556915 4.0021648 10.0505
-4.7290611 1.3916702 4.0121918 10.026
-4.3736119 1.3125788 4.0077791 10.053
-3.771558 1.2487614 4.015059 10
-3.3599808 1.285208 4.0180893 10
-2.5867867 1.5195549 4.0430312 12.279563
-2.2442374 1.3892434 4.0503368 12.310375
-1.8819035 1.2668533 4.0514288 11.395333
-0.7405616 1.4817858 4.2657647 13.072
-6.9435649 1.870563 4.0238118 10.048
-6.4037113 1.763098 4.0177712 10
-6.2922859 1.7405264 4.0172434 10.049
-5.7362571 1.7457908 4.0148802 10.525
-5.4483581 1.9693267 4.0144997 12.0505
-5.0978713 1.9485689 4.0314636 12
-4.4986196 1.904213 4.0310125 12.05275
-3.809561 1.8617967 4.0467243 13
-3.4465575 1.8674812 4.0438919 13.47775
-2.9167781 1.6962588 4.0485268 13.329
-2.6026721 1.7031875 4.0568199 13.5295
-2.193532 1.9115331 4.0686064 15.32198
-1.7881405 1.9311509 4.0747318 16.0625
-0.72640115 1.7566419 4.2188587 14.572
1.2664469 1.8516388 4.2266207 14.832251
-6.9112597 2.2415195 4.0148478 11.048
-6.4362612 2.0585797 4.0220923 11
-6.3758817 2.1856663 4.0089126 12
-5.8252573 2.0964091 4.0226932 11.666667
-4.9579568 2.2978277 4.038496 13.776
-4.4926109 2.1988521 4.0333734 14.05275
-4.1345325 2.257179 4.0503979 14.55375
-3.79953 2.1649175 4.0488448 14.5
-3.4135346 2.2157607 4.0532322 15.36125
-3.0049517 2.158869 4.0743523 15.833333
-2.589751 2.2100046 4.0682178 16.386642
-2.2871895 2.1646562 4.0729408 16.613333
-1.8414518 2.1291039 4.0608587 17
-0.71181208 2.0955622 4.2634459 16.572001
1.9967322 2.1219249 4.2953219 15.584
-5.7094808 2.4627278 4.034687 13.275
-5.4804153 2.5300868 4.0230551 14.0505
-5.020083 2.6190352 4.039464 15.025875
-4.6164851 2.4350536 4.0456262 15.0525
-3.6896448 2.5646725 4.0521865 16.444084
-3.4547372 2.5665288 4.0645933 16.778126
-2.9697757 2.5406742 4.0595584 17.803688
-2.5888548 2.6220551 4.0312548 18.862957
-2.1860285 2.596735 4.0578785 19.397083
-1.7838365 2.5982401 4.1199627 19.562584
-1.4115951 2.7108419 4.254488 19.752357
-0.97187966 2.6722558 4.2376366 19.936199
-0.54645926 2.6752665 4.1741447 20.487453
-0.18832412 2.6649108 4.2168412 20.293583
0.24533701 2.6273909 4.1565428 20.300518
0.61123163 2.6130342 4.1961627 20.014843
1.033199 2.5980923 4.2076287 19.703367
1.4172406 2.5189807 4.1611042 18.481899
1.7377669 2.532656 4.3005962 18.417
2.2832098 2.7175179 4.1527619 19.0865
-13.717655 3.0493481 4.067575 8.0442505
1.9031588 2.8586853 4.1359048 20.084999
-1.5509516 -0.16194603 4.5601234 1
-0.97340477 -0.17362845 4.7390642 1
0.97096896 -0.10633424 4.7806387 1.5
-0.93349183 0.14007372 4.4777884 3
1.1234554 0.72391605 4.4634581 8.0815001
-0.82768893 2.1060219 4.6259766 15.822001
-1.3228661 2.6748374 4.6591578 18.678667
-0.96340245 2.6449413 4.653758 18.486551
-0.59072697 2.637289 4.5959516 18.883833
-0.14066643 2.6375806 4.6361122 19.039566
0.19691411 2.5946651 4.5343981 19.063126
0.67760324 2.5845633 4.6439571 18.527264
0.93647385 2.5678527 4.5513029 18.467556
1.4897069 2.5027695 4.6072984 17.456938
1.8957548 2.4445069 4.5911698 16.682999
0.84495044 0.88814056 5.07656 8.0775003
0.58681881 1.2349784 4.9671178 10.0785
0.62986267 1.9751208 5.1437297 14.07475
0.90493071 1.9410948 5.0966415 14.0775
-0.43567014 2.0557413 4.9597812 15.07325
-0.17901874 2.0353916 4.9111891 14.741
0.53300726 2.0006337 5.0552897 15.078
0.80487818 2.0338292 5.1436973 15.0755
1.4295969 2.389117 4.8342404 16.330875
-1.7232242 2.6654971 5.0623159 17.315376
-1.4143277 2.6356952 5.0511689 17.317583
-1.0746413 2.6339505 5.0083079 17.813438
-0.58738059 2.6267681 4.9968953 17.771774
-0.18706611 2.6064081 5.0381107 17.839916
0.2583966 2.5837183 5.0292411 17.624611
0.60639066 2.5765035 4.8831563 17.965776
1.0435401 2.5069034 4.9101491 17.190306
1.3589113 2.5538261 4.8833518 17.081499
1.7317702 2.5837655 4.8640904 17.083
2.0874679 2.4169054 5.1423483 15.58275
-1.399611 -0.18306211 5.3028402 1
-0.55972308 -0.21663436 5.3253169 0
0.65707749 1.4099556 5.2527242 11.0765
-0.58288264 2.0990853 5.2497401 14.57325
1.2103246 2.2181573 5.2674451 15.0805
-1.7600528 2.6163931 5.3527865 16.366533
-1.3907436 2.5931339 5.3697882 16.525396
-1.0151566 2.6093206 5.4269195 16.611542
-0.56475353 2.5923474 5.379992 16.621794
-0.19414639 2.5865855 5.3913908 16.785667
0.16606832 2.5548091 5.4241304 16.575125
0.59789342 2.5512562 5.2859507 16.784771
0.97544599 2.5073164 5.3581886 16.182053
1.4257432 2.4720645 5.4271107 15.74675
1.8258033 2.4123924 5.3936319 15.0815
-1.2420952 -0.19930889 5.9589128 1
-0.70905787 -0.25133994 5.8491077 1
-0.35846311 0.077404991 5.8083758 2.5
-0.34630269 1.7694753 5.9377398 11.5735
-1.7699491 2.1473658 5.989646 13.069
-0.33958745 2.2024536 5.8392668 14.0735
2.1881127 2.3674741 5.7229528 14.082251
-1.7001617 2.5687056 5.8742957 15.0655
-1.4232045 2.6018562 5.9064655 15.401666
-0.94418103 2.586148 5.8422971 15.569417
-0.62796849 2.5685441 5.7764564 15.737667
-0.25674301 2.6115937 5.6722965 16.447687
0.22237366 2.575897 5.7160645 16.073624
0.59065783 2.5184307 5.8520188 15.575625
0.95737141 2.4835854 5.8369412 15.299611
1.4225099 2.4138033 5.7074771 15.07975
-0.23619807 0.065805078 6.0713716 2
0.90716624 2.3441997 6.0732212 14.20225
1.9054744 2.3487129 6.2340493 14.08075
2.1174955 2.3635678 6.1054578 14.0815
-1.602051 2.5869017 6.0191503 15.066
-1.4330647 2.5700469 6.2140899 15.06675
-1.0022259 2.5831118 6.1682649 15.06825
-0.68792742 2.5666761 6.2196212 15.072001
-0.16625507 2.5397825 6.2833042 14.87295
0.22714579 2.5106223 6.1037536 14.908626
0.59502667 2.5125647 6.1339169 15.076083
1.1009082 2.4654317 6.1363382 15.07925
1.4830389 2.401855 6.1418538 14.079501
0.90608883 1.1080374 6.7413745 8.0749998
-1.3420888 1.4548267 6.6918397 9.0710001
0.95295542 1.34602 6.6720934 9.0752497
1.7701476 2.3557608 6.5412354 13.08
2.1012144 2.3593814 6.5148854 13.081
-1.7442209 2.5588777 6.7199101 14.066999
-1.3597529 2.5676556 6.5098257 14.568125
-1.0201411 2.5252948 6.6265879 14.0707
-0.59641254 2.5003316 6.6549602 14.071332
-0.24897712 2.4876776 6.4868975 14.407333
0.18613866 2.4802418 6.4908886 14.0755
0.59926248 2.5034108 6.5983553 14.076375
0.86610782 2.4470572 6.6233664 14.201563
1.3992267 2.449877 6.5267735 14.079876
-1.7005115 -0.22333574 6.9019017 1
0.088769138 -0.35834008 6.9364119 0
-2.2840376 0.20220289 6.8841772 3
-1.7009028 0.14177848 6.876605 3
-1.6446346 1.5164647 6.9086399 9.0684996
-1.626141 1.8828515 6.9924941 10.0685
-0.20364225 2.3790882 7.1953897 13.0745
0.090889215 2.3975222 7.0077629 13.0755
1.4879272 2.3543389 7.0712862 13.078751
-1.9853421 2.5961795 7.1800427 13.0675
-1.4096458 2.544157 7.0739937 13.401625
-1.0036161 2.5324044 6.9420595 13.5695
-0.62468004 2.498666 7.1763411 13.07
-0.29419717 2.5041318 6.8420582 14.072625
0.19484633 2.459552 7.0108948 13.57375
0.58375823 2.481699 7.0386715 13.573875
1.8711129 2.4277651 6.8958716 13.081
-2.0829539 1.8596714 7.4366074 10.0675
-1.6478608 1.8991992 7.5295954 10.067
1.0552087 2.3408427 7.4996114 12.07725
-1.8377326 2.5773671 7.294713 13.068
-1.4136801 2.5341225 7.4657106 12.818501
-0.98573697 2.5329089 7.4493151 13.06975
-0.6538974 2.47194 7.5236378 12.572374
-0.13745669 2.4875035 7.4836321 13.073125
0.16349243 2.4598296 7.3634853 13.072499
0.60401672 2.4040189 7.5122519 13.076
0.51757795 -0.41709372 7.6500425 0
-1.4351301 1.9583437 7.6888943 10.56775
0.68344909 2.3582704 7.8878689 12.076
0.81719369 2.3446565 7.7154465 12.0765
-1.578564 2.5213492 7.9404416 12.0675
-0.99565983 2.4668884 7.8958135 12.070666
-0.59687537 2.4695706 7.7397442 12.516221
-0.3346633 2.4817119 7.7958765 12.071751
0.33550364 2.4800458 7.8200946 12.576
-2.1592176 1.7533526 8.1250353 9.066
0.33219153 2.372602 8.1395693 12.075
0.51746291 2.3740268 8.0684671 12.0755
-1.75387 2.4707088 8.2306919 11.57025
-1.3719102 2.4246223 8.1568651 12.070251
-0.97946215 2.4727931 8.0216579 12.07
-0.17638098 2.4815137 8.1196337 12.0715
0.093926877 2.4662738 8.1061945 12.073
0.59228253 2.4192393 8.2170801 11.964027
-1.1881585 1.6765267 8.709938 9.0719995
0.19769584 2.3955281 8.6089249 11.0725
0.9551115 2.3833954 8.647151 11.076
1.2158676 2.2553072 8.7062483 11.078
-1.6875669 2.4500413 8.5307331 11.0675
-1.1394856 2.4610248 8.6381903 11.069
-0.47319669 2.4644086 8.4402628 11.57225
-0.28329194 2.4144266 8.6287861 11.072001
0.36605927 2.436759 8.4252491 12.073
0.57048619 2.4379163 8.4187651 12.0735
0.98612726 2.4055409 8.4924726 12.0775
2.6006482 1.4917316 9.1354895 8.0799999
2.8170559 1.530724 9.0659208 8.0804996
-0.5997752 2.3774285 9.1708908 11.07125
-0.19130087 2.3839262 8.8392429 11.0715
0.20467162 2.3946519 9.100296 11.074
0.56854373 2.2952032 9.1195946 10.742
0.92744792 2.2739959 8.9243917 11.07725
2.4057419 2.1856797 9.1182003 10.0795
-1.0504816 2.4524121 8.8192139 11.07225
-0.78536958 2.424696 9.1421261 11.073
0.010259748 2.4068182 8.874136 11.0735
2.2258019 1.5883085 9.5490437 8.0799999
2.4457302 1.6263931 9.490963 8.0804996
-1.6713508 2.3958366 9.5988321 10.068
-1.2927969 2.3619843 9.405405 10.319626
-0.91533405 2.3660674 9.3032513 10.570499
-0.58304477 2.391438 9.4021273 11.0735
0.15435828 2.3107226 9.4722757 10.184916
0.52805716 2.3360837 9.2971983 10.573999
2.0330167 2.2821617 9.5136442 10.0795
-0.80556709 2.433475 9.267374 11.07
-2.0278068 2.3858931 9.939065 10.069
-1.7813174 2.3854496 9.8639183 10.0695
-1.5032266 2.3708091 9.7896881 10.06925
-0.19416513 2.3081381 9.8474073 10.073
0.53970289 2.3298116 9.7096281 10.07325
0.87584728 2.2897866 9.7912312 10.07475
-0.90911621 2.2835627 10.173971 10.071375
-0.55514985 2.3260174 10.228753 10.071501
0.075451136 1.6992593 10.744997 8.0749998
-1.7425053 2.2807448 10.594238 9.0682497
-1.3096613 2.3417203 10.711937 9.0707502
-0.98405284 2.3044844 10.51725 9.0706253
-0.64460236 2.2894838 10.614117 9.0713749
0.25443208 2.2879121 10.439575 9.0725002
0.46527719 2.2965124 10.719438 9.073
3.1471875 -0.82772321 11.11792 0
-2.1550462 2.2740605 10.839644 9.0675001
-1.4337213 2.2541649 10.943355 9.0690002
-0.47643614 2.2611208 10.861059 9.0710001
2.1558845 -0.59784174 11.555768 1
2.5174403 -0.69402963 11.394999 0
3.63041 -0.12724754 11.561824 2
0.00681342 2.2734165 11.370186 9.0719995
1.5248549 -0.83277267 11.817565 0
1.6222005 -0.43527502 11.898145 1
3.0689194 0.065492302 11.649968 2
3.3498752 0.072141722 11.6383 2
2.6576796 1.7400301 11.901563 8.0784998
-2.1000557 2.3124657 11.72424 8.0695
0.28791112 -0.93832815 12.206992 0
1.4995191 -0.41087061 12.010343 1
1.8272399 -0.78698021 12.111063 0
1.8668669 -0.073174044 12.270982 1.6
2.8407288 -0.30558917 12.003856 1
1.5953069 0.0055625737 12.031045 2
1.4555264 0.63108349 12.139503 4.5
1.4093854 1.0552609 12.180695 6
1.4016784 1.4475918 12.26281 7
-1.7369093 2.2895184 12.04452 8.0702496
0.62341976 -0.84734708 12.464643 0
-1.360549 2.2277215 12.682784 8.0695
-0.83350706 2.2635233 12.720785 8.0719995
0.84392971 2.108551 12.507359 8.0734997
-1.0135423 -0.7000224 13.1027 1
0.32161498 -0.61652744 13.045889 0
1.3288717 -0.3424795 13.072246 1
1.9304627 -0.10109866 12.99861 2
-1.0998124 2.2206507 12.947188 8.0699997
-0.58937871 2.1721568 13.12858 8.073
0.31833401 2.0723789 13.020627 8.0725002
0.55934536 2.0911949 12.843612 8.073
-0.26446718 -0.84063768 13.391395 0
0.042416513 -0.45399725 13.234368 0.25
-1.6225582 -0.2054089 13.428804 2
-0.20849687 -0.085124016 13.36333 1
0.073729277 -0.072422579 13.366899 1
1.0802674 -0.027778804 13.398635 2
-1.0017071 0.17471352 13.595508 3
-1.890004 0.47293478 13.519435 3
-1.871577 2.185497 13.504029 8.0714998
-1.2138699 2.2224534 13.520654 8.0714998
-0.59168482 2.2136459 13.544892 8.0710001
-0.28931111 2.1665444 13.220054 8.073
-0.12929812 0.028064001 13.645014 1.875
-0.18210497 0.5339098 13.718348 3
-0.29401845 2.1840069 13.653296 8.0714998
-1.3287375 -0.090593934 15.185084 2
-0.52731496 -0.085951865 15.097984 2
0.42777738 -0.065248638 15.174471 1
-0.96634245 0.24185051 14.831356 3
-0.59394586 0.33234853 14.964026 3
-0.57919109 -0.089501679 15.200098 2
-2.910383e-10 0.14238492 15.300297 3
