# .PCD v0.7 - Point Cloud Data file format
VERSION 0.7
FIELDS x y z intensity
SIZE 4 4 4 4
TYPE F F F F
COUNT 1 1 1 1
WIDTH 1181
HEIGHT 1
VIEWPOINT 0 0 0 1 0 0 0
POINTS 1181
DATA ascii
-1.7408644 2.4799237 -3.7220304 20.01
-1.9641726 2.5016737 -3.4027827 21.011999
-1.3039455 2.5212572 -3.348094 23.008499
11.552648 1.9244952 -3.0978413 8.1140003
11.432805 1.988225 -2.8157992 8.1134996
9.3330841 2.0848842 -2.7044082 9.1145
10.176447 2.002733 -2.7246125 9.1140003
11.5677 1.9624941 -2.5500598 8.1129999
8.604105 2.1451592 -2.5168695 10.1145
9.6554451 2.0679607 -2.3693886 9.1134996
8.6932154 2.1027126 -2.3337774 10.114
7.1547961 2.2102437 -2.2364335 12.115
8.8715925 2.0884457 -2.1707482 10.1135
9.7405205 2.0432625 -2.1612577 9.1129999
10.832455 2.0352845 -2.162466 8.1125002
7.2321467 2.1714478 -2.1153855 12.1145
9.0890541 2.0905018 -2.0254083 10.113
10.479509 2.0123322 -2.056875 9.1125002
11.27713 1.9709435 -1.963976 8.1120005
7.3875084 2.1455662 -1.9712776 11.114
6.2506142 2.2327149 -1.967895 13.115
10.497203 2.0425494 -1.8539935 9.1120005
7.582583 2.1370039 -1.8439624 11.1135
9.0781651 2.13027 -1.8011278 10.1125
5.4847784 2.2564745 -1.8606267 15.1155
6.2636347 2.2004857 -1.8196425 13.1145
0.5960294 1.2911034 -1.748372 22.136499
5.4721313 2.1202779 -1.7173218 14.115
7.8090892 2.1565104 -1.7422901 11.113
5.5491295 2.2570825 -1.7561595 15.115
5.0214472 2.3325071 -1.7092688 16.115499
19.376953 1.1076802 -1.6015058 4
0.65567988 1.2399297 -1.6584311 22.385376
0.64014482 1.300043 -1.6447518 23.1355
5.5363569 2.1323955 -1.6223478 14.1145
6.338583 2.1959493 -1.689217 13.114
5.5841703 2.2439449 -1.6130704 15.1145
4.9526062 2.4283209 -1.6691247 17.115499
0.75605124 0.99644959 -1.5330305 20.133499
0.73872185 1.0447675 -1.5865594 20.134001
0.74834764 1.1735688 -1.5590796 22.133751
0.73585647 1.2627726 -1.5310519 23.133751
10.167709 2.0635698 -1.5636638 9.1114998
6.4311953 2.1932147 -1.5721388 13.1135
7.9048185 2.1194363 -1.5802287 11.1125
8.9234848 2.1378877 -1.5647752 10.112
5.6244087 2.2429802 -1.5097163 14.114
6.2423701 2.272311 -1.5153068 14.1135
4.9188886 2.3791828 -1.5574764 17.115
5.0671215 2.3065126 -1.5910596 16.115
5.1402907 2.3063841 -1.5069408 16.1145
0.77025402 0.98347789 -1.4852629 20.132999
19.438017 1.075272 -1.4400939 4
0.77838862 1.1738219 -1.4123102 23.1325
0.77281696 1.2344229 -1.490513 23.132999
19.475416 1.5936707 -1.4230201 5
6.5442023 2.1910331 -1.4460367 13.113
8.023591 2.1016612 -1.4194392 11.112
4.3782983 2.2953515 -1.4911573 18.115499
5.2129149 2.2995608 -1.4030441 16.114
3.87257 2.3786378 -1.4537019 19.616249
4.0702286 2.3252265 -1.4860166 19.115999
4.9358854 2.3900712 -1.4395003 17.1145
3.7155299 2.4355416 -1.4454333 20.616501
-1.9540243 0.567527 -1.3139042 10.0225
0.75583345 0.81704873 -1.3053133 19.132
0.81150877 1.1597996 -1.3657111 23.13175
19.533163 1.6280737 -1.3649127 5
19.635435 1.6662824 -1.3094345 5
9.9234247 2.0973086 -1.3010776 9.1110001
6.9708185 2.1881332 -1.3885635 12.1125
8.7168579 2.1325345 -1.329206 10.1115
6.1302619 2.264822 -1.3444728 14.113
4.1540184 2.3022389 -1.3039336 18.115
5.3095393 2.303416 -1.3030584 16.113501
3.6800678 2.4689381 -1.3366715 21.115999
3.8566155 2.4091318 -1.3094368 20.115499
-1.9742233 0.14698671 -1.2365352 4.5
-1.9651258 0.32092929 -1.2455866 7
-1.9532769 0.55408984 -1.2198768 10.25
-1.9430219 0.65398264 -1.2608449 11.51125
-1.9324609 0.76096308 -1.2586787 13.02275
-1.8947475 0.88794726 -1.2046964 15.023
0.78243077 0.84248263 -1.2291811 20.131001
0.78635049 0.96799147 -1.2950157 21.1315
2.4918964 2.0041423 -1.2302703 23.1185
6.572113 2.1562946 -1.2993428 13.1125
6.9557829 2.1983948 -1.2255638 12.112
8.3007393 2.1299388 -1.2790453 11.1115
4.1965499 2.2952154 -1.2302303 18.1145
5.3054156 2.2950683 -1.2841789 15.1135
6.0752788 2.2631845 -1.211517 14.1125
4.6732268 2.3258533 -1.2588465 17.114
3.1225369 2.4360771 -1.2873669 23.117001
3.2613113 2.4488204 -1.2634495 22.116501
3.3219807 2.4599092 -1.2146482 22.115999
3.8368449 2.4185519 -1.2150195 20.115
5.0342865 2.4238079 -1.2384803 17.113501
-1.9932425 0.22752538 -1.1290755 6
-1.9629289 0.38033277 -1.1311331 8.0240002
1.7322733 0.45361751 -1.1063188 10.121
-1.9478979 0.54905987 -1.1266047 10.024
-1.9438411 0.72114164 -1.1087438 12.333333
0.75231814 0.76474166 -1.1767367 18.631001
0.77867275 0.87096822 -1.169341 21.130501
-1.9310558 0.91425484 -1.1390692 15
0.78781587 0.90584743 -1.1226898 22.129999
-1.9174985 1.063536 -1.1377646 17.02375
-1.8675292 1.1842799 -1.1647867 19.023251
-1.8241686 1.3265586 -1.1099133 21.0235
10.529487 1.9460609 -1.1466357 8.1105003
10.16521 2.0192585 -1.1178368 9.1105003
6.7255402 2.1801207 -1.1966785 13.112
8.610487 2.1436083 -1.1313398 10.111
4.2276978 2.2851439 -1.1382691 18.114
5.2155075 2.2856197 -1.1528198 16.113001
5.3699703 2.2925415 -1.191852 15.113
3.0251932 2.4068813 -1.1737363 23.116501
3.1123211 2.4288604 -1.1349287 23.115999
3.3304822 2.4570007 -1.1345297 22.615499
3.80919 2.429939 -1.1071931 20.1145
-1.9623992 0.075838141 -1.0992324 3.2
-1.9625751 0.20906442 -1.0278534 5.5
0.68880755 0.20839858 -1.0353159 8.1304998
-1.9852574 0.36107841 -1.037097 8.0249996
-1.9768392 0.47288337 -1.0945246 9
1.8055817 0.46731424 -1.0933578 10.1205
-1.955839 0.59342611 -1.0569764 11
1.7880549 0.54775262 -1.0879992 11.1205
-1.9593416 0.68522573 -1.0000409 12
0.71855003 0.6370908 -1.0792714 17.130501
1.6208326 0.6259253 -1.0789539 13.1215
0.76774877 0.79367596 -1.0452297 20.129499
1.6920234 0.77332795 -1.0778971 14.121
0.80700088 0.94122303 -1.0529417 23.129
1.5326695 0.99074399 -1.0704911 18.122
1.639219 0.93967104 -1.043497 17.121
-1.9059334 1.0373112 -1.094311 17
1.5016974 1.0594065 -1.0490233 20.122
1.6187558 1.0705125 -1.0301051 19.121
-1.8879789 1.162739 -1.0373535 18.5245
1.4204245 1.1338264 -1.0400617 21.122499
1.5609763 1.1505697 -1.0172328 21.060501
-1.8522035 1.2552054 -1.0520772 19.690834
1.3798306 1.2260466 -1.0117646 23.122499
-1.8378974 1.3376482 -1.0053422 21.0245
4.2870908 2.286504 -1.0529586 18.113501
4.7677226 2.291966 -1.0594131 17.113001
5.2098193 2.2729766 -1.0312341 16.112499
5.4244189 2.2799582 -1.0778737 15.1125
6.0315723 2.275419 -1.0639083 14.112
6.8722887 2.2001288 -1.0540068 12.1115
3.9939818 2.352622 -1.0686066 19.114
3.3879151 2.4261029 -1.064641 22.115
3.4500179 2.4294937 -1.000424 22.1145
3.7980256 2.446413 -1.0194403 21.114
-1.9395428 0.14277156 -0.9952786 5
0.69564509 0.20267957 -0.94781286 8.1295004
0.71689796 0.32682663 -0.92653352 11.5289
0.71988738 0.47907287 -0.94063091 15.129
-1.9256467 0.59477127 -0.95048964 11.0255
-0.32790616 0.54446769 -0.96661419 19.0075
0.72557801 0.55294865 -0.95993781 16.4625
-1.9652663 0.78732795 -0.96906191 14.0255
0.75807887 0.75109363 -0.90675622 21.128
-1.9449553 0.89285886 -0.93716669 15.012751
0.78402603 0.84625399 -0.97611308 22.1285
-1.9046021 0.96739638 -0.93722034 16.025499
-1.9164065 1.0002608 -0.96026981 16.727272
1.4280108 1.2941531 -0.99731308 23.122
-1.842509 1.3426737 -0.93248916 21.012501
-1.8324739 1.4407008 -0.92941105 22.525249
10.751382 1.9302402 -0.92881292 8.1099997
8.5676908 2.1278167 -0.93296927 10.1105
4.3412232 2.2815747 -0.96478504 18.113001
4.8669057 2.2993817 -0.96037745 17.112499
5.4782586 2.2679126 -0.9623782 15.112
5.9448271 2.2566223 -0.91278505 14.1115
7.437674 2.2058613 -0.98429865 12.111
3.1460452 2.3968742 -0.99581951 23.115
4.073658 2.3352022 -0.94517618 19.113251
3.2026913 2.4036837 -0.93590146 23.1145
3.546237 2.4542701 -0.95542651 22.114
3.7679815 2.4550414 -0.92212063 21.113501
0.72920394 0.26226377 -0.85357612 10.12775
0.73540133 0.35431191 -0.84985149 12.460999
0.71919614 0.46249378 -0.89464003 15.1285
-1.9111394 0.57708299 -0.84339392 11.0265
0.74806905 0.53734559 -0.84165621 17.127335
0.84456855 0.51576108 -0.8096922 16.1255
-1.9324481 0.68314165 -0.85066622 13.0265
0.75564057 0.66751897 -0.82769406 20.127001
0.76650244 0.74738407 -0.84963286 21.793833
0.82269812 0.74975485 -0.82197368 21.125999
-1.9294447 0.90036488 -0.8462581 16.026501
-1.924307 1.0147922 -0.84861845 17.026501
-1.9067453 1.1000781 -0.87847799 18
-1.8863584 1.1010571 -0.83322519 19.026501
-1.8804395 1.2508258 -0.84284925 20.26325
-1.8264846 1.4046116 -0.85281092 22.025999
10.091635 2.0170183 -0.88286442 9.1099997
5.5480309 2.2629356 -0.84782815 15.1115
4.1431618 2.3231642 -0.83007735 19.112499
4.9404354 2.3130593 -0.87337214 16.612
3.2888954 2.4636819 -0.88426518 23.114
3.3632948 2.4435568 -0.81672829 23.113501
3.5887828 2.4409902 -0.88178194 22.113501
3.6867933 2.4605112 -0.81937212 21.113001
-1.9634192 0.0041578338 -0.72565866 2
0.75489205 0.22279283 -0.77410877 9.1262503
0.75134146 0.37347808 -0.7829386 13.793167
0.74775404 0.45711401 -0.78299141 15.626499
0.82752371 0.42620152 -0.79424274 14.1255
-1.9239914 0.53949356 -0.74975407 11.0275
0.77248347 0.51272857 -0.78947335 16.626249
0.75605035 0.64503598 -0.79200161 20.126499
-1.9024831 0.72755814 -0.79270148 13.5
-1.9142737 0.94317508 -0.76881433 16.52725
-1.8985846 0.97010386 -0.783822 17.027
-1.912771 1.0811566 -0.79077339 18.027
-1.8977309 1.0809443 -0.74179596 18.0275
-1.9098138 1.1150496 -0.78888947 19.027
-1.8939918 1.1722999 -0.76535672 19.7635
-1.8670313 1.2744026 -0.71871567 21
-1.8576666 1.3226452 -0.72354716 21.5
-1.8255243 1.4293483 -0.71437883 23.0275
6.5891104 2.184269 -0.71272802 13.1105
8.6782408 2.1286747 -0.75042117 10.11
4.383894 2.2545757 -0.77939904 18.112
5.6098871 2.2554426 -0.72992885 15.111
5.9565988 2.2595239 -0.7850126 14.111
4.2228866 2.3307407 -0.73930085 19.112
4.9371338 2.323854 -0.7559638 17.1115
5.0446458 2.3078139 -0.78061539 16.1115
3.1811814 2.4046485 -0.70097435 23.113001
3.4253786 2.4490619 -0.7629472 22.113001
3.7280188 2.438607 -0.73579228 21.112499
-1.9361457 0.55050421 -0.67981732 11
-1.9313207 0.63538051 -0.60612369 12.550215
-1.8871809 0.94418055 -0.64795184 17.014
-1.8783478 1.0354531 -0.66193926 18.52825
-1.854418 1.235424 -0.62735212 20.5285
-1.8210829 1.4253265 -0.61726826 23.0285
10.084746 2.0204308 -0.6564123 9.1094999
4.4715419 2.272851 -0.69313806 18.1115
5.2605386 2.2904232 -0.69951814 16.111
5.6665468 2.2523701 -0.62763637 15.1105
5.9344921 2.2300396 -0.64885312 14.1105
3.1531045 2.3852596 -0.62665194 23.112499
3.4138672 2.3974524 -0.66979206 22.112499
4.1348624 2.3291924 -0.62953746 19.1115
4.9400549 2.3180959 -0.64434588 17.111
3.4964569 2.4217212 -0.6170035 22.112
3.7580159 2.4207861 -0.66755807 21.112
-1.9579686 0.18434864 -0.59519333 5.3125
-1.9441636 0.37431315 -0.56591266 8.0295
-1.9592679 0.45588428 -0.52762073 9.5299997
-1.9216931 0.61178404 -0.56191647 12
-1.8617744 0.97553951 -0.57707024 17.846153
-1.8516438 1.0730884 -0.56451988 19.2645
-1.8589069 1.2844533 -0.58613509 22.028999
-1.8316342 1.3676833 -0.58016974 23.028999
11.296579 1.9033346 -0.50611424 8.1090002
8.9336405 2.1207242 -0.58407289 10.1095
4.4959917 2.2554765 -0.58076262 18.111
5.2240977 2.2928476 -0.5773741 16.1105
5.9570093 2.2179835 -0.51820362 14.11
4.0966582 2.3475189 -0.54409325 19.111
3.2479455 2.4147303 -0.57349628 23.112
3.5606036 2.4283602 -0.54695243 22.1115
3.8636172 2.4247789 -0.5539726 21.11125
-1.9531915 0.032055512 -0.4964616 2.5
-1.9438866 0.45428774 -0.43439135 10.031
-1.7913069 1.1877428 -0.47476673 21
-1.8167975 1.3685962 -0.49083361 23.030001
9.967021 2.011106 -0.41030958 9.1090002
6.4311023 2.1969883 -0.41795054 13.1095
7.2463751 2.1254501 -0.48087609 12.1095
4.3045044 2.2988503 -0.47603992 18.1105
4.61587 2.2907398 -0.49991244 17.1105
5.7038155 2.2313995 -0.49442929 15.11
3.1458938 2.369694 -0.48341075 23.1115
3.9238656 2.3979414 -0.42973244 20.1105
5.0395236 2.3483512 -0.44666138 17.110001
5.2107973 2.3155212 -0.45947206 16.110001
3.2904143 2.4027331 -0.43380708 23.111
3.5560536 2.4421613 -0.4723736 22.111
3.8693562 2.4261272 -0.41964367 21.1105
-1.9474894 0.3996017 -0.38603982 9.0314999
-1.9417189 0.43778938 -0.38581896 10.0315
-1.9230855 0.6290707 -0.34103566 13.032
-1.9014059 0.72023857 -0.33667749 14.032
-1.8658847 0.83356696 -0.37221318 16
-1.8531945 1.0155817 -0.3295911 18.532
-1.8232725 1.1692326 -0.34096962 20.53175
-1.7901362 1.2727263 -0.35666427 22.5315
8.7771416 2.1250186 -0.38138986 10.109
4.3164721 2.2875099 -0.38017762 18.110001
4.6945381 2.2762794 -0.31372187 17.109501
5.7377443 2.220475 -0.36894542 15.1095
3.2344005 2.3573089 -0.35879406 23.1105
3.9801862 2.3932726 -0.34652308 20.110001
5.1409993 2.3239355 -0.33889863 16.109501
3.4868457 2.4315028 -0.33990958 22.11025
3.895874 2.4007313 -0.34118977 21.110001
-1.9109341 0.11859328 -0.29878822 4
-1.9274492 0.29235759 -0.24898095 7
-1.8962415 0.22057235 -0.21722022 6.2142859
-1.9228411 0.43329597 -0.22682483 9.3666658
-1.9050082 0.61095554 -0.20717585 12.428572
-1.8639164 0.99986637 -0.20492278 18.5
-1.8699769 1.09224 -0.24748257 20.033001
-1.8146406 1.1988168 -0.23937955 21.033001
-1.8076367 1.2439826 -0.26429436 22.0165
-1.7735167 1.2953469 -0.2828061 23
11.612021 1.889153 -0.26106241 8.1084995
10.382407 1.9753054 -0.24187325 9.1084995
5.3409176 2.2538769 -0.22622177 16.108999
5.4096055 2.2675123 -0.23378745 15.109
5.7549767 2.2045567 -0.25994369 14.109
6.3536658 2.212244 -0.27132988 13.109
4.0139585 2.3843305 -0.25967908 20.109501
5.0177011 2.3179097 -0.21942607 17.108999
3.7727594 2.4106176 -0.24567689 21.109501
-1.8786722 0.30480686 -0.16548637 8.0340004
-1.8869152 0.42044091 -0.16780393 10.034
-1.8773062 0.59922224 -0.12508163 13.0345
-1.8393719 1.1379483 -0.16508476 20.534
-1.7964939 1.2519217 -0.14469877 22.4
-1.7728883 1.3156381 -0.17558496 23.033751
7.6918402 2.1712577 -0.17293654 11.1085
8.8190861 2.1262224 -0.18713544 10.1085
4.3578815 2.2727697 -0.18863867 18.108999
5.3184061 2.2671154 -0.11808963 16.1085
5.4130082 2.2626069 -0.12597775 15.1085
6.59062 2.2121067 -0.14749087 13.1085
3.9914966 2.3729353 -0.17737566 20.108999
3.3728814 2.4007699 -0.15104578 23.108999
-1.8578188 0.3580412 -0.041418891 9.0354996
-1.861856 0.46907151 -0.011774218 10.535875
-1.8825904 0.59227043 -0.083399273 12.035
-1.868616 0.65147406 -0.043534063 13.0355
-1.8676893 0.73301291 -0.062320296 15.03525
-1.8616414 0.84381133 -0.03922914 16.0355
-1.8481392 0.95580715 -0.081325218 18.5175
-1.8310368 1.1184796 -0.07813637 20.035
-1.8105445 1.2012128 -0.080968857 22.035
-1.7836243 1.2758714 -0.077584237 23.035
4.3748803 2.2629561 -0.091733061 18.1085
4.4021249 2.2550445 -0.0011545841 18.108
4.7651291 2.251596 -0.091701098 17.1085
4.8918324 2.2865322 -0.0071022008 17.108
5.4904261 2.2640033 -0.0056546633 15.108
6.1684456 2.2113481 -0.0087255407 14.108
3.8735347 2.3992307 -0.079555586 21.1085
3.9057639 2.3856041 -0.005733225 20.108
4.0708976 2.3566809 -0.043817393 19.60825
3.8404973 2.4885783 -0.0010677646 21.108
-1.8477682 0.15153824 0.0066195303 5
-1.8733373 0.33834562 0.0019389652 8.0360003
-1.8356369 0.47653133 0.085162699 10.5
-1.8444312 0.52766609 0.038166407 11.5365
-1.8490455 0.72198546 0.082139716 14.537
-1.8682687 1.0223765 0.040666535 19.036501
-1.7766497 1.1838176 0.078092642 22.037001
9.7182999 1.9920442 0.0019833834 9.1079998
7.666904 2.1134374 0.0044977991 11.108
8.79146 2.1122143 0.008724493 10.108
4.4078536 2.2457907 0.097130939 18.1075
5.090898 2.2001088 0.0028033038 16.108
3.950892 2.3762176 0.08838293 20.1075
4.1184716 2.336154 0.087222785 19.1075
3.4337127 2.4856448 0.03559098 23.10775
3.5063562 2.4550064 0.0045334757 22.108
-1.735075 0.057294697 0.14560199 3.5
-1.7791605 0.19434293 0.14284864 5.8947368
-1.7889934 0.33197522 0.13681197 8.5377502
-1.768885 0.46460027 0.19451383 10.5385
-1.8127191 0.59822017 0.17052984 12.777778
-1.7969868 0.56132174 0.16026279 12.51925
-1.779503 0.65905702 0.19308656 14.0385
-1.8273447 0.72503865 0.14065732 15.03775
-1.8174086 0.82642221 0.19700886 16.0385
-1.7936747 0.88573289 0.19790098 17.0385
-1.8147185 1.0322006 0.15583241 19.538
-1.7812195 1.0518872 0.1960817 20.0385
-1.7871574 1.1670754 0.11844013 21.0375
-1.7585585 1.2549167 0.14010912 22.719
7.8218246 2.1103342 0.17891817 11.1075
4.4686537 2.2603934 0.19821902 18.107
4.9490356 2.2810252 0.10847867 17.1075
5.1977935 2.2313747 0.12075584 16.1075
5.521543 2.2475071 0.11712021 15.1075
6.0438457 2.2051528 0.14495103 14.1075
4.0243487 2.3878212 0.17965843 20.107
4.1258798 2.3171663 0.17923333 19.107
3.4944906 2.4848435 0.15697196 23.107
3.6279609 2.4752824 0.15395986 22.107
-1.743161 0.33012912 0.22983445 8.0389996
-1.54896 0.41237408 0.27116355 11.04
-1.794083 0.63856417 0.23278676 13.539
-1.8104956 0.72099942 0.20031904 15.0385
-1.7979351 0.71796989 0.23368306 15.039
-1.7969511 0.98319387 0.22062066 18.910805
-1.7714899 1.1010001 0.22826795 21.039
-1.7461883 1.2360206 0.24837758 22.539249
10.564108 1.9332463 0.22523394 8.1075001
9.7339697 2.0033944 0.21875088 9.1075001
6.3083682 2.1917586 0.28051913 13.107
8.7809095 2.103214 0.20376363 10.1075
4.4532824 2.2895894 0.29572219 18.106501
4.9910274 2.2693133 0.22012752 16.107
5.5684857 2.2380097 0.2420857 15.107
5.9440947 2.2022629 0.26534623 14.107
4.042181 2.359797 0.27065572 20.106501
4.1566219 2.311873 0.27328929 19.106501
4.9671135 2.3135717 0.21525346 17.107
3.4594564 2.451405 0.25986621 23.106251
3.6448302 2.4417472 0.24718042 22.106501
-1.7030766 0.10443578 0.31400806 4.3333335
-1.6168205 0.34759143 0.35914993 9.0410004
-1.5444307 0.36673972 0.30614015 9.5404997
-1.5085741 0.43221056 0.30080432 11.0405
-1.7156433 0.70246392 0.33714604 15.0405
-1.8010994 0.92712492 0.31475696 18.040001
-1.7730027 1.0332638 0.33593431 19.373667
-1.7305284 1.2270772 0.33096236 22.373667
7.7359238 2.1655602 0.33019799 11.107
8.830513 2.101831 0.38723689 10.107
4.929884 2.290364 0.32429746 17.106501
5.0331521 2.2673044 0.32586652 16.106501
5.5819392 2.2259283 0.35827324 15.1065
5.8865414 2.2149398 0.39398876 14.1065
4.0545616 2.3455143 0.34924838 20.106001
4.1800628 2.311799 0.36834624 19.106001
3.4826438 2.448945 0.3786574 22.105499
3.7117364 2.4530928 0.33441421 22.106001
3.5085764 2.5146897 0.38487947 23.105499
-1.7067997 0.30509573 0.49384093 8.0424995
-1.6922445 0.38606173 0.48782909 9.0424995
-1.725153 0.46958101 0.47267666 10.85425
-1.7395399 0.55815959 0.44665274 12.54175
-1.7497257 0.66059029 0.4475463 14.04175
-1.7552204 0.70961934 0.46565908 15.042
-1.7506667 0.83409923 0.43685862 16.791626
-1.7403921 1.1410729 0.46257842 21.042
-1.6870669 1.2702487 0.47233665 23.04225
6.3841696 2.1871681 0.42562774 13.1065
7.4789195 2.1604342 0.49785045 12.1065
4.1740723 2.2928777 0.46156386 19.105499
5.1224775 2.2729213 0.45400065 16.106001
5.6589818 2.2343621 0.48978904 15.106
5.8061376 2.2140787 0.4998377 14.106
3.7134697 2.3963661 0.48317334 21.105
3.2826517 2.4012494 0.43410295 23.105
-1.6809891 0.26273745 0.54118592 7.5
-1.568616 0.3033326 0.5305323 8.0434999
-1.4668947 0.36479786 0.52558613 9.8479996
-1.524595 0.49383503 0.51870179 12.0435
-1.4954681 0.49683923 0.54597032 12.044
-1.5037582 0.50485283 0.50967968 13.0435
-1.4544443 0.5014106 0.52772135 13.044
-1.5827038 0.67247069 0.5549196 15.04375
-1.5299611 0.73398656 0.5174135 16.043501
-1.6816289 0.85852772 0.55036163 17.043251
-1.7307049 0.94540173 0.52595741 18.542749
-1.7096239 1.0152441 0.59137851 19.200001
-1.719965 1.1614927 0.52095848 21.042749
-1.6872652 1.1726747 0.5720284 22.043501
-1.6721967 1.2952986 0.52386111 23.042999
-1.6688174 1.3118063 0.56385159 23.043501
6.407145 2.1601918 0.56982458 13.106
8.0816498 2.1024768 0.5199914 11.1065
4.1609149 2.2757928 0.56022036 19
4.5589032 2.2476606 0.59752637 17.105
5.0993528 2.2442021 0.55791056 16.105499
3.765712 2.4001915 0.57501525 21.1045
-1.6573787 0.19245465 0.64326173 5.9230771
-1.7051957 0.58347166 0.62427759 12.5
-1.6545773 0.83368045 0.60217172 17.044001
-1.6824012 1.0960127 0.61130369 20.044001
-1.6795968 1.1896574 0.61163568 22.044001
-1.6514909 1.2599553 0.61161137 22.666666
6.0488377 2.1771672 0.66230506 14.1055
6.4542203 2.1519899 0.69764173 13.1055
4.1613221 2.270741 0.6142453 19
5.2079301 2.263236 0.6868915 16.105
5.7037053 2.2166216 0.63728386 15.1055
3.4690118 2.3920901 0.6472373 22.10375
3.7863064 2.3891611 0.66424561 21.104
4.0355983 2.3569434 0.61870396 20
-1.6586723 0.33708632 0.74386674 8.3789997
-1.6458427 0.42723042 0.74350709 10.04575
-1.6861428 0.57600504 0.72030801 12.04525
-1.7016832 0.60306495 0.70142078 13.045
-1.6873589 0.64736372 0.76248205 13.04575
-1.6987027 0.85936731 0.72449422 16.54525
-1.7021587 0.90718836 0.7483719 17.0455
-1.681585 0.98453289 0.71849769 19.04525
-1.6728672 1.0058672 0.78183854 19.046
-1.6139936 1.1698755 0.79347289 21.046499
-1.59574 1.2528183 0.79064298 22.773251
4.168426 2.2693496 0.73812914 19.104
5.1711636 2.2587745 0.789235 16.1045
5.6450067 2.2193916 0.73982668 15.105
3.8811469 2.3923914 0.77899474 20.1035
3.955071 2.3731821 0.70318729 20.104
3.5170662 2.4046822 0.77796304 22.103001
-1.6527065 0.29898417 0.85796642 8.0469999
-1.6553606 0.37704933 0.82735193 8.8566666
-1.6559567 0.46685684 0.83159101 10.273251
-1.6054122 1.2330947 0.82492566 22
6.1327534 2.190912 0.80997986 14.105
6.5661049 2.1489449 0.85713553 13.105
4.1790271 2.2710731 0.82935262 19.1035
4.2206082 2.256089 0.84392852 18.1035
4.662828 2.2683189 0.82403159 17.104
5.0983319 2.2498529 0.89454675 16.104
5.5571098 2.2173138 0.85429472 15.1045
3.048548 2.3272448 0.8866834 23.1015
3.7910769 2.3918464 0.83600128 21.103001
3.8312509 2.3681304 0.84847999 20.103001
-1.6172512 0.22620274 0.98927903 6.2307692
-1.6350336 0.603459 0.94637233 12.533334
-1.637844 0.8480736 0.9479844 16.048
-1.6193197 0.93916333 0.92420483 17.649
-1.6127162 1.0534606 0.93029028 19.548
-1.5779779 1.1271951 0.90996468 21.048
-1.5180516 1.2654245 0.98294967 22.5
6.1264277 2.1795673 0.94829613 14.1045
6.891057 2.1826663 0.92295074 12.105
4.1499066 2.2683222 0.92264247 18.603001
4.6914501 2.2725987 0.92963308 17.1035
5.5154352 2.2331016 0.9647674 15.104
6.3069277 2.209156 0.97956866 13.1045
3.8461542 2.360539 0.94156253 20.102501
3.6828263 2.4157622 0.99554813 21.101999
3.7449131 2.4238441 0.91315275 21.102501
-1.6050624 0.050280817 1.0242256 3
-1.6203129 0.66614079 1.0294113 13.049
-1.6022648 0.73673904 1.0162233 15.049
-1.5612749 1.0049359 1.0499628 18.384615
-1.5089102 1.2574713 1.0066811 22.5495
-1.4825556 1.2750098 1.0546232 22.383499
-1.4731257 1.3125479 1.0756495 23.050501
5.7645974 2.1978569 1.0115095 14.104
4.155581 2.2555289 1.0186501 18.102501
5.0763478 2.2736104 1.0159124 16.1035
5.4348164 2.2256854 1.0845971 15.1035
3.8696895 2.3580866 1.0320846 20.101999
4.8865175 2.3054924 1.0821778 17.103001
3.5915744 2.4238958 1.057447 21.1015
-1.5886235 0.19511062 1.1103032 5.7777777
-1.5609306 0.38233906 1.1452788 9.0504999
-1.5812544 0.61434627 1.1373392 12.5
-1.5513887 0.87431359 1.1914872 16.051001
-1.5387123 0.92707843 1.1799681 17.051001
-1.5259036 1.0610317 1.1350311 19.384001
-1.4864012 1.0879596 1.1420138 20.051001
-1.4478796 1.2689769 1.1153898 22.358833
4.1300974 2.2376592 1.1527858 18.101749
4.8202138 2.2917666 1.1858456 17.102501
5.0210667 2.2177763 1.1183321 16.103001
5.4029708 2.2419524 1.1946616 15.103
5.6470113 2.2035143 1.1246191 14.1035
6.2123594 2.2062871 1.103685 13.104
3.8667157 2.3470047 1.1301793 20.1015
3.4356394 2.4564316 1.1618168 22.1005
3.6351578 2.4052031 1.1439918 21.101
-1.5206125 0.7299338 1.2197025 14.0515
-1.5405195 0.84525824 1.2359495 15.5515
-1.5092328 0.93328673 1.2077785 17.0515
-1.46232 1.0337554 1.2826129 18.5525
-1.4129535 1.1855518 1.2329642 21.0525
-1.4158995 1.3825583 1.2644156 23.05275
5.0467434 2.2401209 1.2432166 16.102501
5.3711963 2.2581885 1.2947056 15
5.6955404 2.2116735 1.2672871 14.103
3.6483057 2.3983159 1.2377661 21.1005
3.8642781 2.3393517 1.2162271 20.101
4.8187828 2.3070316 1.2873299 17.101999
3.2268243 2.4187624 1.2606081 22.099501
-1.4317136 0.99342597 1.3543917 17.883642
-1.4375784 1.0423068 1.3142375 19.052999
-1.4062147 1.1741093 1.3411087 20.053499
-1.3765706 1.1952237 1.3310043 21
-1.3891885 1.2913464 1.3844278 21.554001
5.5889258 1.272658 1.3730323 10.1025
-1.3820642 1.4332711 1.3540326 23.053749
5.6241655 1.6603593 1.3670361 12.1025
5.5873442 2.0082664 1.3737493 13.1025
4.1293292 2.231674 1.3023572 18.101
4.597353 2.280457 1.3448581 17.1015
5.0353346 2.2458997 1.3433584 16.101999
5.3593097 2.2670825 1.3459419 15
3.045577 2.3968062 1.3378099 23.098499
3.6720941 2.3951735 1.3374277 20.1
3.8512526 2.3317671 1.3065079 20.1005
3.1489685 2.4142904 1.3001711 23.099001
-1.4874283 0.18948689 1.4168704 5.3809524
-1.4560908 0.60749811 1.4348898 11.863636
5.3432813 0.97531003 1.4240937 8.1020002
-1.369108 1.1052438 1.4492506 19
5.11169 1.2772377 1.4967463 10.1015
5.3524113 1.2106538 1.442096 9.1020002
-1.3561624 1.3069693 1.4708856 21.584833
5.4106321 1.650318 1.4428419 12.102
5.4888911 1.9269613 1.4225301 13
5.4310093 2.0948524 1.4567066 14.102
2.6630242 2.2631128 1.4558548 23.0965
4.1181064 2.2270842 1.4517732 18.10025
5.0582027 2.2742131 1.4714708 16.1015
5.3188438 2.2657149 1.4266244 15.102
2.8613133 2.3683133 1.4124184 23.0975
3.1349995 2.3577759 1.4626161 22.098
3.6627667 2.3762004 1.4268755 20.099501
3.8591301 2.3335228 1.4051881 19.1
-1.4168363 0.0032473654 1.5445015 2
4.5046692 0.13221948 1.5487401 3.5
4.4775677 0.20153587 1.5681976 4
4.4800153 0.34486002 1.5468384 5
-1.3465608 0.97130823 1.5536888 17
4.5425863 1.0001043 1.5479718 9.1005001
4.3882051 1.2076179 1.5941422 11.1
4.575439 1.2207209 1.5639918 11.1005
4.9273615 1.6138016 1.55086 12.101
4.9312282 1.7113589 1.5604365 13.101
5.1844778 1.7785933 1.5049893 13.1015
3.9814513 2.2984982 1.5520432 19.099501
4.2746639 2.2467306 1.5605859 17.1
4.808351 2.2746406 1.5080422 16.101
5.2027478 2.2505116 1.5201719 15.1015
3.1430511 2.3594463 1.5592099 22.0975
3.6679451 2.3715978 1.523492 20.099001
-1.3440372 0.067296125 1.6805314 3.5
4.2568717 0.22940035 1.6963067 4.1666665
4.4029951 0.22665714 1.6180255 3.5
-1.2972738 0.51076424 1.6995876 10
-1.3048724 0.65965188 1.6678747 12.5
-1.3499012 0.90189004 1.6032022 16.056
4.4151578 0.90190578 1.6004227 9.1000004
-1.3216003 1.1093284 1.6392192 18.333334
-1.2820456 1.2940116 1.6406153 20.5
-1.2881024 1.3475502 1.6275655 21.445042
-1.2674495 1.4581008 1.6390059 22.528625
4.3054848 1.4678924 1.6378698 12.5
4.4083948 1.4801373 1.6067697 12.1
4.4143505 1.5370136 1.6067351 13.1
4.3532538 1.6954029 1.6273633 14
4.1563215 1.7869602 1.6822623 14.833333
4.2024493 1.8331552 1.6431986 15
4.1111875 1.9337338 1.6889135 16
4.7516742 1.9812185 1.605641 15.1005
2.6878204 2.294415 1.6407434 23.095501
3.9337485 2.2906382 1.6302611 19.099001
4.1049471 2.2180552 1.6519516 18.099251
4.2645664 2.2509274 1.6632141 17.099501
4.7693353 2.2497303 1.6134381 16.1005
3.6738272 2.372685 1.6224502 20.098499
3.3810976 0.077311441 1.7593405 3
-1.3292079 0.17775877 1.760844 4.9285712
4.1725645 0.15673275 1.7420855 3.5
3.4023108 0.23925027 1.7668247 4
-1.2943358 0.31031972 1.7529439 7
4.1792293 0.31879929 1.7495329 5
-1.2573515 0.46644944 1.7921311 9.0579996
3.9815812 0.56280994 1.790743 7
-1.2995057 0.64135373 1.7724432 12.0575
-1.2926681 0.76426888 1.7579489 13.0575
4.042417 0.75425428 1.7980298 8
4.2179236 0.7563771 1.7460988 8.099
-1.306493 0.88127786 1.7670722 14.5
4.0678697 0.83893931 1.797349 8.3825836
4.1612821 0.86795509 1.7763754 8.5
-1.3169233 0.91406518 1.7185786 15.556999
-1.2729609 0.98876685 1.774619 16.299999
4.2059474 0.90563494 1.747013 9.099
-1.2614987 1.110657 1.7568631 18.057751
-1.2677882 1.2846066 1.7257416 20.057501
-1.2349782 1.3063877 1.7679338 20.058001
4.1405625 1.3794919 1.7408006 12
4.0530195 2.1384861 1.7231505 17.5
2.5181038 2.2847488 1.7646152 23.094
3.7823608 2.2308452 1.796028 18.5
3.1870174 2.3910499 1.7496759 22.0965
3.7276568 2.3553262 1.7116956 20
3.0199888 0.090380177 1.8495864 3
3.0531015 0.27734783 1.8619671 5
3.3696012 0.21407996 1.8023516 4
-1.266817 0.48239693 1.8990197 9
-1.2879633 0.54919267 1.8258283 10.528999
3.2208841 0.69731456 1.8689755 8.0959997
3.0367818 0.7656123 1.8852445 9
3.9242055 0.76162165 1.8264917 8.0979996
3.0691359 0.87300843 1.8695381 10.0955
3.3521671 0.80494469 1.8387326 9.0965004
-1.2234135 1.1850206 1.8330376 19.0585
3.7967055 1.2630523 1.8870813 12
4.0144172 1.251578 1.8153471 11
3.7989998 1.4592201 1.8868909 13
3.8598623 1.4876658 1.8685758 13.25
3.8559453 1.8017086 1.8448249 15.545455
-1.2271074 0.13977847 1.9473255 4
-1.2579434 0.27607557 1.9483583 6
2.977875 0.20839708 1.9080638 4.4000001
2.9319942 0.46185273 1.9471853 7
2.9394436 0.56276178 1.9363666 7.5
2.9222236 0.63699579 1.9203938 8
-1.2042973 0.73489875 1.977304 13
2.797507 0.703107 1.9942687 9
2.8720517 0.89252257 1.9462583 10.5
-1.1740986 0.95544618 1.9664279 15.5
2.7703238 0.98537135 1.979194 11.5
-1.2153574 1.0865227 1.9076259 17.059
-1.1751664 1.0667173 1.951815 17
2.800703 1.0790865 1.9530783 12
3.011714 1.1543877 1.9135538 13.095
2.8362517 1.2130826 1.9716165 13.5
3.1304893 1.2575228 1.9033486 13.0955
2.7243316 1.3899931 1.9776649 15
2.8218951 1.334227 1.9754144 14.5
3.0312963 1.3476396 1.9249153 14.095
2.745121 1.4681191 1.9677179 16
2.8399663 1.4126545 1.9336067 15.04725
3.039402 1.4790685 1.9401022 15.095
2.7174337 1.5799044 1.9867417 17.0935
2.8433793 1.5770651 1.9951168 16.094
2.9178817 1.5917895 1.9463438 16.0945
3.6787446 1.5730802 1.9291809 14
3.6667461 1.7363391 1.9256077 15.5
2.8175402 1.8200486 1.982986 18.094
3.4365344 1.8619784 1.9892514 17.096001
3.5666933 1.9367015 1.9811103 17
3.5223565 2.1393716 1.9701467 18
3.4424622 2.2410676 1.9878241 19.096001
3.5357473 2.2733459 1.938956 19
3.2826312 2.421062 1.9989091 21.095501
3.4295759 2.4207449 1.9306084 20.698668
2.700017 0.0058089029 2.0790386 1
2.8101249 0.16720541 2.0144548 4
-1.219189 0.24132644 2.0134315 5.5
-1.2170069 0.4609209 2.0176859 8.5
2.8123379 0.57982409 2.0100641 7.6666665
-1.1541686 0.7490887 2.0953975 12.0605
-1.1462291 0.88945162 2.0769105 14.0605
-1.1459233 0.94086617 2.0553656 14.8535
-1.1579609 1.0682465 2.0566149 16.560249
2.663229 1.2886963 2.0086582 15
2.563242 1.3447393 2.0618925 15.142858
2.7437081 1.5321726 2.0177231 16.0935
2.5283678 1.6683236 2.023536 18.092501
2.3801196 1.702172 2.0952399 19.091499
2.44189 1.7252462 2.0552452 19.091999
2.3060458 1.8020451 2.0929463 20
2.4607701 1.8899378 2.0672505 20.091999
2.7233362 1.8953172 2.0000551 19.0935
2.6395326 1.9054322 2.0303178 19.093
3.010623 1.9461721 2.0183764 19.0945
2.4712186 2.0759239 2.0692985 21.091999
2.796232 2.0919721 2.0454879 20.0935
2.4430628 2.114023 2.0525589 22.091999
2.7950246 2.1276877 2.046906 21.0935
3.0813723 2.1553471 2.0527692 20.0945
3.1856728 2.1023638 2.0402985 19.094999
2.3696589 2.3301756 2.0724928 23.091499
2.4793079 2.3663075 2.0861931 23.091999
2.5430715 2.3290889 2.0419917 23.092501
2.7515328 2.3638601 2.0638413 22.09325
3.1015933 2.3298106 2.0767076 21.0945
3.1396377 2.4452221 2.0080535 22.094999
3.2206218 2.448657 2.0463049 21.094999
-0.96809185 0.080118358 2.1935151 3
2.5733087 0.18823466 2.154243 4
-1.0516185 0.22425403 2.1627393 5.3076925
-0.99126786 0.22101824 2.1673872 5.5
-1.1393156 0.31664249 2.1280458 6.5
-0.84480447 0.42576215 2.1710837 8.0635004
-1.1430933 0.57479775 2.1331098 10.166667
2.5986586 0.59777129 2.1365547 8.1538458
-1.1092142 0.74129999 2.1718624 12.5
2.5453215 0.96534145 2.1310368 11.615385
2.3402665 1.5147343 2.1304405 17.5
2.3199768 1.6743695 2.1081555 19
2.4016638 1.6122273 2.1031237 18.091499
2.1255574 1.7679257 2.1953535 19.444445
-1.3087547 1.8575587 2.1566463 23.0595
2.3262408 1.8161649 2.1252377 20.091
2.0831552 1.9555391 2.1498642 21.5
2.1417906 1.9240574 2.1368849 21.09
2.2178781 1.9630044 2.1272666 21.0905
2.2031627 2.0782962 2.1119137 22.0905
1.9549224 2.1211822 2.1920516 23
2.0432446 2.2040391 2.1388535 23.0895
2.1546681 2.2596226 2.1514189 23.09
2.4134934 2.2344072 2.1216624 22.091499
2.2324629 2.3005919 2.1318171 23.0905
-0.55919856 0.031355638 2.2745144 3
1.8228565 0.085671194 2.2345161 3.5
2.1170824 0.024883309 2.2712293 2
2.3365064 0.011482108 2.2423577 1
-0.97580647 0.10633658 2.2237139 4
2.2108335 0.16068175 2.2669401 3.8
1.9121268 0.20140225 2.2638164 4.5
1.8665998 0.32111496 2.2705576 5.5
-1.0989352 0.48547101 2.2605526 9
2.1289268 0.50761974 2.2958677 7.5
-1.1086608 0.63060403 2.220839 11
2.2139552 0.61667037 2.2962914 8.5555553
2.2192619 1.033654 2.2879105 12.6
2.2200093 1.3811131 2.2397876 16
2.0206051 1.8478301 2.2366624 20
-1.2999245 1.9311606 2.2578368 23.059999
1.7558732 2.0726135 2.289957 22.5
1.8043 2.0680583 2.2670553 22.6
1.6860679 2.1005805 2.2993126 23.0865
2.1499968 0.25298914 2.3091054 5
-1.0922551 0.49789247 2.3334312 9.0620003
1.6836071 0.54813844 2.3013985 9.0865002
1.7129346 0.55905914 2.3103466 9
1.6212193 0.6459018 2.3212156 10.086
1.7222909 0.66531646 2.324158 10
1.8466768 0.65987492 2.3274808 9.5714283
1.6975968 0.72047609 2.3134799 10.0865
1.7601185 0.74184787 2.3521025 10.58675
1.8683507 0.76146269 2.3547997 10.877001
1.6678137 0.81708997 2.3845594 11.086
1.7440202 0.83960414 2.3799961 12.0865
1.8638618 0.88133883 2.3735018 12.043625
1.9381745 1.0290663 2.3812072 13
1.8744819 1.4354724 2.3810556 17
-1.2813456 1.8910278 2.3257399 23.060499
1.8451743 1.835153 2.3200631 20.75
1.575196 2.0464511 2.3809776 23
1.6449277 2.0353003 2.3518398 23.086
-0.0020948385 0.021545418 2.47598 3
1.6812733 0.99926943 2.4259012 13
1.6876709 1.1087818 2.4348466 14
1.7733927 1.1148 2.4867835 13.875
1.6837875 1.3086356 2.4577079 16
1.6541635 1.4132642 2.4742475 17.085501
1.658149 1.5808828 2.4898629 18.085501
1.7075173 1.5427487 2.441083 18.042999
1.7579529 1.6657184 2.4209328 19.333334
1.6427414 1.7509073 2.4531913 20.085501
1.707261 1.7735001 2.405659 20
1.6162932 1.8158292 2.479682 21
1.587883 1.9979653 2.4073291 22
-1.2262911 2.0197899 2.4883399 23.061501
-1.1336597 0.64072067 2.5670688 10.0625
1.6823999 1.3397886 2.5330718 16.085501
1.7401047 1.4163964 2.5063369 16.727272
-1.2072457 1.8717077 2.5777662 22.062
-1.1824437 2.0608985 2.5436339 23.062
1.6792763 1.2176352 2.6724081 15
1.6325463 1.4946086 2.612078 17.5
-1.2181576 1.5957586 2.6066241 19.062
-1.1776079 1.9376655 2.6675117 22.0625
-1.1520571 2.1203899 2.6186407 23.0625
-1.1977139 1.2384481 2.7179217 15
-1.1686893 1.3445786 2.740478 16.25
-1.1510422 1.4264253 2.7766988 17.063
-1.1275136 1.9727966 2.7160947 22.063
-1.0783033 2.0323691 2.7647276 22.063499
1.4560013 2.2869391 2.7313972 23.08325
1.5680276 2.2910557 2.7194648 23.084
-0.31523797 0.24941614 2.883779 5
-1.1592114 1.0122584 2.8035202 13.063
-1.1527946 1.350529 2.8492188 16
-1.1305349 1.4527693 2.8278449 17
-1.1074078 1.745072 2.8393962 19.563499
-1.0266956 2.0589411 2.821753 22.063999
1.0529695 2.2964928 2.8956947 23.08
-1.1346334 0.63438773 2.9173114 9.0635004
-1.136739 0.84395295 2.9211526 11.0635
1.7106804 0.8856023 2.9559584 11.084
-1.1324725 1.059021 2.921473 13.0635
1.6885866 1.0971158 2.9276321 13.084
-1.0995705 1.1155844 2.9789736 13.5
-1.0568087 1.7966477 2.913409 20.063999
1.458383 2.29529 2.9646015 22.0825
-0.94606286 2.3085365 2.9766085 23.065001
1.2290759 2.3295391 2.9758725 23.080999
1.6798522 2.3183322 2.9232092 22.084
-1.1170965 0.6549527 3.0611022 9.0640001
-1.103869 0.77253467 3.0182362 10.064
-1.0818471 0.95033431 3.0571265 11.5
-1.0445071 1.0553526 3.0961001 12.5
-1.0355427 1.3619008 3.0350339 15.538462
-0.95930815 2.0614707 3.0473866 21.065001
-0.75228089 2.2830479 3.0839462 23.0665
-0.64708954 2.2886291 3.0735357 23.067249
-0.43935862 2.2759886 3.0335159 23.06875
0.40198249 2.2864418 3.0609934 23.075001
1.6374704 2.3164048 3.0020025 22.0835
-1.0717056 0.68821299 3.1312785 9
-1.0068114 0.82356632 3.1810648 10.065
-0.90608317 1.2770308 3.1773689 15
-1.0068834 1.3530234 3.1020141 15
-0.97331601 1.4683547 3.1046507 16.5
-0.91989738 1.6134831 3.139873 17.0655
-0.93223768 1.9891154 3.171855 20.0655
-0.83677679 1.9831486 3.1107311 20.566
0.13767375 2.2796853 3.1406095 23.073
0.20082654 2.2772765 3.108238 23.0735
-0.84603697 2.3024948 3.1212928 23.066
0.48111966 2.3036451 3.1253605 23.0755
1.6231843 2.3671424 3.13708 22.083
-1.0247325 0.6231373 3.2194996 8.0649996
-0.89554739 1.2522434 3.2614384 14.25
1.8474413 1.4181895 3.2148147 14.084
-0.88639486 1.6154727 3.2720251 17.066
-0.002579313 2.2841244 3.212436 23.072001
1.6112648 2.3495212 3.2686298 21.0825
-0.90029222 0.19813499 3.3969631 4
-0.9436174 0.26537016 3.364398 4.833333
-0.90387177 0.57455641 3.385443 7.6666665
-0.8882392 0.94449419 3.3000278 11
-0.90178859 1.0067351 3.3179104 11.8
-0.88395709 1.0713549 3.3184199 12.5
-0.89244467 1.4994016 3.3205023 16.066
-0.147158 2.3382988 3.3647213 22.070999
1.5610727 2.3561985 3.3533618 21.082001
-0.86700183 0.23865843 3.4647582 5
-0.88140911 0.46184739 3.4176974 6.5
-0.85966104 0.70475709 3.4381981 8.5
-0.8603549 0.83290958 3.4088602 10
-0.68684381 2.3899989 3.4704556 22.067499
-0.45331416 2.3173382 3.4731619 22.069
1.1659327 2.3430023 3.4220872 21.0795
1.5127852 2.3657179 3.4486096 21.081499
1.8397013 0.69020784 3.5512748 8.0830002
1.8453896 0.97730243 3.541609 10.5
1.8658221 1.0161946 3.5416446 11
1.8528824 1.26004 3.5433116 12
-0.61550617 2.3610754 3.5173721 22.068001
-0.55139118 2.370014 3.5977943 21.068501
-0.0027737331 2.3513339 3.5079772 22.072001
0.63877815 2.3857696 3.5958691 21.076
1.1188579 2.3830681 3.5378098 21.079
1.383769 2.3662577 3.559783 21.0805
1.4490204 2.3554385 3.5142593 21.080999
1.8801681 0.78230304 3.6159885 9
1.8980886 2.2906995 3.6464958 19.083
-0.7313273 2.3673272 3.6706657 21.067499
-0.40168643 2.3894358 3.6110964 22.0695
0.078164831 2.3889492 3.6440346 21.5725
1.0519868 2.3678422 3.6060424 21.078501
1.3172461 2.3763232 3.6312439 20.58
1.4094666 2.3732827 3.6127772 20.0805
0.72766519 2.4121597 3.6860914 21.0765
1.7534962 2.2990785 3.7521119 19.082001
-0.8273626 2.3719401 3.7181523 21.066999
1.1839588 2.3615713 3.773031 20.079
1.2566482 2.3701286 3.7136414 20.0795
1.5348397 2.3746741 3.7149982 20.080999
1.82891 2.3090823 3.7111809 19.0825
-0.32998398 2.4023318 3.7205913 21.07
1.5538312 2.2878258 3.8741233 19.08075
1.6668476 2.2914262 3.8008482 19.081499
-0.42215723 2.3952129 3.8243167 21.0695
-0.34313217 2.3861716 3.8984582 20.07
-0.17522827 2.3864806 3.8557966 21.070999
0.83309668 2.3599644 3.8062422 20.077
1.0423983 2.3503439 3.8750091 20.077999
1.1187218 2.351299 3.8183103 20.078501
1.948359 2.1750269 3.936151 18.0825
1.3458282 2.2758217 3.9849706 19.0795
1.4385509 2.2662497 3.9667008 18.58
1.6500429 2.2502325 3.9893134 18.080999
2.1425567 2.2494969 3.9107902 18.0835
-0.80199504 2.3716052 3.992429 20.067499
-0.26598465 2.3686213 3.9507935 20.070499
-0.091232076 2.383795 3.9498155 20.071501
0.42136803 2.380754 3.91608 20.074499
0.51999706 2.3760588 3.9955347 20.075001
0.97036177 2.329391 3.9488666 19.577499
1.0543137 2.3427203 3.9558001 19.077999
1.9939263 1.5833416 4.0573382 13
1.9802492 1.7380476 4.048295 14.25
1.9815879 1.8929189 4.0416474 15
1.8892094 2.1873128 4.0417109 17.082001
1.1862683 2.2591739 4.0596695 19.078501
1.2793093 2.2397416 4.0422554 18.579
1.3661643 2.2377124 4.0262232 18.0795
1.9004588 2.2234282 4.071249 18.082001
2.0828097 2.258074 4.0122862 18.083
-0.72764248 2.3651876 4.0929036 19.068001
-0.18256855 2.3643827 4.0479465 20.070999
-0.0031292588 2.3828871 4.0484185 20.072001
0.094464026 2.3526249 4.0885229 20
0.44560561 2.3328066 4.0739908 19.074499
0.62214518 2.3340373 4.0494394 19.5755
0.71580648 2.3297315 4.0752106 19.076
1.8495694 1.6799875 4.1906404 14.0815
1.7357521 1.7459606 4.176496 15.081
1.9336174 1.7356817 4.141078 14.082
2.1721563 2.0043344 4.1604629 16.083
2.1703796 2.1945033 4.1558728 17.083
0.17664114 2.2923512 4.1869736 19.073
0.81451297 2.2991693 4.1000948 19.0765
0.92438382 2.2627151 4.1753335 18.577
1.019061 2.2649624 4.1828256 18.077499
1.1040931 2.2557054 4.1172595 18.077999
-0.67745692 2.3564718 4.1548491 19
0.26857114 2.3151901 4.1630321 19.0735
0.36445934 2.3195558 4.11797 19.073999
0.54084271 2.3187695 4.1046906 19.075001
1.5672646 1.6763406 4.2931604 14.08
1.652274 1.6482567 4.2716408 14.0805
1.7558722 1.679656 4.2297392 14.081
-0.72132534 1.8241246 4.2700577 15.5
-0.47272709 1.8084724 4.2667842 16.0695
-0.38358992 1.8500508 4.2553058 16.07
-0.69398147 2.1554613 4.2784367 17.5
1.7410016 2.1832662 4.2056112 17.080999
-0.67408091 2.2052977 4.2427273 18
-0.19322759 2.2669835 4.2684169 18.570999
-0.050491568 2.2670126 4.2302694 18.821751
0.15727457 2.2661433 4.2461991 18.524332
0.28380859 2.2553091 4.2850542 18.0735
0.37649143 2.2557054 4.2461324 18.073999
0.74995875 2.2223382 4.2962894 18.076
0.83699828 2.2212164 4.2352419 18.0765
1.2450593 2.2206807 4.2745285 18.078501
-0.55275565 2.314393 4.2359567 19.069
-0.66156775 1.7930216 4.3295794 15.0685
1.6605095 2.1843834 4.3001199 17.0805
-0.5693391 2.2383852 4.3228078 18.069
-0.4706547 2.2436922 4.311749 18.0695
-0.37513211 2.2628531 4.3260279 18.07
-0.27771634 2.2702742 4.3149877 18.070499
-0.0033203149 2.2361403 4.3388467 18.072001
0.46432903 2.2692199 4.3050137 18.074499
1.3779581 2.2216332 4.3668361 17.079
1.9230422 2.2333708 4.3912134 17.081499
1.5181134 2.1801834 4.4531822 17.0795
-0.58501208 2.2225423 4.4799557 17.069
0.38634548 2.1981659 4.5217829 17.073999
1.4199196 2.1738851 4.5423374 16.079
-0.20539202 2.2285633 4.525928 17.070999
0.5988577 2.2732797 4.5306616 18.075001
0.89593154 2.2380717 4.5356846 17.0765
0.19565293 2.1780932 4.6293311 17.073
1.6708559 2.1270671 4.612215 16.08
1.3727002 2.124747 4.7038169 16.078501
-0.0035993296 2.2193868 4.7629824 17.072001
0.74262607 2.2733362 4.7954969 17.0755
0.52879047 2.3408568 4.7845793 17.074499
-0.31871325 2.2440169 4.8368435 17.070499
-0.0036649497 2.2112989 4.8640256 16.072001
1.0699277 2.287142 4.8470836 17.077
0.87245756 2.1808138 4.9575944 16.076
-0.11337065 2.2010562 4.9315662 16.071501
0.10550766 2.2381659 4.9034929 16.0725
0.21676321 2.2231688 4.9479361 16.073
1.1982148 2.2196019 4.9169106 16.077499
0.11482628 2.3037581 4.9791846 17.0725
-0.5607999 2.0064971 5.0510597 15.0695
0.7684263 2.198987 5.0186419 16.0755
1.0032879 2.1991713 5.056448 16.0765
0.33351275 2.2300656 5.04213 16.0735
0.65721422 2.2013071 5.0400023 16.075001
1.111099 2.2218003 5.0097833 16.077
-0.57036442 1.2158142 5.1529403 10.0695
0.79111189 2.1840851 5.1952477 15.0755
0.90256447 2.1966953 5.149961 15.076
1.9826351 2.1725688 5.108604 15.0805
0.45201293 2.2328296 5.1047845 16.073999
0.55012226 2.2312248 5.1023664 16.074499
1.0432005 2.1908088 5.2521234 15.0765
1.7646424 2.2163546 5.2017565 15.0795
0.58395159 2.192493 5.3881006 15.0745
1.3026888 2.1868227 5.3480287 15.0775
1.4427104 2.184478 5.3982358 15.078
-0.12302772 2.2098484 5.3415098 15.0715
0.11668172 2.1791055 5.4333153 15.0725
0.47484535 2.1817954 5.4331636 15.074
1.5873957 2.1786873 5.4510031 14.0785
1.7198993 2.1533859 5.4517078 14.079
1.8475649 2.1558318 5.4896941 14.0795
-0.0040291995 2.2008071 5.4164352 15.072
1.5879494 2.2045264 5.4674783 15.0785
-0.35793784 1.618377 5.5567141 12.0705
0.24426129 2.16571 5.5456657 15.073
0.36763734 2.186276 5.5288754 15.0735
1.3503511 2.1520164 5.5509458 14.0775
1.4683988 2.1650515 5.5016184 14.078
-0.0042066174 2.1669977 5.686132 14.072
0.1217203 2.1692193 5.6242537 14.0725
0.49083093 2.1743312 5.6578703 14.074
1.1272103 2.1395707 5.6355081 14.0765
1.2576498 2.1589341 5.6344428 14.077
2.2432585 2.0891178 5.7944536 13.0805
-0.12317462 2.1663964 5.7510796 14.0715
0.62788743 2.1732574 5.7507854 14.0745
-0.6521908 2.1439242 5.8794584 14.0695
-0.38456222 2.1232097 5.8582244 14.0705
-0.25357446 2.1561201 5.8016324 14.071
0.25684476 2.1184716 5.8805962 14.073
0.38317513 2.1118345 5.8112793 14.0735
0.76527292 2.1598783 5.8097324 14.075
0.90093225 2.1299038 5.8352742 14.0755
1.0455116 2.1139421 5.899436 14.076
1.1680435 2.1075215 5.9033852 13.0765
2.0512075 2.0955069 6.0263705 13.0795
-0.13839471 2.1121821 6.0453744 13.0715
0.80003411 2.1042407 6.0953245 13.075
0.92933297 2.1132703 6.0408568 13.0755
1.9323418 2.1005812 6.1540594 13.079
1.8003672 2.07938 6.2139544 13.0785
0.67913014 2.1210039 6.2421107 13.0745
1.5007104 2.1174836 6.2052016 13.0775
1.700001 2.0738795 6.3154783 12.078
-0.0046393196 2.1637688 6.3438907 13.072
1.6975501 2.1004379 6.3130727 13.078
0.27122241 2.099824 6.4596186 13.073
0.14772055 2.1512477 6.4199252 13.0725
1.8861897 2.1036751 6.440484 12.0785
1.3041494 2.0131965 6.5997548 12.0765
1.444627 2.0507972 6.506855 12.077
2.0467916 2.0910065 6.5255322 12.079
0.42257559 2.1173432 6.5782709 13.0735
0.71973848 2.0070918 6.6675382 12.0745
1.0190531 2.0126414 6.6478167 12.0755
1.6367402 2.0487139 6.6519284 12.0775
2.2720451 2.0969889 6.6823688 12.0795
0.14595445 2.0254056 6.7681437 12.0725
0.5953781 2.0173588 6.7154865 12.074
1.1776557 2.0356936 6.7627339 12.076
2.4543118 2.0583887 6.7613883 11.58
-0.0049409405 2.0348399 6.8023906 12.072
0.93450999 2.0399222 7.0865865 12.075
2.2065458 2.0223041 7.0082493 11.079
-0.0051820152 1.3341597 7.1688528 8.0719995
2.084506 2.024725 7.1752548 11.0785
-0.0052208314 0.46133867 7.2278657 4
-0.0052624899 1.4598134 7.2911835 9.0719995
-0.0052628587 1.8525603 7.2917442 11.072
1.9385401 2.0147896 7.2743578 11.078
0.64417028 2.0357904 7.4163337 11.074
1.1373836 2.0376318 7.4347987 11.0755
1.8332658 2.0265212 7.4485035 11.0775
0.84281409 2.0381885 7.5964637 11.0745
0.97876245 2.0394218 7.5121145 11.075
1.6873593 2.0189872 7.5800037 11.077
0.33687937 2.0280273 7.6940708 11.073
1.5376521 1.9994065 7.714478 11.0765
0.51123422 2.0467858 7.7334361 11.0735
1.3800701 2.0008795 7.8306293 10.076
2.1221981 2.0067778 7.9150357 10.078
1.0703669 1.9801677 8.0955238 10.075
0.89765257 1.9640608 8.1904821 10.0745
0.36339322 2.0327673 8.2967014 10.073
2.876956 1.9262565 8.4403458 9.0795002
0.56760705 2.020102 8.5854731 10.0735
2.7173696 1.9282397 8.6864805 9.0790005
2.5542638 1.9035167 8.7963028 9.0784998
2.4102151 1.8714908 9.0175638 9.0780001
2.1029832 1.8528757 9.5306101 9.0769997
0.85508817 1.870944 9.6526976 9.0740004
1.0416057 1.8675109 9.6574917 9.0745001
1.261241 1.8667629 9.6693468 9.0749998
1.4715835 1.8611457 9.6087265 9.0754995
2.3554351 1.8685442 9.6484861 9.0775003
3.0674868 1.8722881 9.7015667 8.0790005
1.7617933 1.9037192 9.9268627 9.0760002
1.0885162 1.8868282 10.017979 8.0745001
1.5742031 1.8713686 10.140018 8.0754995
1.770625 1.8516701 10.134752 8.0760002
2.9984934 1.7794921 10.270908 8.0784998
2.5292437 1.7508181 10.374016 8.0775003
2.0353673 1.8552839 10.301554 8.0764999
1.3848825 1.7946769 10.443748 8.0749998
2.2953897 1.840872 10.413347 8.0769997
2.8410249 1.8162502 10.554041 8.0780001
0.93761826 1.7842126 10.635434 8.0740004
3.3655343 1.6884946 11.535967 7
2.5738189 1.7587306 11.702274 7
2.8395276 1.5982004 12.776752 6
3.9413242 1.5411875 13.538819 6
4.9771829 1.3469387 17.059317 5
