# .PCD v0.7 - Point Cloud Data file format
VERSION 0.7
FIELDS x y z intensity
SIZE 4 4 4 4
TYPE F F F F
COUNT 1 1 1 1
WIDTH 1237
HEIGHT 1
VIEWPOINT 0 0 0 1 0 0 0
POINTS 1237
DATA ascii
-2.7607958 2.8055899 4.6201177 23.052
-2.6779149 2.8117189 4.6590071 23.0525
-2.5855396 2.8089983 4.6856236 23.052999
-2.4391339 2.8277919 4.619761 23.054501
-2.372086 2.8534691 4.674931 23.055
-2.2829175 2.8530087 4.6996479 23.0555
-2.1722889 2.8328044 4.6914682 23.056
-5.6285625 2.9631541 4.630023 17.031
-4.7043657 2.9306486 4.6782598 19.0245
0.61809278 -0.30247945 4.7802134 0.33333334
1.1290088 -0.32421935 4.7727385 1
1.8567034 -0.30120942 4.7830615 2
2.2532997 -0.3146269 4.7832489 1
2.6792762 -0.30278039 4.718967 0
3.2708936 -0.35445923 4.7536392 0
3.3204465 -0.33202967 4.7955928 1.5
-0.84589165 -0.27181777 4.7441077 1
-0.25385952 -0.23536301 4.758132 0.75
-0.081664875 -0.2330513 4.781867 1
2.2350645 -0.23320717 4.7969108 2
2.371151 -0.29788044 4.7311845 0
-2.4891195 -0.12727724 4.7759533 1
-0.82880706 -0.17641367 4.7618356 1.9166666
-0.73360503 -0.10262191 4.7010603 1.5
-0.33579022 -0.18461852 4.7537546 1.75
0.034597516 -0.13248175 4.7368021 4
1.6783873 -0.14748913 4.7160711 3
-3.3730288 -0.062632009 4.7124996 1
-2.8356268 -0.061809871 4.7666593 1.5833333
-2.4881022 -0.0058574118 4.7818384 2
-1.4882191 -0.081742808 4.7387676 2
-1.2422875 -0.01091212 4.7605648 3.5
-3.9032264 0.056515247 4.7032218 2
-3.5506644 0.018711088 4.7991414 1.5
-2.6722963 0.059355661 4.7199831 3
-2.5653651 0.048301831 4.7805858 2.5
-2.4950795 0.01097694 4.7572956 3
-2.3337567 0.047951445 4.7301931 2
-1.8243706 0.072116189 4.7771215 5
-1.34479 0.05921188 4.7045422 5.5
-3.0234151 0.11038262 4.7657804 3
-2.8811278 0.12429209 4.7117395 3.5
-2.5442102 0.16764934 4.7667871 3.8500001
-3.3239861 0.2942847 4.728724 3.8571429
-3.1910458 0.22158584 4.7896366 3.3333333
-2.5253999 0.28143948 4.7525768 5.5
-2.309936 0.22495198 4.7699118 5
-1.810169 0.21720797 4.7739296 7
-1.5585837 0.20494224 4.7420759 6.3333335
-1.4713677 0.29932481 4.7705808 8.0345001
-3.0962436 0.34786034 4.777245 4.5
-2.4669371 0.3282502 4.7513022 6
-1.8492944 0.39439267 4.7689152 9
-1.3674235 0.35199314 4.7663932 8.0302505
-3.4528284 0.40384805 4.7201824 4
-3.268925 0.45429376 4.711586 5
-3.086906 0.46308294 4.731328 5
-2.5550356 0.49126321 4.7691593 8.0205002
-2.4595368 0.42070708 4.7132635 6
-2.3480792 0.48569912 4.7786279 6
-2.1698394 0.48466265 4.7633171 9.0240002
-1.5380276 0.45442837 4.7410741 10.040501
-1.4491706 0.44327605 4.793417 10.0385
-1.3515139 0.4134112 4.7301402 8.0155001
-1.2670243 0.47415197 4.7419381 9.5466251
-3.1625464 0.55416292 4.7337441 6
-2.8424737 0.53279233 4.7731681 6.1428571
-2.6363988 0.55633461 4.7616673 7.5167499
-2.5139241 0.54389179 4.7470212 7.7602501
-2.4372537 0.50898182 4.7926903 6.5
-1.6045814 0.55636108 4.7605677 10.043
-1.5283208 0.52707654 4.7144446 11.380726
-1.4568951 0.53246617 4.7628355 11.53625
-1.3372571 0.54372352 4.7821007 12.039
-1.2921798 0.56934816 4.7266645 10.0155
-3.5918443 0.6926403 4.7170019 8.0349998
-3.050411 0.6127637 4.7547264 6
-2.8297932 0.64128876 4.7637982 6.5999999
-2.7955353 0.62469298 4.7585144 7
-2.5419056 0.66254389 4.7317171 8.2857141
-2.4729104 0.6645937 4.734242 8.833333
-2.3505697 0.63951814 4.7744379 9.0392494
-1.8616326 0.61996108 4.7935658 11.5
-1.5267332 0.61951733 4.7292337 13.0335
-1.4602917 0.63699603 4.792253 13.017125
-1.2574751 0.65924841 4.775238 12.016
-3.2366967 0.75085336 4.7499933 7
-2.8070431 0.78592598 4.7478209 10.033
-2.5398357 0.72245491 4.7818542 8.7602501
-2.4922059 0.79320401 4.7656941 9
-2.344238 0.72036654 4.7803864 9.6928329
-2.2193191 0.72251338 4.725122 8.5
-2.1119576 0.72817063 4.7884297 8.0574999
-2.0724604 0.72163612 4.7597914 9.5352497
-1.8123448 0.73473585 4.799983 13
-1.7002428 0.78889316 4.7382622 14.0325
-1.5718917 0.78244948 4.7691045 15.0335
-1.4094182 0.79400575 4.7381043 14.044
-3.847358 0.86867702 4.7963104 9.017375
-3.666683 0.83073628 4.7108083 8.0485001
-3.527987 0.82850695 4.7330246 8.0244999
-2.9350758 0.83603668 4.7409544 9.3760004
-2.8639174 0.86259037 4.765913 8.5270004
-2.7676992 0.85537827 4.7671514 9.0510006
-2.6210303 0.8359791 4.7446508 9.5100002
-2.5355089 0.83892053 4.7487907 10.289917
-2.4559617 0.84012288 4.7504945 9.1780005
-2.3536181 0.86588722 4.7916241 9
-1.8253942 0.84051752 4.7230849 14.029332
-1.4113953 0.86419201 4.7410598 16.038
-1.372277 0.84823525 4.7679524 14.527
-4.0336752 0.90579009 4.709569 9.0340004
-3.9272418 0.91034889 4.7102547 8.0360003
-3.7719901 0.9110539 4.7408247 9.0365
-3.3563333 0.90882915 4.7667427 8.0535002
-3.247035 0.94989079 4.7303782 8.2762499
-3.1087928 0.942891 4.7850056 8.5524998
-3.0490594 0.92422789 4.7716842 9.0532503
-2.9207358 0.97521818 4.7411976 10.542
-2.837358 0.9632715 4.7833376 10.51425
-2.6610384 0.9250049 4.7458315 12.02
-2.544183 0.96176213 4.7337613 12.344501
-2.4403117 0.91555208 4.7270508 10.5
-2.3477838 0.94197488 4.7818518 11.5195
-1.4900565 0.90917265 4.7043867 16.037251
-1.3834176 0.999075 4.7737141 18.5
-3.8668945 1.055849 4.7411308 10
-3.4953539 1.0812273 4.7670388 9.0504999
-3.2358022 1.0121437 4.7984676 9.0515003
-3.1486647 1.0233727 4.7038579 9
-2.831306 1.0139234 4.7994175 9.0555
-2.7504826 1.0529089 4.7638311 9.2795
-2.6399066 1.0566902 4.7482414 11.044333
-2.5611982 1.0491179 4.7414298 12.2915
-2.4584594 1.0411968 4.7558365 12.197666
-1.4324987 1.0571599 4.7241859 19.231285
-1.2021465 1.0638041 4.7803702 17.016001
17.506092 1.0642195 4.72118 6
-3.7648811 1.1476306 4.7639313 10.51825
-3.2975118 1.1066438 4.7517915 9.625
-3.0026851 1.1335896 4.7223568 9.0579996
-2.8363178 1.1197463 4.7218456 9.6861668
-2.7489028 1.1435127 4.7100039 11.25
-2.6516042 1.192228 4.7348566 13.0445
-2.5771906 1.1311638 4.7749128 13.04425
-2.3303678 1.1792933 4.7360444 12.055
-2.233835 1.1774924 4.7433176 13.0555
-2.1613572 1.1822517 4.7693796 13.056
-1.4216572 1.107766 4.7393293 20.034
-1.3431937 1.1492044 4.7951274 21.035
-1.2159868 1.1589954 4.7974796 21.039499
-3.9872236 1.2202733 4.722518 10.0475
-3.8798094 1.2353477 4.7750707 10.54125
-3.7766125 1.2126787 4.7870092 11
-3.6522489 1.2662871 4.7632232 10.5505
-3.4436285 1.2718842 4.718996 11.049
-3.2125728 1.2994559 4.7689734 11.0525
-2.9885511 1.2273712 4.7015862 12.0505
-2.8366044 1.2601619 4.745801 13.041833
-2.7817323 1.2148269 4.7300997 12.0515
-2.6360533 1.216447 4.7405186 13.708417
-2.5783203 1.2113655 4.7611918 14.042999
-2.4637237 1.276148 4.725348 15.03825
-1.358096 1.257947 4.7400928 21.735022
-1.2868266 1.2001748 4.7670107 20.53875
-3.5058312 1.3034828 4.7238979 12.037
-3.0027747 1.3308868 4.7089524 11.0555
-2.9382772 1.362165 4.7293167 12.54725
-2.8075798 1.3908315 4.7638617 12
-2.7471056 1.3733635 4.739265 12.588056
-2.644697 1.3967472 4.747098 13.0535
-2.5618994 1.3670149 4.7331548 14.380584
-2.4501123 1.3571782 4.7322249 15.27225
-2.3235314 1.3377254 4.7407122 14.0535
-2.2554784 1.3465437 4.7781348 15.054
-3.9990289 1.4890215 4.7244501 12.034
-3.8739572 1.4590855 4.7505922 12.534375
-3.1451726 1.4550569 4.7220144 14.038
-3.0678058 1.4456433 4.7571077 11.528999
-2.9079697 1.4388976 4.7905574 12.375
-2.7541189 1.4511175 4.7407184 14.053
-2.5687187 1.4658048 4.7395449 12.5
-2.4499059 1.4913586 4.7409539 17.035999
-2.3503458 1.4544034 4.7653742 14.030001
-2.0320034 1.4269726 4.7582712 16.01375
-3.7331057 1.5977299 4.7278309 13
-3.5729384 1.5251275 4.7193122 12.54925
-3.3143859 1.5971256 4.7240319 12.8
-3.0672855 1.5497371 4.7593136 13.526
-2.4055252 1.5528231 4.7375431 17.25
-2.3599007 1.5388044 4.7260375 17.333334
-2.2829342 1.5161289 4.7786508 17.290833
-2.0253301 1.5707231 4.7546296 17.342501
-3.9084737 1.6634851 4.7064352 14.034
-3.5006468 1.6858633 4.7839746 14.049
-3.1634922 1.6375479 4.761158 13.52575
-2.6626892 1.6992166 4.7070999 17.039499
-2.4500678 1.6572006 4.7268782 14
-2.3339188 1.6291989 4.7397709 16.280001
-2.239711 1.6479137 4.7665892 18.5
-1.9099784 1.6330819 4.7761459 19.014
10.701118 1.6855047 4.7816372 9.0895004
-3.2777638 1.7296779 4.7760363 15.0425
-3.0600553 1.7637587 4.7945452 14.053
-2.8852851 1.7599161 4.7589574 14.6
-2.7196269 1.7870713 4.7134924 15.0565
-2.6735053 1.7828795 4.7605996 19.033001
-2.5501337 1.7427818 4.7781577 19.033501
-2.3348851 1.7322452 4.7386103 19
-2.237185 1.729013 4.7750449 19.039249
-1.9609728 1.7481575 4.7351899 20.5175
10.091892 1.7263157 4.7101488 10.0895
-4.3462248 1.8183964 4.7014842 14.03
-4.2310238 1.8555019 4.711 13.048
-3.5900023 1.8811979 4.7474427 15.0485
-3.4641314 1.82451 4.7719169 15.54125
-3.3975029 1.8104273 4.7016377 14.0515
-3.2440987 1.8988351 4.7754846 17.034
-3.1754656 1.8515191 4.7480378 14.678572
-2.6479383 1.8027794 4.7643356 15.057
-2.556119 1.8971546 4.759995 18.05225
-2.3260922 1.8240634 4.7819958 18.053499
-2.0933199 1.8622969 4.738627 22.0345
-1.916057 1.8368925 4.7391357 20
-3.4163415 1.9589913 4.7754526 15.0505
-3.1555958 1.9549781 4.7449503 15.055
-2.9060771 1.9293576 4.7904148 15.056
-2.5542808 1.9004658 4.7057981 20.0375
-2.0526009 1.9439327 4.7582932 22.024124
7.7519717 1.9952972 4.7989817 13.0885
-4.4370971 2.0014453 4.7248349 15.03
-4.3084879 2.0961242 4.7210588 15.0465
-4.2214069 2.0884366 4.705699 15.035
-3.8589058 2.0594232 4.7144084 16.047501
-3.5432079 2.0500824 4.7376485 16.045168
-3.4319754 2.0617902 4.7723966 16.043251
-3.3197055 2.005852 4.7877574 15.052
-1.916204 2.0250547 4.7999997 22.014
-1.7711077 2.0910213 4.7464623 23
5.6406436 2.047148 4.7021842 16.0895
7.0910783 2.0129726 4.7985449 14.0925
-4.4301167 2.1046128 4.7042503 15.033
-3.3399396 2.1546023 4.7198219 14.058
-3.2316077 2.1471 4.7488999 17.550251
-3.1096873 2.1964791 4.7783399 18.0515
-2.8894081 2.1146779 4.7369261 17.05475
-2.6368151 2.1884735 4.7915049 17.056999
-2.4280987 2.110049 4.7708702 21.035999
-1.8526883 2.1108563 4.7059321 22.5
-1.7827623 2.1267562 4.7151694 23
5.7578278 2.1697087 4.7582169 17.08725
5.8654819 2.1593523 4.7587729 16.0875
6.0007381 2.1762564 4.7620659 17.0835
6.1741195 2.1586308 4.7392826 15.09
6.4020972 2.1561954 4.7934456 16.091
6.616364 2.1187341 4.7315178 15.0925
-3.9634838 2.2144403 4.7064123 17.0355
-3.65558 2.2343607 4.726809 17.0495
-3.585871 2.2410948 4.7837024 17.049999
-3.1623459 2.2856898 4.7986155 20.035999
-3.083426 2.2500005 4.7337084 17.0525
-2.9477501 2.2924559 4.7521996 17.333334
-2.8551147 2.2955859 4.7392163 17.056
-2.7323387 2.2486331 4.7720585 19.710333
-2.3534608 2.2517822 4.796278 22.041
4.3896527 2.2845659 4.7027693 20.0875
4.5453215 2.2618766 4.7848387 20.588499
4.7166524 2.2714279 4.7586079 21.0825
4.8765697 2.2771242 4.7491179 19.588749
5.0819473 2.2871399 4.744082 19.58325
5.1704712 2.2325299 4.7218537 21.07725
5.2608571 2.2239153 4.7134366 18.089001
5.3654695 2.2151732 4.7444391 18.582249
5.4753146 2.2217546 4.7757854 18.09
5.5277677 2.2162092 4.747714 18.091499
5.9011106 2.2187676 4.749711 18.0835
-3.3656878 2.3128624 4.7478604 15.058
-3.2307224 2.3207936 4.7968655 15.0585
-3.113574 2.3696158 4.732193 17.055
-3.0362103 2.3289769 4.7560849 17.685167
-2.9091957 2.3612187 4.7602563 18
-2.8265257 2.3273587 4.7826929 19.352833
3.4843025 2.3805261 4.7772222 21.093
3.5120153 2.3889585 4.7680531 22.0835
3.7507961 2.3356049 4.710351 21.084499
3.8409727 2.3807447 4.758358 22.086
4.0542188 2.383966 4.7585239 22.587502
4.2651138 2.38592 4.7431498 22.08275
4.3273468 2.374614 4.7234569 19.095501
4.9327521 2.3441834 4.7255015 20.582748
5.0712795 2.3215249 4.7488298 19.089375
-3.583559 2.4236045 4.7884731 20.026501
-3.2673967 2.449399 4.7678094 20.0375
-3.1198123 2.4604487 4.7997532 20.049999
-3.0880804 2.4417272 4.7595348 20.535999
2.136024 2.4950469 4.7646976 21.083
2.2081196 2.4971967 4.7007627 21.0835
2.6770704 2.4641414 4.7367334 21.0865
2.9545677 2.4380913 4.7279391 21.088499
3.0389745 2.4618998 4.7682123 22.591499
3.104435 2.4567299 4.7047253 23.091999
3.4171162 2.4488902 4.7101841 23.0835
3.666806 2.4707878 4.7600236 23.085501
4.000298 2.4287694 4.7678738 23.0875
-3.2422564 2.5277798 4.7059021 21
-2.9247861 2.5189986 4.7773752 22.0345
-2.8399456 2.586961 4.7003016 19
-2.7638566 2.5654955 4.7365017 19.0275
-2.6979215 2.5398335 4.7776499 20.0555
-2.4828951 2.5704575 4.7629347 20.057501
-2.2292438 2.546056 4.7837515 20
-1.7655543 2.5012212 4.7942715 19.0625
-1.5550685 2.5039446 4.7972431 20.063499
-0.8702985 2.5986617 4.77843 21.066999
-0.42601156 2.5513384 4.7924442 20.0695
-0.32507816 2.5698571 4.7466955 19.57025
-0.22623476 2.56389 4.7623796 20.070499
-0.0075364187 2.5972965 4.7600527 21.5
0.19716552 2.5861595 4.7607851 21.5
0.33272672 2.589711 4.7229013 21.5
0.46578065 2.5535872 4.775825 20.574249
0.74481773 2.5571058 4.7163277 21.076
0.84517741 2.5477357 4.7842007 21.0765
1.423026 2.5869622 4.7306542 22.0795
1.5434173 2.5553422 4.7703943 21.706667
1.6339389 2.5366447 4.7675509 22.0805
1.7343984 2.5426457 4.7993412 20.080999
1.8148623 2.5553808 4.7388554 21.081499
1.9321462 2.5515687 4.7463946 21.082335
2.0745325 2.5526276 4.7982368 22.0835
2.1622298 2.5170128 4.7740488 22.084
2.2811873 2.5086863 4.7944922 22.084499
2.4522915 2.5914757 4.7437673 17.083
2.5689898 2.553606 4.7634039 20.085751
2.6188648 2.5612283 4.7207394 23.088499
2.9440918 2.519937 4.7915611 23.091
-3.9714952 2.6748724 4.7395205 19.0355
-3.7144608 2.637701 4.7709689 18.050501
-3.5557575 2.6896677 4.7895317 20.0485
-3.4758697 2.6852813 4.74125 21.533875
-3.3067002 2.630558 4.716383 19.052999
-3.2052205 2.6702626 4.7346697 21.025501
-3.0743976 2.6571789 4.7582092 22.034
-2.9654799 2.6544538 4.7307968 21.04575
-2.8566575 2.6336966 4.7424717 21.046249
-2.6034162 2.6266913 4.7875881 18.0595
-2.5653591 2.6803339 4.7590427 21.056
-2.2178202 2.6285937 4.7069745 18.062
-2.1027222 2.6479182 4.7003841 18.0625
-1.9889252 2.6220295 4.7930555 19.062
-1.7713935 2.62743 4.7906942 19.063
-1.6493061 2.6561983 4.7395411 20.312876
-0.43532419 2.6675582 4.7626195 19.07
0.11992764 2.6172109 4.7718019 22
0.49814895 2.6382265 4.7893677 19.074499
0.74397427 2.6692495 4.7803435 23.0755
0.81681967 2.6680162 4.7184172 23.076
1.1386218 2.6029608 4.7601042 20.077499
1.2502143 2.63288 4.7301283 23.078501
1.3315294 2.6143727 4.7563739 22.539501
1.6892471 2.6553059 4.7611423 20.58075
1.8272893 2.6572521 4.7648048 18.0805
2.0130031 2.6036158 4.7655659 19.081499
2.1954966 2.6555359 4.7351184 18.082001
2.3310857 2.6348875 4.766665 18.0825
-3.6649563 2.7188125 4.7464762 20.048
-3.469955 2.7362022 4.777843 21.035
-3.3031561 2.7670369 4.7021532 22.035
-3.2513015 2.7368412 4.7576966 21.045668
-3.1729245 2.7869716 4.7285767 23.0315
-2.9548461 2.7693005 4.7997561 23.0385
-2.8449841 2.769716 4.7986279 21.053499
-1.8936428 2.7716622 4.723393 23.059
-1.7888222 2.7571342 4.710062 23.0595
-1.6688019 2.7707148 4.7450533 23.060249
-3.144583 2.8085284 4.7328963 22.543499
-3.0290644 2.8453696 4.7549672 23.035999
-2.5150313 2.8229618 4.7249379 23.053499
-7.832829 2.9989984 4.7542 13.023
-4.6488447 2.9321158 4.7817178 19.025
3.5106966 -0.48834699 4.8687105 1
-0.51119709 -0.35309064 4.8449063 0
2.4572415 -0.33416712 4.8663526 2
-2.0243154 -0.20114294 4.827363 1
-0.78290224 -0.20093074 4.8876996 2
-0.64879787 -0.20395203 4.8071918 2
-0.5925144 -0.2317985 4.8858433 1
-0.16846108 -0.25208068 4.8989854 1
0.15905224 -0.25946343 4.8330851 1
0.26104963 -0.27784136 4.8480339 0.75
0.48797548 -0.25008464 4.8950748 1
0.50719082 -0.29551622 4.8386807 1
1.2056613 -0.22618639 4.875515 2
1.4825621 -0.20756248 4.8562241 1
1.5736554 -0.2677061 4.8611808 1.6666666
2.0690598 -0.26964191 4.8770399 2
2.6309042 -0.2880854 4.8905654 1
-3.1419966 -0.10273039 4.8612123 2
-2.5773361 -0.13321877 4.8880038 1.4
-1.6875916 -0.15136665 4.838191 1
-1.137141 -0.12174855 4.8687229 3
-0.7113744 -0.18737184 4.8294196 1.5
-0.63958597 -0.12813398 4.8054433 2
0.048224598 -0.12702769 4.812027 3
0.33545831 -0.16952892 4.8984547 3
0.65370649 -0.17263737 4.8009071 2
1.0094504 -0.19533473 4.8548527 0.5
1.4367826 -0.12716107 4.8821101 4
1.5840333 -0.14711213 4.8516722 3
1.8428882 -0.19767579 4.8416224 2
-3.0744405 -0.059353091 4.8031974 1
-2.3401763 -0.097022913 4.8452229 2
-2.1329737 -0.070134208 4.8386011 1.8333333
-1.0422121 -0.095515758 4.8635106 2
0.49431023 -0.068223223 4.8986092 4
-2.5135975 0.067164108 4.8740721 4
-2.1848466 0.0082439482 4.8207264 2
-1.761308 0.014512844 4.8235927 4
-1.3974921 0.070178472 4.8879066 5
-0.9990074 0.019432552 4.8102984 4
-3.5667377 0.10709038 4.8188152 2
-3.4699821 0.16565521 4.872818 3
-2.80704 0.15470466 4.8122773 3.6666667
-2.5510142 0.13714008 4.8375793 3.5
-2.4032893 0.15060353 4.8159142 4
-2.3993535 0.11603478 4.838006 4.2222223
-2.2187605 0.15940842 4.805902 4.8000002
-2.1444929 0.13304538 4.8434229 3.375
-1.7399424 0.17222448 4.8289289 5.9375
-3.0750704 0.28046852 4.8002238 4
-2.5029798 0.2205067 4.895647 3.5
-2.4861953 0.20660292 4.8864841 5.5
-1.4414942 0.24279882 4.8584695 8.02425
-1.369053 0.24810502 4.831141 7
-2.7902236 0.30810189 4.8568087 6
-2.5184555 0.36370218 4.879262 7
-2.4776645 0.34481341 4.8551784 6.5
-2.3214266 0.35557935 4.8071628 7
-1.4964929 0.3586728 4.8813467 9.0389996
-1.3969322 0.31167734 4.8028741 8.0352497
-1.2381921 0.35406446 4.8547697 8.5652504
-1.1603205 0.36682504 4.8322291 8.9086256
-1.0566772 0.38154814 4.8427114 9.0474997
-0.93471998 0.39785063 4.8890533 9.5487499
-2.726429 0.45615995 4.8863497 7.5
-2.3672104 0.48923355 4.8567629 7.5188751
-2.2181926 0.45842981 4.8524194 5.4000001
-2.1732972 0.46787921 4.8442831 5.5
-2.0933342 0.43332103 4.8598843 5.5
-1.8639334 0.41472593 4.8276596 8.0419998
-1.7351294 0.49615318 4.8432403 10.5
-1.6954542 0.44716984 4.8938212 10.038
-1.5229049 0.41445804 4.8094311 10.03825
-1.3478482 0.4473905 4.867465 10.165812
-1.2395406 0.43865725 4.8366618 9.7010002
-1.1582085 0.43758434 4.8529034 9.40275
-1.0346142 0.4018358 4.8545341 9.5477505
-2.9727645 0.58195412 4.8470249 6.1999998
-2.8046346 0.50556064 4.8055081 8.0334997
-2.6302385 0.51232547 4.8972545 8.0345001
-2.5087171 0.56921035 4.8701725 7.636364
-2.4640102 0.52272302 4.8353758 8.5172501
-2.366379 0.55020493 4.8601632 7.7894444
-1.4470121 0.55893189 4.8880615 9.5517502
-1.38344 0.52851546 4.8432727 11.725049
-1.2615407 0.54011476 4.8458571 11.332399
-1.1547017 0.53751421 4.8632526 12.033
-1.0541224 0.53737336 4.8878369 11.26575
-3.066741 0.63715458 4.8326464 8.0369997
-2.9462006 0.6256038 4.847147 8.0375004
-2.8391905 0.64895165 4.8623714 7.5190001
-2.5054209 0.60566199 4.831583 7
-2.3305175 0.69091439 4.8939528 8.0579996
-2.1437702 0.64275384 4.8303223 10.0405
-2.0414047 0.65224516 4.8201876 9.0494995
-1.9488059 0.6914857 4.826189 8.0585003
-1.842937 0.68072313 4.897491 8.0592499
-1.509859 0.60724425 4.8317752 8.0609999
-1.4149654 0.60310835 4.8934207 13.035749
-1.391665 0.64480066 4.8211193 13.53525
-1.2452842 0.66433591 4.8439856 12.6709
-1.142683 0.65938091 4.8694983 12.277751
-2.7365723 0.75878942 4.8368931 10.533751
-2.6253908 0.77134466 4.8006215 8.0539999
-2.3555584 0.75484002 4.8364601 10.51725
-2.2667637 0.7037828 4.8424959 10.04
-1.9399946 0.72645062 4.8622284 9
-1.7342041 0.79503864 4.8493142 14.5
-1.5123587 0.74359161 4.8340812 11.052417
-1.4302278 0.75435954 4.8752413 12.0485
-1.2480146 0.76716644 4.8504281 14.366501
-1.1304991 0.7012949 4.8720598 15.041
-1.0008999 0.70378494 4.8847408 13
-0.9936977 0.70172298 4.8728991 13
-2.9047399 0.88136834 4.8711839 8.0555
-2.8688359 0.88068116 4.8032141 9.0535002
-2.7542913 0.85197318 4.8374104 8.0559998
-2.6626496 0.822267 4.8433285 8.5545006
-2.566071 0.86729562 4.8287354 10.5
-2.4315302 0.84227169 4.8006086 11.039
-2.3882012 0.85071611 4.8602147 11.0395
-2.2944865 0.84157217 4.8726683 11.04
-2.1846156 0.85024816 4.8559132 8.3999996
-2.0633512 0.82286024 4.8793964 10.05125
-1.7843921 0.85843194 4.8318763 15.02925
-1.6646318 0.80008978 4.8882513 14.5
-1.3714759 0.88233507 4.8651938 16.539249
-1.2955002 0.89894879 4.8711863 17.039749
-1.1752871 0.87474656 4.8688478 14.517
-1.0917366 0.89188963 4.8996224 15
-3.650059 0.92090201 4.826756 9.0362492
-2.805373 0.96192229 4.842638 10.02
-2.763 0.98556322 4.8281975 12.029
-2.655164 0.93085414 4.8726435 12.284125
-2.5040231 0.95638591 4.8534589 13.021
-2.4066865 0.96410984 4.8412056 12.037
-2.3364787 0.94556046 4.8402433 11.2345
-2.2532701 0.91391397 4.841939 12.04
-2.175653 0.95444477 4.8538246 8.0614996
-2.0794623 0.94390875 4.8353524 9.7617226
-1.5655532 0.92720419 4.8859024 16.0345
-1.4495609 0.94798583 4.8655167 17.023876
-1.3252485 0.95578068 4.8469954 18.035749
-1.2214062 0.91548532 4.8927317 11
-3.567795 1.086041 4.8325844 11.0355
-3.1338799 1.0294727 4.8582091 9
-3.0296452 1.054744 4.8589339 10.546
-2.8687606 1.0612847 4.8265924 10.787981
-2.7717407 1.0353992 4.8631372 12.038
-2.5295222 1.0826385 4.8208828 12.053
-2.4107866 1.0487591 4.8413358 12.0395
-2.0708499 1.0353715 4.8313179 11
-1.9283943 1.0207595 4.8883634 11.5
-1.8886141 1.0495775 4.8586631 12
-1.664571 1.0522697 4.8808002 17.526501
-1.1349677 1.0513721 4.8390422 17.008251
-1.0547547 1.0139992 4.8769894 18.27075
-3.8121824 1.1585578 4.8330235 11.0315
-3.5368104 1.1623691 4.8961387 10.0495
-3.4588056 1.1109569 4.8770103 11.036
-3.2710435 1.1769849 4.8050661 10.0525
-3.1766429 1.1517622 4.8877945 9.5559998
-2.7477853 1.1708941 4.8147144 12.052
-2.6115777 1.151639 4.8245921 10
-2.5012014 1.1101311 4.8281226 13.0365
-2.3284905 1.1906246 4.8422952 14.0395
-2.2672751 1.1512169 4.8827758 14.04
-2.1545012 1.1909817 4.8714213 17.0245
-2.0709178 1.1359892 4.844367 12.05675
-1.982987 1.1602281 4.8269291 12.7785
-1.1640476 1.1549954 4.8160429 21.040001
-1.0664353 1.1550384 4.8497238 20.360582
-0.97148752 1.1373558 4.8828635 21.042
-3.7592189 1.2298962 4.820569 10.0485
-3.6489878 1.2252194 4.8486147 10.049
-3.5446203 1.2533147 4.8088961 11.0505
-3.4580503 1.2790812 4.8830237 11.051
-3.123317 1.2420452 4.8517408 10.5
-3.0266628 1.2727418 4.8494263 10.5555
-2.9407134 1.2885194 4.8685327 10.55625
-2.8418691 1.2750775 4.8762445 10.52725
-2.6191626 1.2902005 4.8998308 12
-2.5186892 1.2143538 4.815712 14.043501
-2.4391315 1.2233844 4.8420658 13.2865
-2.3190675 1.2426244 4.8648367 14.04575
-2.2629368 1.2157654 4.8752518 13.0545
-1.6705735 1.2121909 4.8919411 19.026501
-1.227355 1.2386386 4.8622046 22.101665
-1.1711133 1.2222198 4.8311777 19.0165
-1.0839274 1.2311687 4.8617983 19.5
-3.3738356 1.357259 4.8079791 11.0545
-2.8266923 1.3734065 4.873105 10.5
-2.4449878 1.3484743 4.8700218 14.941541
-2.3877037 1.351434 4.8992009 16.039499
-2.2632022 1.3761289 4.8540888 15.698001
-2.1393037 1.3647029 4.8542762 13.5305
-2.0292039 1.3220227 4.8640985 12.0615
-1.1271327 1.3467718 4.8262243 20.0165
-1.0426331 1.336699 4.8965783 21.0175
-3.757097 1.4399174 4.8393426 12.535
-3.6433935 1.477843 4.8877153 14.032
-3.3320589 1.4224256 4.8206906 12
-3.1672802 1.420662 4.8959517 12.052
-2.9106891 1.4261643 4.8595524 13.0515
-2.8421748 1.4646379 4.8257742 15.0395
-2.7165189 1.4448864 4.8173957 15.04
-2.6104949 1.4254568 4.8840432 12.0575
-2.4923539 1.4356382 4.8928638 12.058
-2.3128521 1.4884664 4.8132439 16
-2.2246952 1.4287798 4.831841 14.550251
-1.9382201 1.4781345 4.8963118 13.062
-1.8531072 1.4834999 4.8180766 17.0145
-3.8240891 1.5441896 4.8923578 13.0335
-3.6776497 1.5292909 4.8866405 12.049
-3.0070703 1.5255977 4.8456893 13.0535
-2.9268866 1.5362802 4.8774438 12.721334
-2.8521154 1.5355128 4.8642721 11.5
-2.7905018 1.5037457 4.8908505 13.0545
-2.4058623 1.5867987 4.862649 18.0345
-2.3993976 1.5860449 4.8881264 13.06
-2.2361135 1.5448973 4.8170896 15.05125
-2.1354418 1.5480285 4.8485298 13.061
-2.03756 1.5096352 4.8662767 13.0615
-1.9071422 1.5376946 4.8362837 18.0145
-1.0251331 1.5841836 4.8596115 23.017
-3.5844197 1.6574385 4.8903847 15.032
-3.4302526 1.649009 4.8475533 14.0495
-3.0726826 1.633949 4.8004918 13.053
-2.8773863 1.6782949 4.875268 14.054
-2.6121664 1.67184 4.8906889 14.0565
-2.4999337 1.6179254 4.8280339 18.034
-2.3381004 1.6795832 4.8690314 18.575722
-2.2016499 1.6169244 4.8717318 19
-2.1242471 1.6052804 4.8432145 19.040251
-2.0460365 1.6656885 4.8982582 18.0555
-1.8215957 1.6119083 4.8116364 19.0145
-4.0137725 1.7557513 4.8181462 14.031
-2.9839013 1.7288538 4.8526816 14.0535
-2.7430785 1.7360458 4.8343472 14.5
-2.6953957 1.7151506 4.8530712 14.056
-2.4459372 1.7285097 4.8532743 19.03425
-2.315815 1.7487462 4.8697348 18.04175
-2.2044618 1.7313223 4.8702707 19.571428
-2.1621058 1.7572122 4.835217 19.047251
-2.057024 1.7252984 4.8505559 19.037624
-1.8853593 1.7925243 4.8876109 20
-3.6473951 1.8073665 4.8144627 14.05
-3.5338578 1.8161886 4.8583446 14.05175
-3.4159641 1.8322166 4.885499 14.5515
-3.2405832 1.872438 4.8657293 16.042999
-3.1397967 1.8016144 4.8995886 15.052
-3.0373666 1.8607481 4.8841801 17.039
-2.541657 1.8016146 4.8021417 15.0575
-2.4351401 1.8261834 4.8309188 16.788
-2.3376255 1.8242463 4.8747616 21.5
-2.2612314 1.85842 4.8147845 19.531084
-1.9510571 1.8917929 4.8074737 23.0355
-1.8600051 1.8461558 4.8430037 20.5145
-1.775165 1.8770196 4.8810205 21.2575
-3.5755119 1.9721899 4.8146067 16.037001
-3.4368167 1.9098549 4.8593578 15.04475
-3.3322158 1.9139367 4.8115335 15.051
-3.2451365 1.9989229 4.8005238 18.034
-3.1261873 1.9535562 4.829267 18.0345
-2.9901528 1.9290843 4.8758163 15.0535
-2.8801649 1.9304428 4.8697128 15.058
-2.2505701 1.9528006 4.8068027 21
-2.0288663 1.9804807 4.8525944 21.042999
-1.7781737 1.9304699 4.8354716 21.75725
-1.6706362 1.9110671 4.8579006 22.014999
8.1894722 1.959204 4.8630276 12.0885
-4.1407681 2.0126746 4.8119359 15.034
-3.6632957 2.0281394 4.82866 15.051
-3.4605298 2.0495167 4.872694 17.53475
-3.3471568 2.0355544 4.8217745 16.052
-3.125268 2.0444829 4.8706474 15.52775
-2.7691846 2.0993972 4.8117819 17.0555
-2.6745183 2.0831029 4.8490191 17.056
-2.5667572 2.0706747 4.854351 16.556999
-2.4545474 2.0444899 4.8726282 16.028999
-2.1395502 2.0650249 4.8584166 21.540001
-2.0815666 2.0083022 4.8787308 22.038
5.641386 2.0723591 4.8374224 16.088001
6.338377 2.0813856 4.8070745 16.0835
-3.4568977 2.168365 4.8633451 18.0375
-3.2433085 2.1594567 4.806191 14.0585
-3.1710794 2.1631021 4.8182249 17.0515
-3.0561311 2.1446569 4.8395386 16.776875
-2.9867086 2.155488 4.8936634 18.0525
-2.5417891 2.1691046 4.8324823 17.057501
-2.4290862 2.1293156 4.8437853 17.028999
-2.2480586 2.1603901 4.8174014 22.289249
-2.1638269 2.1544752 4.864728 23.0375
-2.0746446 2.1383276 4.8887892 23.038
-1.7587366 2.1155565 4.8238235 23.0145
5.7861409 2.1712654 4.8825469 17.0835
6.0156751 2.1730533 4.8836422 17.083
6.1235976 2.1311345 4.8655996 15.0895
6.5015588 2.1237133 4.8486838 15.092
6.9472899 2.1104865 4.8070116 16.077999
-3.5190961 2.2152512 4.8571167 16.0515
-3.4801433 2.2356629 4.839859 17.050501
-3.2015612 2.2222285 4.84478 18.049999
-3.1224704 2.2608185 4.8664842 17.054501
-3.070729 2.2613981 4.8642983 17.869333
-2.9951596 2.2599423 4.8049283 18
-2.8782589 2.2433336 4.8689022 16.928249
-2.7739072 2.2505467 4.8466439 18.0555
-2.6965308 2.2385571 4.8846645 18.056
-2.453228 2.2923651 4.8558445 21.052999
-2.3597322 2.2394309 4.8455858 21.545
4.4627419 2.2412345 4.8563538 20.087999
4.5257401 2.2423732 4.8993049 21.0895
4.6097083 2.239944 4.8310041 20.09
4.7200036 2.2614927 4.8437729 21.082001
4.878623 2.285351 4.8155899 20.089001
4.9269662 2.202055 4.8799934 18.087749
5.0981264 2.2839365 4.8952246 19.089001
5.1860852 2.2572367 4.8775549 20.07975
5.260715 2.2015448 4.8195467 17.088499
5.3545275 2.2406192 4.8358445 19.57975
5.5651517 2.2134576 4.8751478 18.091
-3.9147215 2.3498056 4.8051615 17.035999
-3.2438862 2.3098614 4.8057919 16.056499
-3.1321206 2.3366141 4.8654695 15.059
-2.8011053 2.3958228 4.8706779 20.0515
-2.6859748 2.3625939 4.8770819 21.052
-2.5546341 2.3706808 4.8403625 18.057501
-2.468694 2.3716505 4.8427854 20.049252
-2.3420706 2.3843014 4.8857741 18.0585
3.2000248 2.3916042 4.8019733 21.0905
3.6925011 2.315233 4.8907328 21.0835
3.7364123 2.3287702 4.8091536 21.084
4.066082 2.3383543 4.8794589 22.087
4.1446919 2.3284011 4.8411913 21.837
4.2641625 2.3526187 4.8436756 20.588501
4.3433557 2.3322878 4.8601761 21.085501
4.4410539 2.3039761 4.834805 20.087
4.5769734 2.3100088 4.8195133 20.086
4.8541336 2.3819451 4.8580189 21.082001
4.9866681 2.3100209 4.8349581 22.0765
5.0464592 2.3126459 4.8354158 19.088501
5.1668324 2.3098524 4.8046322 19.0895
5.6564665 2.3255303 4.829545 19.083
-3.2504938 2.4940963 4.8187838 17.056499
-3.1337664 2.499012 4.8573647 17.056999
-3.0353527 2.4541411 4.8460464 20.050501
-2.9497914 2.4316955 4.8264141 20.542751
-2.8360679 2.463474 4.8453174 16.059999
-2.7471867 2.4795089 4.8847761 16.030251
-2.646158 2.4980042 4.8296947 23.0355
-2.3858964 2.46277 4.8993845 18.666666
2.0550923 2.4819126 4.8143082 20.0825
2.3614006 2.4820592 4.8449054 21.084749
2.5026729 2.4868841 4.8051419 21.085501
2.6151991 2.4698319 4.8438826 21.58625
2.842562 2.4140053 4.8711343 21.0875
2.9187934 2.4403949 4.8256469 21.087999
3.0251179 2.4320159 4.8589363 22.091
3.2992747 2.4713511 4.8439226 23.0825
3.3882074 2.4246695 4.8460331 22.58275
3.4327395 2.4203155 4.8198061 22.083
3.6963019 2.429821 4.8715248 23.084999
3.7728364 2.4048748 4.8146043 22.085501
3.8766108 2.4468629 4.8930545 23.084499
3.9329305 2.4320521 4.8242559 22.585999
4.1647091 2.4183028 4.8084574 23.082251
-2.8307519 2.5748308 4.8288374 17.059999
-2.6105685 2.5341072 4.8000593 20.056
-2.5144029 2.5373099 4.8432374 20.056499
-2.4186785 2.5369151 4.8731351 20.056999
-2.2116456 2.5868254 4.8644562 20.059
-2.1407843 2.5568082 4.8957357 19.061001
-1.6750913 2.5989852 4.8193283 20.063
-1.467696 2.5251403 4.843379 20.063999
-1.3626258 2.514689 4.8133507 20.064501
-1.2621429 2.519346 4.8139906 20.065001
-0.78838485 2.5677998 4.8419533 21.067499
-0.64957774 2.5584202 4.8525171 19.693501
-0.52370888 2.5347643 4.8815966 21.069
-0.42980623 2.5418596 4.8844175 21.0695
-0.34325242 2.5530772 4.8926411 21.07
-0.23554221 2.5624816 4.8808355 21.070499
-0.15446265 2.5453744 4.8364277 21.070999
-0.088491678 2.5495896 4.8243914 21
0.060773287 2.5328569 4.8761473 19.072001
0.15946159 2.5373833 4.8326216 19.0725
0.46159568 2.5368488 4.8598928 19.073999
0.57879305 2.5231972 4.8335829 21.075001
1.1488739 2.5999215 4.8445101 22.125
1.2443689 2.573369 4.8849306 20.577999
1.3359785 2.5607479 4.8540659 20.578501
1.5447171 2.5060391 4.8655453 20.08
1.6639663 2.5485692 4.8901625 20.0805
1.7433326 2.5273094 4.8538609 21.040501
1.8828006 2.5593834 4.8418474 22.082001
1.9862638 2.5994503 4.8403268 18.080999
2.530477 2.519079 4.8812437 22.58675
-3.8288131 2.6631081 4.8391294 19.036251
-3.6307411 2.6488957 4.8428864 18.051001
-3.443687 2.6736069 4.8472376 20.54225
-3.3638365 2.6567662 4.8860807 20.0495
-3.1553087 2.6775827 4.8523126 20.5515
-2.6333425 2.6918483 4.8865519 18
-2.4811394 2.6799049 4.8048096 21.056499
-2.3478434 2.6536665 4.8393068 20.058332
-2.2523832 2.6523604 4.8672109 19.5305
-1.5837362 2.6138813 4.8964124 21.062
-0.77480727 2.668469 4.8608103 19.068501
-0.65618962 2.6573513 4.8033867 19.069
0.25121185 2.6889572 4.8681736 23.0725
0.4120093 2.6469402 4.8663969 19.073999
0.59900117 2.6581924 4.8699641 23.074499
0.6649788 2.6577485 4.8195395 23.075001
1.7852274 2.6201305 4.8064795 23.082001
-3.7573552 2.7666166 4.8278604 19.0495
-3.3247893 2.7143528 4.8931556 19.053499
-3.1600304 2.7755547 4.8644476 22.049999
-3.0545452 2.7068126 4.8792143 21.052
-2.932868 2.7553687 4.8016958 23.0345
-0.23505549 2.7230206 4.8457756 23.0695
0.087788306 2.709429 4.8138685 23.071501
0.17125927 2.7015197 4.8155093 23.072001
-2.8970945 2.8265529 4.8627968 23.039
-2.4578485 2.8390663 4.8487778 23.054251
-1.5624976 2.8020911 4.8245296 23.061001
-5.6156902 2.9531751 4.8741965 17.0245
-5.4312234 2.9180837 4.8860412 17.030251
-4.5904093 2.9091735 4.8867531 19.025499
3.8060102 -0.50918299 4.9429617 1
5.8901801 -0.55588925 4.9907069 0
0.39248756 -0.38452286 4.9196529 0
0.94218218 -0.30664906 4.9072442 1
1.3563616 -0.3467795 4.9221954 1
1.4436458 -0.31532869 4.9339895 0
3.0606432 -0.34916696 4.9743118 1
3.1479189 -0.39699459 4.9828224 0
3.4248958 -0.37579376 4.9882679 2
-2.7002137 -0.20945553 4.9359732 1
-0.6309315 -0.27633667 4.9926891 1
0.69176823 -0.27528566 4.9457064 1
1.0081825 -0.2594457 4.9725828 1
-2.1662662 -0.1417571 4.9198666 1.4
-2.0884326 -0.13895704 4.9564199 2
-1.5075313 -0.13848802 4.9039369 1
-1.4755032 -0.12906541 4.9990416 1
-0.48398852 -0.1366965 4.999259 1.3333334
-2.2561815 -0.07920365 4.9098659 2
-2.0999193 -0.005342178 4.9630609 3.5
-1.8726245 -0.062476743 4.9415474 1.75
-1.2253351 -0.018947251 4.9530058 4
-1.0125717 -0.060906369 4.9973745 3
-1.4333625 0.025863104 4.9449825 4.5
-0.94009286 0.065874726 4.9643345 5.25
-0.77147686 0.013971783 4.95859 4.5
-0.46926451 0.094950795 4.96099 6
-2.6472843 0.17508155 4.9276466 4.5714283
-2.4363475 0.15602607 4.9167418 3.9285715
-2.3259938 0.12707703 4.9173613 4
-2.2217748 0.13217348 4.9288731 4.5
-2.1450114 0.18666449 4.9141726 3.5
-1.9366949 0.15169251 4.900269 3
-1.8650579 0.18955487 4.9605293 4
-1.4321404 0.10516743 4.9431629 6
-1.397936 0.12800583 4.9883075 6
-1.2302892 0.16954832 4.9406147 6.1999998
-1.160583 0.18654408 4.9816403 8.0267506
-0.91172552 0.15328671 4.9908381 8.0439997
-2.9424117 0.27121317 4.903121 4
-2.2042346 0.26724553 4.9229813 6
-2.1572726 0.26784045 4.94874 3.6666667
-1.9344414 0.20722161 4.9337463 4
-1.8812122 0.25225079 4.9648318 4.5
-1.7873855 0.29171389 4.9757671 4.3333335
-1.5176363 0.28047961 4.9123087 8.0279999
-1.3667357 0.22426482 4.9028616 8.0249996
-1.2394054 0.29262555 4.9186177 8.0217495
-1.1192107 0.2947697 4.9909883 8.7058325
-2.8790169 0.32282504 4.9113684 4
-2.6588621 0.3606644 4.9974298 5
-2.2771096 0.3968907 4.9916372 6
-2.1248457 0.33160993 4.9128008 4
-1.8806175 0.3561914 4.9917679 5.5
-1.7898625 0.36864576 4.9437537 8.0404997
-1.6183463 0.34667659 4.9197407 9
-1.5482782 0.34988663 4.9534001 9.3651667
-1.4870675 0.36723512 4.9094892 9.0244999
-1.3598344 0.31851736 4.9757652 9.0331249
-1.2260689 0.30015764 4.96418 8.0439997
-1.1159408 0.38911524 4.9649029 10.373833
-1.073315 0.3445704 4.9402986 8.6929998
-0.95122045 0.30916068 4.9922705 9.0314999
-0.85874957 0.3573572 4.9276609 9.0496254
-0.74647897 0.34764591 4.9698582 9.2754993
-0.65069878 0.30673039 4.9840059 9.0517502
-2.9549022 0.40031552 4.9584293 5
-2.5896292 0.49991715 4.9762959 8.125
-2.2215486 0.45096228 4.9471569 8.0384998
-2.0654006 0.41260567 4.9931235 8.0395002
-1.6311193 0.40066296 4.92453 9.0240002
-1.5392323 0.47587961 4.9711375 10.52475
-1.4369568 0.49493212 4.9885826 11.029
-1.2669276 0.46889165 4.9229593 10.361333
-1.1560496 0.43083277 4.9586296 10.009
-1.0650046 0.44386923 4.9784222 10.530624
-0.94984543 0.45573196 4.9677315 9.8173008
-0.86744195 0.43245253 4.9618516 9.7063332
-0.71354711 0.41823944 4.9617968 10.051
-2.9546287 0.50873309 4.9862423 5
-2.6326609 0.5726496 4.950983 7.0194998
-2.5506535 0.51372826 4.9461794 8.0372505
-2.4540777 0.55808926 4.9075475 9.0107498
-2.316834 0.57920158 4.9235706 9.0380001
-2.2639089 0.5830754 4.9392514 8.6442499
-2.1600213 0.56446916 4.965167 8.333333
-1.8099763 0.56578529 4.95366 7.5
-1.6789756 0.52515858 4.9840059 6.5
-1.3622144 0.55916327 4.9616642 12.359
-1.2467184 0.54867363 4.9339676 12.040501
-1.1587749 0.54769808 4.9708047 12.37375
-1.0327145 0.54457706 4.9287577 12.015062
-0.95169145 0.55538124 4.9339013 11.04875
-0.87834841 0.556651 4.9820895 11.57214
-0.77073514 0.51330936 4.985743 11.025249
-2.8295298 0.6476754 4.9150963 9.0340004
-2.6248164 0.69260478 4.9484768 7
-2.5243235 0.60898262 4.9915109 9.5
-2.3987889 0.61956763 4.9022312 9.1999998
-2.2357361 0.69746768 4.9212518 8.0585003
-2.1215613 0.61370367 4.9499559 7.9166665
-1.8253142 0.63663638 4.9895506 6
-1.7236266 0.63258994 4.9421234 7.0300002
-1.6547484 0.65805995 4.999651 8.5
-1.5933948 0.67212898 4.9861374 9.059
-1.4726622 0.68557006 4.9014864 13.02425
-1.3410957 0.68611324 4.9801579 11.27025
-1.2357005 0.67933756 4.9437399 14.0375
-1.1387255 0.69098699 4.9979634 15.03875
-1.0496961 0.63283485 4.9490829 13.620499
21.12727 0.61367887 4.9375696 5
-2.6483192 0.72290057 4.9205227 9.0172501
-2.5761356 0.74559373 4.9188824 7.5
-2.4690089 0.76825905 4.9256582 8.0574999
-2.3161592 0.70603627 4.9438758 10.038
-2.1498337 0.70440143 4.9350338 8.059
-2.0656114 0.7087093 4.9760518 8.0594997
-1.9614264 0.79276794 4.9370499 8.0620003
-1.8674024 0.72985405 4.999053 8.0605001
-1.7377687 0.72234464 4.9887514 9.0534992
-1.6651008 0.70464504 4.980382 8.0605001
-1.5246605 0.73222226 4.9449134 12.372749
-1.4414822 0.73671687 4.9644136 8
-1.2926042 0.72099507 4.943583 9.0317497
-1.1575257 0.71987265 4.9477668 12.848083
-1.0471656 0.71251082 4.9967618 13.01875
-0.95756871 0.71250224 4.9191179 13.0485
-0.83404088 0.7249403 4.9564276 14.04975
-0.7524389 0.73127699 4.9717579 14.0505
-2.4728737 0.83273923 4.9231749 10.01875
-2.2267249 0.84942603 4.9456573 11.539499
-2.0792956 0.83999383 4.9686408 12.0415
-1.8813411 0.88826126 4.9712486 8.0629997
-1.7594432 0.85464084 4.96103 8.0635004
-1.67269 0.83380592 4.9859166 9.0319996
-1.5223597 0.80377412 4.9726739 15.5
-1.4682572 0.85487628 4.9384584 15.780999
-1.3390808 0.8011421 4.9294839 16.036501
-1.2553577 0.82863981 4.9520512 14.778812
-1.155005 0.85868621 4.9554434 16.025415
-1.0494617 0.86654782 4.9301009 15.04775
-0.95038366 0.82224983 4.9734077 14.86725
-3.1625702 0.9423368 4.9583979 8.0535002
-3.0507922 0.95393616 4.9804554 8.0594997
-2.9111826 0.9980737 4.9536624 11.038
-2.7328568 0.96372944 4.9025354 11.0405
-2.6305141 0.94530374 4.9223366 11.041
-2.5278671 0.92136091 4.9379282 11.0415
-2.4548481 0.94273549 4.9423742 10.0625
-2.2661703 0.97118717 4.9719877 11.833333
-2.0640869 0.9190048 4.9003229 9.0614996
-1.9722135 0.92900825 4.9271388 8.5622501
-1.8647583 0.95794511 4.9713144 11.0525
-1.6173239 0.91418791 4.9099016 16
-1.46395 0.94881219 4.9801211 17.347584
-1.3533406 0.95331091 4.9461126 17.025
-1.2447979 0.94982529 4.9430799 16.535999
-1.0331929 0.94557756 4.942194 16.93679
-0.94287747 0.96512347 4.949626 18.701498
-0.86367166 0.97016954 4.9719381 20.043751
-3.739609 1.0307111 4.9034324 10.0355
-2.8778934 1.0567627 4.9593964 10.036
-2.7483625 1.0514666 4.9509783 10.055
-2.6561294 1.0700803 4.9463425 10.056499
-2.5330174 1.078244 4.9624295 11.474777
-2.4558868 1.0769122 4.9753704 10.057
-2.3435388 1.0421567 4.9231815 13.26875
-2.2552767 1.0414159 4.9580479 12.7775
-2.1636083 1.0787293 4.9795055 13
-2.0831823 1.0390602 4.9861488 11.918595
-1.9310452 1.0327096 4.9979911 11.059
-1.652295 1.017423 4.993072 11.75
-1.5958573 1.0711198 4.9001932 18.027
-1.451314 1.062959 4.9837022 18.5285
-1.3209068 1.0066231 4.9921036 18.040501
-1.2117835 1.0935683 4.901782 20.537001
-1.1499649 1.0548327 4.982553 19.519001
-1.0212586 1.0645732 4.9524546 17.51825
-0.9649241 1.0314767 4.9624624 17.580803
-3.4613626 1.127538 4.9405289 10.05
-3.0484695 1.1763042 4.9391479 9.722333
-2.8432069 1.1910279 4.9328074 9.5592499
-2.7218208 1.1779007 4.9079013 9.0605001
-2.6511407 1.1639729 4.9477978 9.5599995
-2.4494085 1.1199329 4.9603152 10.55875
-2.338315 1.1286918 4.9552827 11.55625
-2.2019458 1.1968206 4.9531116 11.0595
-2.1888218 1.1275679 4.9360719 13.520375
-1.6427724 1.1079062 4.9948831 12.0605
-1.5428851 1.1963649 4.9379578 20.0275
-1.4809113 1.164031 4.9649925 19.764
-1.1575885 1.1076698 4.9347534 20.53775
-0.9219923 1.1643835 4.9284616 21.030624
-0.83344758 1.1438136 4.9534779 22.043751
-0.75976694 1.1500199 4.9683967 20.547375
-0.6820547 1.1306788 4.9940166 19.051001
-2.9360986 1.2181345 4.9261332 10.058
-2.7147801 1.2049736 4.9892149 9
-2.6644793 1.206028 4.9236689 10
-2.5584278 1.2859 4.9543066 11.353333
-2.3537617 1.2342666 4.9407706 12.614429
-2.2703426 1.2557592 4.9537678 14.0135
-2.1652677 1.2546034 4.90026 13.05575
-2.0549266 1.2915132 4.9483967 14.4
-1.9528414 1.2886432 4.9084702 12.062
-1.86698 1.2531171 4.9689083 11
-1.602324 1.2034736 4.913681 20.027
-1.3652782 1.2525376 4.9975939 21.028999
-1.1308589 1.2778182 4.9226623 23.03775
-1.0311072 1.2457995 4.9603877 21.2785
-0.86744463 1.2441754 4.9372292 20.274624
-2.7656298 1.3259044 4.9270291 10.77975
-2.6572766 1.302527 4.9962311 14.039
-2.4684491 1.3133482 4.9909868 11.030251
-2.3491206 1.3560612 4.9394417 14.54775
-2.207058 1.387689 4.9281549 16.5
-2.138742 1.3491957 4.9610386 13.828625
-2.0539079 1.3703357 4.9633265 15.54925
-1.9369884 1.3584912 4.9741139 16.521
-1.5065024 1.3694224 4.9312778 22.0275
-0.91177559 1.3033916 4.9430752 21.018499
-3.7079687 1.4821804 4.9511576 13.034
-3.6686397 1.45455 4.9057188 13.03375
-3.4569118 1.4524677 4.9323063 13.043
-3.0767291 1.4188656 4.9227567 12.0525
-2.9600191 1.4207039 4.9401097 13.053
-2.8145504 1.4596452 4.9552813 16.034
-2.6869888 1.4578737 4.945272 13.344833
-2.5475678 1.4069222 4.9572573 13.05475
-2.4289622 1.4375184 4.9283524 12.916666
-2.3427181 1.4294665 4.9695702 14.2995
-2.20279 1.4736162 4.990891 13.0595
-2.1215882 1.4067309 4.9173069 17.040751
-2.0589566 1.4500895 4.9373698 16.543501
-1.8601166 1.4229233 4.9638538 14.5285
-1.589051 1.4755491 4.9913464 19.044001
-1.4833682 1.4397312 4.971571 20.786251
-1.3656702 1.4248774 4.9891443 21.037125
-0.93657613 1.444404 4.9175506 22.018
-0.86388373 1.4338154 4.9796348 23.018999
12.172693 1.4847391 4.9494209 8.0895004
-3.459857 1.545398 4.9297199 12.0535
-2.8411951 1.553103 4.9258785 12.5295
-2.7377522 1.5611156 4.9422913 13.0565
-2.6812181 1.5388203 4.9375248 13.27825
-2.5700536 1.527859 4.9142942 12.06
-2.4449041 1.55409 4.9342103 13.206
-2.3413725 1.5543364 4.9591093 15.797375
-2.2401516 1.5497851 4.9961605 12.0615
-2.1368446 1.5553236 4.9277368 18.039833
-2.0381439 1.5927703 4.9341903 18.043501
-1.9402914 1.5803206 4.9559727 19.04175
-1.8509623 1.5598812 4.969173 19.041832
-1.0030326 1.5198927 4.9475355 23.018
-3.5946536 1.6096938 4.9118757 12.053
-3.074626 1.646998 4.9147539 15.051
-2.815923 1.6411347 4.9335279 14.054
-2.5238717 1.6269145 4.9196825 14.057
-2.2298985 1.6568004 4.9443288 18.700834
-2.1373038 1.6874068 4.9763107 19.0385
-2.0487032 1.604619 4.9210186 19.041
-1.9618375 1.6219475 4.9424672 17.553123
-1.8237202 1.6805427 4.999105 23.026501
10.164124 1.6843435 4.9415054 10.089
10.63286 1.6889904 4.9764957 9.0889997
-3.2167442 1.7143764 4.9195766 15.0505
-3.1060603 1.7170155 4.9199076 16.039
-3.0525894 1.7709633 4.9620047 15.546
-2.7808964 1.7985567 4.9711909 14.057
-2.3332729 1.7100334 4.919672 20.035
-2.2703316 1.7522624 4.954988 20.529999
-2.1586874 1.7476909 4.9140563 20.038
-1.9420521 1.725605 4.9668584 21.033749
-1.863052 1.7375851 4.9534612 20.033167
-1.7340616 1.7046139 4.9902248 21.042999
-3.6396403 1.8215488 4.9056692 15.0355
-3.5287154 1.8024446 4.9644413 15.036
-3.0173695 1.808708 4.9666581 17.0355
-2.9219673 1.8461902 4.9711409 14.0565
-2.7379241 1.8509074 4.966032 15.0555
-2.5503972 1.8974638 4.9725876 15.0595
-2.3205595 1.8656785 4.9927101 15.0605
-2.248548 1.8476794 4.9245687 18.678917
-2.0792356 1.8684752 4.9211144 21.040751
-1.9368892 1.8960599 4.9175749 20.710501
-1.8742507 1.8436759 4.9753695 20.0445
-3.4073145 1.9395576 4.9678822 16.049999
-3.3975663 1.9103477 4.9167318 16.038
-3.2679949 1.9340924 4.9362044 17.036501
-2.9291897 1.9234033 4.933414 15.027
-2.7688227 1.9651877 4.9545188 17.378332
-2.6758838 1.9170347 4.9661884 15.059
-2.0564246 1.9774075 4.9474554 22.039749
-1.9779747 1.9245616 4.9869242 22
-1.6700864 1.948372 4.9891434 22.016001
7.0915279 1.9983472 4.9608922 14.092
7.7133088 1.9623821 4.9505348 13.088
-3.3634462 2.0312233 4.9876142 16.0515
-3.1110539 2.0712063 4.9309297 18.035
-3.0489118 2.0743041 4.9295807 17.54575
-2.8800106 2.036984 4.9579687 17.220001
-2.7221248 2.0451777 4.9056835 16.056999
-2.5072167 2.0458245 4.9474769 17.056999
-2.4125457 2.044107 4.9413948 18.0555
-2.3425474 2.0662465 4.9377894 20.054001
-2.2213705 2.0189686 4.9073954 21.040001
-2.1378124 2.0265934 4.9333196 20.055
-1.9675751 2.0948091 4.9088697 22.043501
-1.7890351 2.0795348 4.9538741 22.04475
5.649261 2.0824988 4.9728131 16.0875
6.9396553 2.0831537 4.9187145 16.077499
7.0284047 2.042841 4.9513826 14.091
-3.3364902 2.1445107 4.9327207 17.049999
-3.2411599 2.1392064 4.9854059 17.050501
-2.9817228 2.1311409 4.9028764 15.05725
-2.8662133 2.1281245 4.923933 15.807124
-2.7613442 2.1404917 4.9673996 15.7245
-2.6725876 2.1310759 4.9519615 18.553249
-2.3844116 2.1492965 4.9107523 17
-1.9596959 2.1632915 4.9388776 22.547375
-1.8032402 2.1787081 4.9807086 22.056999
5.1479869 2.19138 4.9512181 20.076
5.3811307 2.1981161 4.9003458 17.0865
5.4600673 2.1988647 4.9004459 18.0895
5.5226169 2.1815958 4.9822855 18.0905
5.7176547 2.1782928 4.9726782 17.0895
5.8835454 2.1842115 4.9150438 17.09
5.9527559 2.1448956 4.9466438 16.583
6.4087706 2.1344733 4.946682 16.091
6.6830301 2.1298618 4.9843764 16.083
6.9157424 2.1131523 4.9803829 14.09
-3.4685473 2.2081399 4.9439988 16.052
-3.3757858 2.2483344 4.9991293 16.0525
-3.0534739 2.2197418 4.9253316 18.542999
-2.9968691 2.2222254 4.9521065 15.0585
-2.7954307 2.2495437 4.9500875 16.0585
-2.6125526 2.2230313 4.9521575 17.057875
-2.5064058 2.2088094 4.967454 18.056999
-2.3436363 2.2658911 4.9883976 18
-2.2973351 2.2725837 4.9091206 21.054001
-2.114404 2.2317884 4.935832 21.055
-1.8914236 2.2026796 4.9911509 22.056499
4.184855 2.2870457 4.9441357 21.087
4.4356933 2.2951558 4.9517441 20.0865
4.5316195 2.2580481 4.987607 20.588249
4.6650057 2.2500958 4.9349384 20.0895
4.7408514 2.2564182 4.9334779 19.58375
4.8803821 2.2724464 4.9189038 19.088499
5.0768418 2.2888331 4.9623113 19.09
5.1285343 2.2750032 4.9664116 20.07925
5.2794147 2.202523 4.9536886 17.087999
5.3351798 2.2419994 4.9752312 19.082001
5.4417472 2.2339923 4.9132442 20.0765
5.8254733 2.2467051 4.985178 19.0765
-3.1787987 2.3624408 4.9750504 21.033001
-2.938911 2.348803 4.9502096 17.363333
-2.8527179 2.3580635 4.9675765 16.13975
-2.3004794 2.3860774 4.9012308 19
-2.2323608 2.3903377 4.9116697 19.059
3.3323312 2.3901727 4.9656 22.082001
3.7963951 2.3577464 4.9229336 22.084999
3.9653964 2.3858385 4.9745483 23.08625
4.1224804 2.3246171 4.9669452 22.0865
4.2544298 2.3423219 4.9363241 20.587999
4.8678465 2.3549924 4.9834132 22.0755
4.9177504 2.3355324 4.911458 22.076
5.0289373 2.3048444 4.9326377 18.086
-2.0687735 2.4887478 4.9368277 19.333334
1.9184802 2.4796922 4.9516506 20.081499
2.0011852 2.4953659 4.9019303 20.082001
2.1943533 2.4563129 4.9994802 21.0835
2.2506826 2.4560812 4.9271441 21.084
2.5075743 2.46034 4.9781857 20.084999
2.78211 2.4141097 4.9543948 21.087
2.8188941 2.4965384 4.9048967 20.0865
3.0033426 2.4277124 4.9543467 22.0905
3.2122302 2.4936037 4.9221058 23.081749
3.5437882 2.4883268 4.9796772 23.084
3.6172042 2.4393659 4.9141808 21.587999
3.7866759 2.4879115 4.9927897 23.08375
4.0753217 2.4456694 4.904747 23.081499
4.7904096 2.4182649 4.9634056 23.0755
4.8494072 2.4051008 4.9009523 23.076
-3.1583476 2.593158 4.9510584 18.0555
-3.0480859 2.5282009 4.9241133 19.054001
-2.9419966 2.5261374 4.9486012 18.721498
-2.8487999 2.5229111 4.9562325 18.028313
-2.7739277 2.5052247 4.9396448 18.0585
-2.6601257 2.5156951 4.9678793 17.029499
-2.3629174 2.5558989 4.9474072 18.7265
-2.2749984 2.5763688 4.9256277 19.060499
-1.6686797 2.5677614 4.9572744 20.083332
-1.4208981 2.5548825 4.9427042 21.063
-1.3387692 2.5801795 4.9896145 21.063499
-1.2310128 2.5622623 4.9809561 19.732
-1.1230938 2.564997 4.9684396 19.7325
-1.0326641 2.588243 4.9710965 19.56625
-0.99911642 2.5250344 4.9513245 20.0665
-0.85310698 2.5756204 4.9516864 19.067667
-0.74417168 2.5832329 4.9481344 19.068001
-0.60994881 2.5435884 4.9192858 20.068501
-0.52584416 2.530951 4.9067936 20.069
-0.040012822 2.5370469 4.9375954 19.071501
0.25929317 2.5316248 4.9695101 19.073
0.35975966 2.5438497 4.9369888 19.0735
0.68751627 2.5238166 4.9207306 20.0755
0.82561547 2.5781779 4.9851885 22.07575
0.9512974 2.5926652 4.9099092 22
1.4100214 2.5284696 4.9214287 21
1.7021228 2.5097458 4.9434037 21.0805
1.893932 2.5941036 4.9247651 17.0805
2.1217875 2.5872006 4.933322 23.084
2.2159326 2.56882 4.9224925 23.084499
2.3219485 2.5568144 4.9206238 21.584249
2.4110487 2.5235615 4.9002419 22.085501
2.5008719 2.5219762 4.9479842 23.087
-3.3229911 2.64077 4.9946032 19.0525
-3.2528219 2.6386831 4.9163394 18.055
-3.1449816 2.6134486 4.9174309 21.0385
-2.8612521 2.6623459 4.9794292 19.0555
-2.7806046 2.6503835 4.9952765 23.035999
-2.253016 2.6089857 4.9284372 20.5
-2.1935477 2.6625988 4.9682007 18.061501
-2.0602553 2.6134505 4.9969749 20.75
-1.5306406 2.601738 4.9759221 21.0625
-1.463034 2.6463034 4.9550514 18.0655
-0.87086588 2.6167662 4.9931612 22.066
-0.77496046 2.6207886 4.9735432 22.0665
