# .PCD v0.7 - Point Cloud Data file format
VERSION 0.7
FIELDS x y z intensity
SIZE 4 4 4 4
TYPE F F F F
COUNT 1 1 1 1
WIDTH 1196
HEIGHT 1
VIEWPOINT 0 0 0 1 0 0 0
POINTS 1196
DATA ascii
-0.21518826 2.2093978 -2.5669243 11.623501
3.4483969 2.1696126 -2.5805461 16.544392
-0.19421186 2.5520325 -2.553416 13.563
0.37345147 2.6587229 -2.7804251 13.119
2.140177 2.7997255 -2.6632342 15.118
2.6189194 2.7803738 -2.5628026 15.117285
2.9757204 2.7558079 -2.5362711 17.592028
3.4880209 2.6323764 -2.5983977 17.558067
3.8352699 2.7691188 -2.6982617 14.11625
4.0241208 2.7478504 -2.5586464 14.1155
-0.11480828 2.90956 -2.5165472 15.093
0.26480946 2.9517491 -2.5923066 15.290833
0.52768028 2.9953542 -2.5748091 16.12525
0.99636531 2.916935 -2.6134846 16.75
1.4475141 2.8960533 -2.6029191 16.74073
1.8135091 2.8893924 -2.5808899 18.807699
2.1968989 2.8603258 -2.5443437 19.376829
2.5721161 2.846982 -2.5455787 19.192402
2.9570358 2.8604498 -2.5966945 19.6
3.3294473 2.8781729 -2.5865078 18.813658
4.111907 2.8290615 -2.5453122 20.12075
3.7145486 -0.080254495 -2.1377118 2
3.2792516 0.25961393 -2.1739471 4.25
3.9523232 0.15165046 -2.1563292 3
3.0062923 0.76520479 -2.1964583 8.1261997
3.3419673 0.7095167 -2.2058566 7.6311426
3.9593194 0.75918037 -2.1109219 8.1192503
4.0210733 0.73835295 -2.3179493 8.1199999
3.0469019 0.86259884 -2.0254018 10.1215
3.3543327 1.0358049 -2.2168102 9.7907829
-0.50829309 1.3263913 -2.0698755 8.6247501
-0.072822496 1.2580633 -2.1320698 8.1289997
0.2242526 1.3862714 -2.1868174 9.1278334
3.3279445 1.3849391 -2.2230287 11.726988
-0.58722383 1.8279443 -2.1185777 10.790833
-0.32423711 1.7471956 -2.2289929 10.1265
0.20366938 1.6588362 -2.0317781 11.128
2.8712046 1.6109395 -2.1431036 14.1265
3.4269462 1.8488774 -2.2028329 15.589273
3.9319296 1.9489527 -2.0914481 16.119249
0.013080359 2.3324442 -2.1332707 13.1205
3.4013882 2.1738636 -2.2354541 17.295986
-0.40744713 2.5066531 -2.0160704 15.127
-0.38208902 2.7319765 -2.0226984 15.122
0.4919942 2.4781027 -2.3054779 15.127
2.7072675 2.7776563 -2.1529582 16.28825
2.9878523 2.7062252 -2.1752758 17.565611
3.377408 2.6930676 -2.1962035 17.215364
4.0605621 2.719336 -2.316931 14.115
-0.41515803 2.9253023 -2.0708475 16.127001
-0.20682204 2.9068837 -2.075233 16.126249
0.19091381 2.9627044 -2.1990993 16.62475
0.6732617 2.9584932 -2.2366087 17.926748
1.0181329 2.9481442 -2.1973939 17.569832
1.3730823 2.8902917 -2.2837334 17.664423
1.7816598 2.8850634 -2.2654791 17.664232
2.2184014 2.8816445 -2.2207406 19.179449
2.5937388 2.8538437 -2.2417376 20.376623
2.9716725 2.8424797 -2.2142854 20.791775
3.3167155 2.8884876 -2.2192974 20.43346
-0.54991579 0.39171606 -1.6430831 4
-0.67296863 0.64768708 -1.7085381 5
2.6481974 0.7418375 -1.6947829 9.1254997
2.9166629 0.69932365 -1.7375758 8.5904369
3.2906852 0.69436681 -1.8490798 7.5912619
-0.57353663 0.94141418 -1.7675928 6.6666665
3.0406027 1.0362414 -1.7460107 10.984445
3.2868383 1.0094479 -1.8907658 9.8882875
-0.52671325 1.3115063 -1.691094 8.9067497
-0.16518801 1.4065492 -1.7276785 10.129499
0.12843116 1.4238286 -1.9000986 9.6282501
3.0607529 1.4046201 -1.7034888 12.853583
3.2873507 1.4256886 -1.8375381 12.941667
-0.82524574 1.7588656 -1.9452405 10.1235
-0.53747416 1.712873 -1.7136115 10.990208
3.1925452 1.8891509 -1.6064209 15.1255
3.2940924 1.8366517 -1.8014213 16.381865
3.7438612 1.8948572 -1.7870233 16.11825
-0.57155776 2.2766056 -1.7189289 13.969625
0.0013373643 2.3516738 -1.6073916 15.129
3.1222284 2.2320044 -1.7951349 18.790001
3.3143423 2.162354 -1.8148497 17.784948
-0.45621622 2.6844184 -1.8228359 15.1225
0.21181341 2.5163879 -1.7972331 15.878126
0.73022866 2.7773452 -1.9121499 16.122749
1.0615587 2.7732258 -1.9205431 16.1215
1.4317154 2.7453935 -1.8170911 16.120001
1.8287255 2.7573102 -1.8241739 16.1185
2.1582558 2.7689588 -1.7652888 16.117167
2.678957 2.7841299 -1.8532405 17.952833
3.0830667 2.6944416 -1.8248776 18.235046
3.2908762 2.664506 -1.777432 19.429653
3.6505768 2.7112112 -1.6900616 22.118
-0.49819791 2.9200902 -1.7968426 16.627501
-0.20803365 2.983458 -1.890164 17.126375
0.22745694 2.9064116 -1.7975343 17.587347
0.6080724 2.9151039 -1.7881339 18.125135
1.0206864 2.9238317 -1.7874728 18.235001
1.4199175 2.8944817 -1.8253651 18.525249
1.8353249 2.8836086 -1.7826476 20.481083
2.2150512 2.8751056 -1.7665161 20.555515
2.6014102 2.8578405 -1.7663392 19.986639
2.9950221 2.8857708 -1.8405132 20.876076
3.2757816 2.883121 -1.8023497 19.926701
2.7065637 -0.0407768 -1.4786906 2
-0.7510767 0.3044261 -1.5453606 3.3333333
2.293848 0.10436423 -1.3063941 1
3.0609224 0.39113742 -1.3617494 5.5
-0.57035249 0.74058199 -1.4011302 5.6666665
3.0331986 0.67324644 -1.382789 8.320015
-1.1651373 1.1485748 -1.261229 8.1254997
-0.52426976 1.1061991 -1.4384034 7.5
3.048403 1.0074822 -1.3880562 11.06124
3.2033656 1.0132258 -1.4110818 10.1235
-0.96431082 1.5546907 -1.2925386 10.12475
-0.73402327 1.393639 -1.3607112 9.7739992
2.7917736 1.5123256 -1.5273191 17.119499
3.0348988 1.4073508 -1.3720143 14.421598
3.2602315 1.4453269 -1.4952434 13.022
-0.8380397 1.7351384 -1.3585901 11.12425
-0.70498419 1.6783431 -1.3670694 11.5286
3.0933084 1.8165303 -1.339097 16.953482
3.2414272 1.8169342 -1.4748193 16.461573
-0.64883405 2.2715492 -1.3500564 14.194584
-0.34450734 2.1902802 -1.2583447 14.1225
3.1058075 2.1899159 -1.3950051 19.759251
3.2449591 2.2702556 -1.4845831 20.163868
3.798871 2.013412 -1.565264 17.117001
-0.5795725 2.6086466 -1.3879019 15.750667
0.0061364919 2.5179269 -1.5081713 16.129
2.2616806 2.78174 -1.3118701 17.7197
2.6114855 2.7683494 -1.3793337 17.846727
3.0454876 2.6879578 -1.3946874 20.202934
3.360872 2.6779146 -1.4401933 21.208637
3.6087139 2.714052 -1.5878971 22.1175
-0.48910204 2.8522604 -1.3114376 17.501833
-0.17858963 2.96279 -1.4395717 18.412998
0.2057815 2.9208832 -1.3782095 19.645418
0.6151045 2.9106388 -1.3641558 19.833088
0.97409409 2.8945396 -1.3519993 20.168905
1.4067464 2.8768771 -1.4070103 19.4195
1.7336099 2.8829024 -1.4006448 20.927128
2.2036929 2.8514531 -1.4079968 20.792429
2.6101692 2.8549731 -1.4233974 21.151907
2.994 2.8639436 -1.4020642 21.374662
3.2354724 2.8765771 -1.5636555 21.1255
-0.40876016 0.3982875 -0.87433934 15
-0.38447595 0.37396377 -0.94067997 14.009
1.4221907 0.014373653 -0.81905603 3
2.9526606 0.21419844 -1.0705266 4.6474357
-0.41817617 0.52170223 -0.85935414 19.093876
-0.37874219 0.50260246 -0.82173443 19.01
2.941196 0.64974797 -0.96945149 8.5643702
-1.6619089 1.1564012 -0.88299656 8.1280003
-1.3926363 1.1741338 -1.0644211 8.126667
-0.4179545 0.89444715 -0.9193151 8.1309996
-0.32905591 0.99500775 -1.0216711 8.6304998
2.9294236 0.99104297 -0.98636085 11.478528
3.2601378 0.86103851 -0.8753776 11.114
-1.9025187 1.5355664 -0.807024 10.129
-1.3704666 1.3690658 -0.95490998 9.1268339
-1.05501 1.4693197 -1.091746 10.127
-0.72646117 1.3009632 -1.0761018 9.1289997
-0.32788318 1.2583473 -1.0259612 10.1305
2.9635253 1.4113995 -1.0132691 14.901573
-1.6631246 1.8858238 -0.92525816 12.128
-1.2238355 1.839886 -0.84474063 11.6265
-1.0611475 1.7915875 -1.0736405 11.3755
-0.70772445 1.7141744 -1.0376449 12.129
2.7883341 1.9239362 -1.0688956 21.077833
2.9662762 1.7753067 -0.98188257 17.545614
-1.3832839 2.2062767 -0.93569851 13.727
-0.89990473 2.2237432 -1.0334148 14.125
-0.60198909 2.2048888 -1.0727618 14.325701
3.0467193 2.1966677 -0.98999679 20.48764
-1.3091111 2.6389501 -0.80352974 16.127001
-0.83788264 2.5018356 -0.87780428 16.125
-0.58553982 2.6287868 -1.0504835 16.5257
-0.31376708 2.526557 -1.1775188 16.122499
1.9217834 2.7913578 -0.99535877 18.450666
2.198941 2.7675264 -1.0287631 18.116142
2.5126705 2.7513134 -0.9930687 18.367001
3.0834386 2.6159003 -1.0383321 22.070557
3.2913425 2.4933043 -1.1122055 23.115499
-1.1009929 3.0233002 -0.95381355 18.125999
-0.54937822 2.9878781 -0.89545679 19.556429
-0.1726447 2.9571772 -1.0352327 19.251701
0.20683983 2.9323444 -0.975559 20.77603
0.63583046 2.9210601 -1.029415 20.213326
1.0071092 2.8839014 -0.97802109 21.034353
1.3607482 2.8632717 -1.0455458 19.434187
1.787473 2.8375988 -1.0016357 19.977892
2.1794462 2.8394887 -0.98745799 20.121418
2.6187003 2.8270206 -1.084375 21.305864
2.9137836 2.8388159 -1.0409569 21.160849
3.2070413 2.8267899 -1.1824758 20.126499
1.8871715 -0.03865844 -0.60784227 2
-0.54811049 0.37462398 -0.49584946 12.512625
1.3656596 0.036173686 -0.63132972 2.6666667
2.7539639 0.29384395 -0.49053204 5.25
2.888056 0.20721523 -0.64326924 4.5603175
-0.879493 0.63842583 -0.56320572 6.0999999
-0.50828218 0.61316311 -0.54517156 19.790632
2.7392604 0.62016332 -0.49851355 9.0287504
2.9250028 0.62719601 -0.6340695 8.5792561
-0.81699681 0.96059066 -0.53133345 8
-0.79171228 1.1723808 -0.57906294 9.1300001
2.7483945 0.99760354 -0.5211246 11.821222
2.9281163 0.95109338 -0.62071633 12.024997
3.2238545 0.86923003 -0.78414989 11.1135
-2.14323 1.4569418 -0.61730146 9.13025
-1.982079 1.5028721 -0.71177959 9.1295004
-0.87390971 1.440425 -0.72022104 11.13
2.6776695 1.4370941 -0.58632016 15.255147
2.8817837 1.3899515 -0.60363543 15.189329
-1.9027207 1.7819268 -0.71202326 11.12925
-1.3085313 1.9353729 -0.76343918 12.127
2.7354414 1.7882403 -0.55774802 18.579409
2.902559 1.8102974 -0.62123352 18.258183
-1.6746602 2.226095 -0.62706643 13.795334
-1.5666341 2.244278 -0.76678419 13.628
-0.76465714 2.1722274 -0.66037035 15.125
2.7822375 2.1178782 -0.56674516 20.367126
2.9140072 2.1921875 -0.60298705 21.229961
-1.4369265 2.611897 -0.65559435 16.12775
1.8224289 2.7814484 -0.55338961 22.553497
2.1820254 2.7714829 -0.62621307 22.565029
2.5882113 2.766326 -0.5616743 21.346226
2.9525218 2.6274319 -0.60121059 21.735676
-12.235401 2.9261053 -0.43576741 8.0185003
-1.3627486 3.0122645 -0.65519142 18.127501
-0.90546542 3.0200057 -0.59478986 19.527699
-0.620839 2.9890287 -0.59466916 20.343767
-0.18632439 2.9489539 -0.57182938 20.752766
0.25701243 2.9286318 -0.6246894 21.043999
0.54936606 2.895823 -0.65522796 21.357576
1.0603698 2.8904803 -0.57311422 20.954666
1.3690631 2.8600113 -0.6178748 21.657
1.8117765 2.8628068 -0.63120079 20.832998
2.197901 2.8298404 -0.57396495 20.384966
2.5186896 2.8316765 -0.52510005 21.262821
2.8579183 2.8154011 -0.58281392 21.9233
1.3260628 -0.024039747 -0.20554863 2
1.7860378 -0.034952343 -0.13825108 1.6666666
2.0426955 -0.043790158 -0.16699773 2
-0.60969532 0.35163045 -0.16715132 12.084428
1.0350126 0.029481545 -0.071296833 3.5
2.6839685 0.25392878 -0.16623741 5.197917
2.8485377 0.15978724 -0.24526605 4.2083335
-0.61731273 0.58999377 -0.1782887 17.952906
2.0655077 0.50113922 -0.10196698 9.1184998
2.7023408 0.60790473 -0.18249373 9.3652391
2.8730133 0.6467436 -0.23823839 9.2972326
-0.66106355 0.9280116 -0.073770881 22.011749
2.7241123 0.97230732 -0.11871343 12.677509
2.8933897 0.96707571 -0.23999724 12.96651
-1.518791 1.2412333 -0.27335525 9.1287498
-0.83575857 1.2562401 -0.39335299 10.1305
2.391691 1.2119846 -0.24909377 16.1185
2.7273917 1.3955146 -0.10978335 16.534266
2.8897929 1.3710465 -0.21441828 15.802429
-1.4618335 1.8651282 -0.089522362 13.129
2.7439585 1.8448879 -0.14663638 20.37364
2.8721406 1.849776 -0.23135318 19.339409
2.7394354 2.0889285 -0.18796937 22.560043
2.870487 2.188921 -0.27258465 20.93815
-1.6213288 2.5540228 -0.37999058 16.129
-1.1137778 2.54087 -0.10064689 18.462502
-0.77066201 2.769707 -0.12225032 22.134001
1.542959 2.7754841 -0.21044934 22.626751
1.8352345 2.7705457 -0.16747656 22.121113
2.1943135 2.7476349 -0.19510947 21.855209
2.5806324 2.7274172 -0.23151201 22.45228
2.9061036 2.658026 -0.23677132 22.369968
-12.451645 3.1314812 -0.29490757 9.0179996
-12.187403 3.099494 -0.36169505 9.0185003
-1.6501961 2.9956458 -0.23243332 19.129499
-0.86216027 2.9208031 -0.20436327 21.298166
-0.5838213 2.9246907 -0.21802312 22.131535
-0.25507906 2.9455667 -0.27492991 22.129427
0.2124722 2.8759604 -0.18608321 22.51223
0.59537584 2.855731 -0.24564919 22.592949
1.0391611 2.8342764 -0.22012465 22.409641
1.3714935 2.8210738 -0.229682 21.97957
1.7944349 2.8212795 -0.32496691 21.619833
2.1836705 2.8087032 -0.39119911 20.115499
2.8294859 2.8293591 -0.30279016 23.12475
1.5108106 -0.013536656 0.24738802 2
1.7378478 -0.053490996 0.25560132 1.5
-0.88499629 0.32498735 0.3470372 11.412001
-0.70123959 0.34679553 0.20502673 10.032195
1.9174176 0.029060746 0.081850797 3
2.6002424 0.25161436 0.22396939 5.7111158
-0.86649966 0.60061246 0.28627527 17.380724
-0.70061404 0.60007578 0.21053171 17.120214
2.3415999 0.56267869 0.2923196 9.1130009
2.5987833 0.60743648 0.20599414 9.7410336
2.8732936 0.54179096 0.023740783 8.3608751
-1.6505971 1.0872598 0.20183158 8.1304998
-1.4004395 0.91889513 0.32954407 8.1297503
-0.83966827 1.0954571 0.3735421 20.456444
-0.70777881 0.92114615 0.21955803 21.28727
2.1892252 0.91999513 0.20936346 12.1185
2.6509976 1.0029687 0.22137956 13.761828
2.8596904 0.99679357 0.091281205 13.277249
-1.6639199 1.2519283 0.19169712 10.1305
-0.84481245 1.3738798 0.25897858 23.011332
-0.77535623 1.4629136 0.35197997 23.009001
2.6881659 1.3921651 0.22101371 17.539707
-1.4901705 1.8527638 0.06792593 13.1295
2.7078969 1.834018 0.22029963 21.245811
2.8135831 1.796505 0.10423894 21.126652
-1.2175896 2.3504906 0.29552078 17.129
-1.0313641 2.2306736 0.097824812 16.461
2.6920559 2.0778067 0.15751982 22.736666
2.842155 2.3101783 0.031552792 21.1145
-1.0431478 2.7407737 0.2245717 21.316124
0.78759849 2.7927761 0.029477596 22.122499
1.1637444 2.7773304 0.19671798 22.620251
1.3817166 2.7714233 0.10123842 22.391432
1.7717223 2.7643259 0.22206059 22.783533
2.1888359 2.7391386 0.22063039 22.408228
2.548907 2.6996393 0.23658323 22.562611
2.8941855 2.5096743 0.083547689 22.3183
-12.238407 2.9121714 0.039232254 8.5185003
-0.96560711 2.892601 0.21744424 21.990063
-0.56217313 2.8937585 0.18850294 22.62965
-0.22298326 2.8965068 0.17081061 22.672865
0.20276944 2.908437 0.17226699 22.839001
0.62616676 2.8260796 0.1330636 22.956751
0.99410886 2.8279836 0.18072122 23.120832
1.41915 2.8182366 0.27601689 23.11825
1.7430186 2.8064709 0.29140019 23.11725
1.0488656 -0.065453209 0.71714407 0
1.437459 -0.048241049 0.60439092 1.5
1.8368868 -0.029339949 0.63683712 1.6666666
2.1997144 -0.039419264 0.57463157 3
2.4226935 -0.039900921 0.65379512 3
-0.88147241 0.30735543 0.62466848 10.158424
-0.7797721 0.34884509 0.59504557 12.206417
0.93001932 0.038190179 0.68373489 3
1.7708335 0.011313859 0.59984165 2
2.3240941 0.28540888 0.62116021 6.6817317
2.4735143 0.24455966 0.55045992 5.8970237
-0.88171738 0.59216326 0.6459564 17.083044
-0.74929559 0.57952148 0.52767956 18.29155
1.1549038 0.66743976 0.46056199 9.1210003
2.3286507 0.5804078 0.61086631 10.301728
2.5284209 0.62166071 0.57598579 9.9760818
-0.91471213 0.99695534 0.66134042 19.721611
-0.76039016 0.8990671 0.53682178 21.37101
2.3358562 0.97723317 0.6665774 14.781994
2.5414298 1.0004916 0.57494414 14.099522
-0.87361991 1.3960867 0.61251998 23.011375
0.92901081 1.4366199 0.65444684 17.122499
1.2092421 1.2760148 0.61312413 14.6205
2.3289249 1.3494496 0.65366763 18.052883
2.5667093 1.3882465 0.59835303 18.238058
1.0582039 1.8483425 0.77584672 21.1215
2.3333728 1.6225133 0.65089536 19.1185
2.6110094 1.7962207 0.6212917 21.763414
2.6179664 2.0559511 0.57544833 23.113211
-1.1237109 2.7217448 0.52669245 21.13275
1.8349044 2.7964332 0.44141102 23.115999
2.0744321 2.7591934 0.54672194 23.113501
2.6494021 2.4741249 0.46310258 22.118999
-11.147547 3.108603 0.71212935 9.0200005
-9.7258129 3.0951035 0.57488203 10.019
-1.0223012 2.9278462 0.54017228 22.531601
-0.69523579 2.9346125 0.61154419 23.128714
0.53384727 -0.025369486 1.0938216 2
1.0198507 -0.026036628 1.0619 0.66666669
1.463782 -0.052909955 0.93605399 1
1.7918445 -0.030027343 0.99106282 1.875
2.1217093 -0.08621642 0.91851258 2
-0.96563756 0.33336821 0.99400496 10.287787
-0.71977711 0.35323894 0.89730775 12.056749
0.4779028 0.023529468 0.87262255 3
0.88086176 0.020313406 1.0077293 2
1.2255282 0.0052828286 0.81646574 3
1.7256907 0.037841246 0.82743812 1
2.2505505 0.26097125 1.0408242 6.6726646
2.4625781 0.17305696 1.034487 4.916667
-0.94528061 0.59885627 0.99641567 17.093012
-0.79616821 0.62395906 0.84866738 19.055
2.2693682 0.60110223 0.99333686 10.874479
2.5518997 0.62097842 0.90764529 10.113871
-1.5067405 0.9708668 1.189024 18.0515
-0.96676958 0.96620172 0.98834699 21.181995
1.931173 0.96873933 1.0033765 18.107416
2.2885368 0.99992192 1.0097835 15.771908
2.5161943 1.0660791 0.93361968 15.007263
-1.4386202 1.2899573 1.1858081 22.052
-1.0264611 1.3189622 0.95860237 22.472397
2.3062432 1.384541 1.0301657 19.453896
2.5043206 1.4156212 0.95355171 18.869701
0.96167052 1.9744799 0.87034678 22.122
1.9465116 1.8761474 1.0975504 22.120501
2.3532624 1.7919751 1.0467045 21.897627
2.5174668 1.7843735 0.97916949 22.162239
2.350651 2.0022435 1.0303047 23.114
2.5077212 2.051379 1.1106569 23.098499
-1.6052828 2.7303338 1.1556468 21.133499
-1.4780842 2.7423503 1.0767184 21.465998
-12.634863 2.8190303 0.90828216 8.0205002
-12.193814 3.128144 0.95241594 9.0200005
-1.642735 2.8995526 1.1653118 22.133751
-1.438008 2.9401236 0.96315247 22.255167
-1.009298 2.988337 0.85531843 23.013792
-0.55402714 -0.049278088 1.3889327 1
0.19369434 -0.052911773 1.3161527 0
0.68833411 -0.050077677 1.5354985 0
1.0700836 -0.043132842 1.4856946 2
1.5320386 -0.072656333 1.424603 1.3333334
1.7263074 -0.063816719 1.4594238 2.0555556
-1.4241505 0.38501605 1.3697326 9.0310001
-1.0466565 0.32801247 1.3828318 9.7714119
-0.47787291 0.014629196 1.5040392 2
0.14093183 0.042813297 1.3900312 3
0.53559774 0.013262678 1.4276433 2.8333333
0.98671663 0.055687249 1.2054226 3
1.8119855 0.1928357 1.3540678 6.0511665
2.1234617 0.30345446 1.4194819 7.8707495
2.5247965 0.23993048 1.3958398 5
-1.3195889 0.58564985 1.4996868 11.750634
-1.0386522 0.59869808 1.3864864 16.547997
1.8921648 0.60039479 1.4235976 11.946437
2.1584148 0.61476743 1.4029057 11.721124
2.5429008 0.53351206 1.4511237 8.0961676
-1.3119189 1.0608052 1.5108372 19.338583
-1.0577214 0.93265736 1.4039276 21.753912
1.0718908 0.9951368 1.5840327 17.1185
1.8879868 0.98781562 1.4468489 17.470182
2.1810517 1.0081705 1.4189341 16.598232
2.4949777 1.1415149 1.306502 16.778666
-1.3132594 1.3508474 1.4205326 22.803431
-1.1344273 1.2492967 1.450473 22.297314
1.8399311 1.2203201 1.5333085 21.108749
2.2298381 1.3710368 1.4075282 20.29204
2.5216219 1.4883446 1.3552974 18.711645
2.334692 1.735684 1.4010749 22.664982
2.4812427 1.7720606 1.3346297 21.94692
2.4555635 2.0153973 1.2853359 23.0485
-8.3032932 3.0350657 1.3587627 12.02
-7.442317 3.016115 1.4331435 13.02
-4.659461 3.0697873 1.5621578 19.018499
-0.99324399 -0.025876189 1.7111404 2
-0.66295922 -0.017128814 1.7255685 1
-0.23672098 -0.024365129 1.7265307 1.75
0.14522085 -0.046464596 1.8543063 1.5
0.65805531 -0.050661486 1.8802274 1.1111112
1.071238 -0.057636 1.8772783 1.75
1.4102176 -0.06817361 1.7875608 1.0555556
1.7330382 -0.073788196 1.8038837 1.7037038
2.1830168 -0.038872376 1.7109241 2
-1.2935685 0.36052558 1.8465481 8.718935
-1.1467429 0.3236061 1.7971476 8.8859596
-0.61914855 0.023755305 1.6179942 3
0.20314555 0.095219225 1.8080511 5.2467222
0.41704974 0.019245259 1.9278445 3
1.0187286 0.15963492 1.8206934 5.0465002
1.4324548 0.36892539 1.9895884 9.1125002
1.9374939 0.25968418 1.8274331 8.1512871
2.0731885 0.30065072 1.7899525 8.2283154
2.4454842 0.097149014 1.7057039 3.5
-2.4327397 0.69199908 1.7980347 9.0124998
-1.3297524 0.61389828 1.8389547 12.844199
-1.1255521 0.58715069 1.7808553 15.243052
0.90965736 0.57407689 1.6400795 11.619625
1.3603513 0.70373034 1.8893566 14.114
1.9030998 0.60360157 1.8373171 12.570471
2.0817862 0.61813611 1.7904346 12.318606
2.5303104 0.59029174 1.7924874 8.7189369
-1.3515257 1.0180535 1.8572154 19.171713
-1.1085703 0.91472697 1.7767764 21.045958
0.95067561 1.002421 1.7914107 18.404501
1.9221243 0.9628222 1.8776436 18.191431
2.1059604 0.99147844 1.7926559 16.984058
-12.955481 1.4461564 1.7426481 5
-1.3294704 1.3444382 1.8374667 22.289154
-1.0940433 1.4024088 1.8890891 23.009501
0.91642678 1.3053246 1.8800642 22.618999
1.9179236 1.2684817 1.8807433 21.201324
2.1167846 1.3845183 1.7948543 21.137407
2.4772778 1.4388795 1.7556044 17.093916
-1.6940607 1.8665031 1.991985 22.0105
2.2301686 1.7352692 1.8171797 21.618729
2.4387474 1.8113956 1.7065052 20.594051
-4.9752903 2.375797 1.9214543 15.0195
-1.7498101 2.0202911 1.8820915 23.01
2.3887026 2.0419164 1.8485502 22.093
-12.942262 2.6153846 1.6837959 8.0214996
-5.170301 2.4025249 1.6569899 15.0195
-10.507821 2.9946024 1.8069243 10.021
-6.2082705 3.112133 1.8097229 15.2635
-4.9942436 2.9727941 1.8236543 17.518749
-4.4633641 3.0426569 1.8296975 19.018499
-4.0092072 2.9560843 1.7440875 21.018499
-3.7875416 3.0350971 1.8032361 21.01
-3.4546859 2.9942353 1.8560644 22.009501
-2.9697888 2.9370584 1.7855093 23.01375
-5.729568 3.220937 1.8064053 17.013
-0.84010386 -0.056893773 2.2583399 1.5
-0.58152914 -0.035243239 2.1717296 1.4583334
-0.16716164 -0.038723558 2.1023717 1.75
0.12984134 -0.057794768 2.1280754 0.82222223
0.69397092 -0.040124509 2.1513376 1.5555557
1.0052347 -0.087447666 2.1836557 1.4
1.3848616 -0.082019985 2.2076921 1.6805557
1.8590935 -0.086422652 2.2099581 2.2870371
2.3355649 -0.017522283 2.10042 2
-1.3516312 0.34661791 2.1989982 8.6421194
-1.0314895 0.19042513 2.1386111 6.0072498
-0.50188231 0.072750941 2.2503507 3.3333333
-0.042516492 0.21414691 2.3694553 5.5644999
0.15944608 0.0075667687 2.0809507 3
0.61256623 0.01457639 2.1910827 3
0.87034416 0.26491284 2.3323984 9.3660002
1.4433795 0.35049719 2.0726757 9.6110001
1.906814 0.25481251 2.2055588 8.3295393
2.0924551 0.24876516 2.1809874 8.6283045
-1.6485326 0.66341835 2.1713488 12.516251
-1.3600996 0.60172445 2.2045205 13.078859
-1.1274348 0.60986543 2.1297386 16.734591
0.0014814138 0.43602723 2.2289782 9.1280003
1.0770366 0.78304082 2.1739304 17.115
1.4836655 0.57009572 2.1354222 13.110286
1.9120306 0.57865876 2.222404 12.739921
2.0871716 0.61427718 2.1848385 13.227429
2.4145415 0.6503734 2.175663 9.0912495
-1.8017426 0.91441065 2.1994448 15.018875
-1.3601683 0.99462324 2.1911323 19.539772
-1.1638316 0.96469229 2.1530964 20.7756
0.0084389448 1.158079 2.3951433 20.129
1.4875581 1.0306367 2.1918936 19.856398
1.9068048 0.98717368 2.2232764 18.404751
2.0614855 0.98035818 2.1568902 17.393686
-1.4129238 1.2908093 2.1920505 21.655872
-1.0572549 1.3655776 2.1760416 23.010834
1.4692646 1.3393373 2.3530767 23.10025
1.9575311 1.3356339 2.239773 21.303411
2.0783947 1.3794039 2.1585121 20.097116
2.4171922 1.3825597 2.0375984 16.091999
-2.0170743 1.7840766 2.2742817 20.0555
-1.9430387 1.9160188 2.2870193 21.056
1.8856486 1.8284732 2.3065236 20.565624
2.1285412 1.7667596 2.194169 20.866117
-2.3502164 2.2315083 2.2955699 23.008875
1.8665566 2.0798728 2.2771852 22.73996
2.0428903 2.0433578 2.2604249 23.0905
2.4083571 2.2687004 2.1225567 23.091499
-6.1880994 2.7210805 2.1036282 14.0145
-9.3709478 3.1073112 2.3021452 11.018
-7.0893826 3.1579413 2.0749087 14.015
-6.1253104 3.0946085 2.1337323 15.766624
-5.4578209 3.0509474 2.2065108 17.016375
-4.5140672 3.0756657 2.1543334 19.348501
-4.1483579 2.950017 2.1558957 19.682665
-3.7356415 2.9672804 2.1578033 21.813101
-3.4452038 2.9922953 2.1698153 22.67775
-11.152378 3.2882662 2.2107389 10.017
-0.9725768 -0.038052481 2.5369012 1.7555555
-0.55078167 -0.063550569 2.6160796 1.3333334
-0.19326004 -0.062551774 2.5487149 1.8333333
0.11385331 -0.051234316 2.6016984 1.6666666
0.68503946 -0.081596971 2.5723925 1.05
0.98567933 -0.064162485 2.551343 2.0833333
1.4567448 -0.093136445 2.5909486 1.9
1.7873528 -0.094578937 2.6224692 2.4693875
2.1289997 -0.072461404 2.6433871 2.25
-1.3543764 0.23335296 2.5590165 6.2473979
-1.067456 0.060380239 2.5891905 2.2
-0.64153332 0.043169543 2.6063514 2.4000001
0.29355237 0.13589962 2.5344176 5.2091665
0.66682184 0.20966029 2.7603123 8.1728001
0.93905377 0.27730092 2.6328731 11.286284
1.4884967 0.26645634 2.6033554 11.078897
1.8467216 0.27245167 2.605473 9.4570236
2.1079812 0.23804535 2.6030309 9.0527592
3.0450368 0.36083066 2.5888486 8.0994997
3.2515261 0.37314215 2.6384208 8.0987501
-2.9967532 0.76483887 2.5148349 9.0124998
-2.0529282 0.59601539 2.5862751 9.5102501
-1.902112 0.66334265 2.6809578 11.0465
-1.3929034 0.59026968 2.5037904 12.71127
-1.0506759 0.63156486 2.690115 17.943874
-0.72462213 0.59956181 2.4660645 22.772877
-0.050669715 0.64121699 2.4627628 13.129937
0.22325268 0.63874209 2.5189111 14.260516
0.57291204 0.60763103 2.6825848 16.175869
0.91768712 0.5533843 2.6343815 17.400854
1.4269021 0.60746062 2.6127398 16.607517
1.8576155 0.59499645 2.6004651 13.862191
2.1057827 0.59394932 2.5700207 14.059627
2.5310807 0.54314423 2.6080804 11.101
3.1535339 0.6237849 2.6460636 10.099
3.3207684 0.5972209 2.708854 9.7321663
-2.9813857 1.0759284 2.4182143 11.51175
-2.2687948 0.89932871 2.7132058 12.012
-1.8664385 0.81481636 2.6745734 13.5345
-1.4023945 1.0157541 2.5250604 19.125834
-1.1150527 0.90022844 2.6704912 21.521252
-0.0015062094 0.97894031 2.4650602 18.129499
0.188476 1.0050421 2.5036798 19.527674
0.55631465 0.9211235 2.6553426 21.323551
0.95462704 0.83839339 2.6767409 22.680634
1.4742532 0.97379959 2.5474362 20.213839
1.8628174 0.99190354 2.6088436 18.536312
2.0817821 0.96111882 2.547106 19.021444
2.7814283 1.0805532 2.7840483 16.099001
3.0894837 1.0574467 2.7195632 15.09875
3.2886205 1.0692751 2.7344093 14.598249
-2.0579424 1.4960058 2.4113443 17.056
-1.6096157 1.2499371 2.7045369 20.048
-1.3931164 1.3252035 2.5208924 21.811008
1.4334338 1.5543177 2.7801409 18.083
1.8868302 1.3485171 2.6106138 20.070278
2.0494647 1.4432728 2.5542419 19.339384
2.6440072 1.3143479 2.6064467 19.101
3.0441914 1.4413968 2.6930189 18.599251
-5.3874249 1.8647342 2.5275929 12.0155
-2.2129855 1.7506956 2.6167328 22.021999
1.9059275 1.7965881 2.6279719 21.022602
2.0451057 1.7873553 2.555716 21.061769
2.9188724 1.9057511 2.7253191 23.099501
-2.4399729 2.1831348 2.4444299 23.01025
1.544802 2.1314008 2.6056178 22.584373
1.8323263 2.0828383 2.6106591 22.769625
2.0699623 2.1328628 2.5925691 21.420832
-10.162802 2.5125759 2.4957616 9.0244999
-6.0279522 2.5794988 2.5623014 14.016001
-5.2388549 2.4087675 2.5715036 15.0155
2.4335768 2.6319175 2.5569062 23.0895
-9.1479721 2.960371 2.6395433 11.024
-8.7740612 3.0574408 2.7347312 12.025
-8.2134171 3.0095806 2.6370587 12.524
-7.2618036 2.9776216 2.7069697 14.025
-7.104919 2.9307859 2.7041833 14.024
-6.4977088 3.1184494 2.5067766 15.016
-6.0237055 2.9684577 2.6881056 16.030001
-5.734344 2.9956889 2.6661921 16.772375
-5.3484573 3.0078344 2.5681083 17.351334
-4.5999756 2.9304631 2.6502683 19.357666
-4.1819105 2.9434881 2.6198642 20.629702
-3.7144876 2.9324307 2.5730977 21.8155
-3.4897151 3.0024979 2.5792096 23.015202
-2.9579716 2.8965368 2.7643924 23.007
-10.953142 3.2013252 2.492027 10.0175
-1.2381799 -0.009587165 3.1369054 2
-1.1145039 -0.0094484417 3.111161 1.75
-0.67287111 -0.0094481166 3.0571964 1.6
-0.13223413 -0.072134659 2.9646161 1.2
0.22078267 -0.05638741 2.9918077 1.4583333
0.50010031 -0.073273815 3.0337799 1.3333334
0.95651615 -0.074871622 2.9407032 1.9047619
1.3998457 -0.11195704 2.9592767 2.2222223
1.7724483 -0.11129595 3.0368042 2.3615384
2.1667738 -0.21998686 3.1772563 2
-3.604037 0.048320509 3.0467305 2
-3.0683527 0.063293025 2.8845577 2
-1.7347611 0.041212257 2.9678652 2.25
-1.3829143 0.029192211 2.9970641 1.75
-1.0580896 0.037972536 2.9666824 1.6666666
-0.74334431 0.034787275 2.9806993 2.4166667
-0.28696275 0.0034819134 3.1133096 2
0.055717312 0.013042403 2.9774146 3
0.67592144 0.30834588 2.8707507 12.122167
1.0582637 0.22638401 3.0135658 12.145831
1.4154294 0.22354111 3.0596979 12.056372
1.7594355 0.24714892 3.0256152 10.322511
2.1024914 0.24521419 3.0471737 9.7322264
0.3835575 0.6817255 2.8728886 19.127501
0.75513601 0.53172541 2.8933291 17.621
1.0418029 0.55652601 2.9774621 19.195045
1.4295831 0.59499669 3.0518277 19.541979
1.7805207 0.58092713 3.0127769 15.405271
2.0987608 0.57077312 2.9950168 15.162869
2.4054263 0.65194309 3.1861069 16.1005
3.3325758 0.62398267 3.0230851 10.596
-0.95795572 0.96044654 2.839813 22.019501
0.68553704 0.89965498 2.8142004 23.12225
1.5005109 0.89993078 2.9688749 15.6735
1.8154534 0.98071015 3.0015614 18.533617
2.1406512 0.89777136 3.0168471 20.773666
3.2735016 1.0093246 2.936254 14.346875
1.3578058 1.457014 2.9466622 16.082001
1.8095815 1.3566647 2.989244 19.986515
2.0150502 1.4334606 2.8540673 18.089626
3.0197315 1.2512742 2.9018557 17.431
-2.0223751 1.71911 2.8913798 22.021999
1.8653275 1.811265 3.013628 21.653212
2.1471066 1.8333489 2.94403 20.088583
1.4295583 2.1604161 3.0049076 21.082251
1.7710251 2.1505294 2.9949434 22.285252
2.2736056 2.1872101 3.1305566 19.0865
5.8142753 2.3884292 3.1629305 17.094
7.00562 2.1461637 3.056664 14.094
-10.051849 2.4080081 2.8210638 9.0244999
-8.5537434 2.5860853 3.0729904 11.0245
-6.8634992 2.7995772 3.1580262 14.0265
1.7883208 2.6049118 3.1184473 23.084
2.1027389 2.5034947 3.0958958 22.085751
4.2808471 2.4355216 3.038096 21.595501
5.9087214 2.4325898 3.029886 17.0945
-8.8685522 3.0261245 2.9316602 12.0255
-8.6675072 2.9625034 3.0633819 12.025
-8.1710291 2.9697673 3.0038307 12.27475
-7.7355709 3.0121782 2.9168997 13.0215
-7.3140526 2.9347618 3.0800586 13.52475
-7.0547929 2.9454441 3.0089755 14.0276
-6.5877357 2.9516137 3.1012897 15.021167
-6.1389465 2.9870813 3.0727928 15.781376
-5.853301 2.9215651 2.9995105 16.025126
-5.395165 2.9084787 3.0656023 17.153751
-4.9165969 2.9517128 3.1188908 18.692167
-4.5364108 2.9120655 3.0159431 19.469721
-4.133935 2.9361825 3.0230954 20.89407
-3.7774982 2.9318268 2.9843094 22.08819
-3.4800987 2.9114223 3.0500491 22.73682
-3.0455887 2.889761 2.9130497 23.008001
-1.4081894 -0.03121529 3.4214282 2.0833335
-0.99442464 -0.050115418 3.4382055 1.75
-0.58529407 -0.050119534 3.422298 2.1666667
-0.282518 -0.010996155 3.317245 2
0.20477517 -0.072465636 3.3892586 1
0.64276022 -0.11027205 3.3683891 1.3333334
1.0061879 -0.10217728 3.342905 1
1.384421 -0.150592 3.4476578 1.4
1.7484846 -0.12174785 3.3886833 2.4444444
2.0872505 -0.1963291 3.3822925 2
2.6377959 -0.069980711 3.4231207 3.59375
-7.3582902 0.13889223 3.4177973 2
-6.4068689 0.1837642 3.4983246 2
-4.1036525 0.049417764 3.2518826 2
-3.9148173 0.018801682 3.5209637 2
-3.4146643 0.017496891 3.3171453 2
-2.9466779 0.010296576 3.2176614 2
-1.7111651 0.01740595 3.2712016 1
1.4955444 0.22553925 3.2925458 12.069697
1.7733272 0.24102521 3.329421 10.555554
2.2027433 0.25568914 3.3321872 10.434435
2.5891104 0.25128931 3.4276302 9.9564533
2.9055412 0.2479184 3.5041804 9.4875002
-0.65272224 0.56822336 3.5402825 23.018749
-0.36457679 0.47646889 3.372426 22.687834
1.0674311 0.55999273 3.28508 8.3870001
1.4937074 0.53363603 3.2729032 17.943304
1.7828493 0.60205805 3.3238204 15.675035
2.2152495 0.58245099 3.3451447 16.151321
2.6014128 0.58516437 3.4383574 15.18915
2.8911192 0.48198053 3.5122738 12.921666
3.2636232 0.65301418 3.4277539 11.59525
1.5442028 0.90676141 3.3876562 13.688028
1.8160852 0.96868175 3.3482015 19.607561
2.1941161 0.93363786 3.3972864 21.058315
2.598109 0.99018705 3.4264574 20.894026
2.8835766 0.98469985 3.5054398 19.959263
3.424233 1.126117 3.451726 17.097374
1.5680256 1.3858538 3.3733146 14.749333
1.7471054 1.359617 3.3534186 18.687365
2.3084986 1.4146137 3.3386834 13.086
2.7437625 1.287766 3.5566125 20.092501
2.8941071 1.2478939 3.5525539 23.08675
1.0465871 1.7430135 3.3495615 18.079
1.5790071 1.6425172 3.4676335 18.29175
1.821241 1.7719464 3.3703065 20.805248
2.0549736 1.8916044 3.3320534 17.084749
8.644104 1.9870729 3.4552944 12.0925
9.4274054 1.8931806 3.3207183 11.092751
-4.0374427 2.1088276 3.2846167 17.018
1.7594929 2.0595222 3.4122233 21.28455
2.2032664 2.3317366 3.2679937 20.419001
4.4698834 2.3545389 3.3879604 21.0935
5.6965752 2.3295186 3.4209516 17.093
6.703649 2.2027152 3.3656518 15.092999
7.1339502 2.1339211 3.271081 14.09325
7.200223 2.1012499 3.4928393 14.0925
-8.5527344 2.5024486 3.4832635 11.0245
-6.8352556 2.786356 3.3868902 14.02725
-6.1196742 2.7006574 3.3961186 15.014
-5.5081682 2.7451088 3.4795246 16.02425
-3.8666298 2.6601603 3.4550784 20.029167
-2.2385654 2.6322408 3.5492194 21.05925
-1.8356683 2.6773314 3.5656059 22.061251
-1.3325958 2.7292607 3.5987859 23.063999
-1.1037178 2.7447662 3.5781415 23.06525
0.95030075 2.7522662 3.586077 23.077999
1.4173844 2.7064245 3.5010896 22.880899
1.7945038 2.6360612 3.4207759 22.183201
2.083585 2.4964297 3.3311567 21.084873
4.0487351 2.4915619 3.4530344 22.84325
-8.7620888 2.9301124 3.2600939 12.0255
-8.1686735 2.948576 3.2632468 12.0265
-7.7681632 2.8669472 3.3425364 13.024
-7.3676271 2.9653049 3.4074559 13.422501
-7.0545969 2.9192402 3.3920491 14.0282
-6.469285 2.9078836 3.3947852 15.028875
-6.2329407 2.9415467 3.405951 15.2232
-5.7961888 2.8875272 3.377264 15.963813
-5.4178967 2.8826215 3.4455435 16.776291
-5.0328121 2.9232323 3.3797266 18.110252
-4.5744486 2.8973646 3.4015012 19.136667
-4.1998587 2.9018521 3.3976276 20.500525
-3.8081436 2.9017289 3.3941934 21.683733
-3.4493446 2.8873358 3.3967636 22.727186
-1.3387153 -0.10293735 3.786624 0.875
-1.02615 -0.087354757 3.7638507 1.3571428
-0.5912354 -0.13464345 3.8349199 1.3611112
-0.17800649 -0.13713229 3.8519166 1.6666666
0.29343218 -0.10991773 3.882093 3
0.54777557 -0.12425879 3.7811279 2
1.0461947 -0.12195579 3.7226703 2.1333334
1.4461367 -0.18043843 3.7376316 1.875
1.7455208 -0.19408599 3.874836 1.75
2.1351545 -0.2201001 3.8541064 1.25
2.9722619 -0.15187089 3.8073978 3.1785715
3.4739718 -0.10710725 3.9373469 3.5
3.9192805 -0.1301526 3.8808572 3.4000001
-6.1826825 0.091133356 3.7406979 2
-5.7617607 0.1894927 3.6816483 2
-5.2094994 0.10753067 3.8529572 2
-4.9650025 0.10159704 3.9153018 2.125
1.8549199 0.25235274 3.632704 10.211688
2.215539 0.31541902 3.6809635 9.7574997
2.6959951 0.22959556 3.683172 9.0888119
2.997366 0.24906644 3.7396252 9.3546028
3.2347522 0.39835617 3.7415605 11.0835
3.8295848 0.34406647 3.9204597 8.3520994
-5.7286091 0.45271897 3.7770867 3
-5.4849639 0.44003171 3.9399292 3.3333333
-3.2067113 0.63357979 3.6619365 8.0205002
-2.985256 0.65136594 3.9348252 8.0225
-0.51594239 0.51688421 3.7058315 22.4172
-0.31831238 0.45126605 3.8364501 22.284374
0.82253182 0.44624954 3.7535632 6
1.7808771 0.65126067 3.6517494 12.086
2.3390019 0.49903333 3.6239336 14.09525
2.6786776 0.63077962 3.6539531 14.608158
3.0130813 0.59093809 3.7138219 14.192716
3.359446 0.58022016 3.878993 12.086375
3.7721548 0.6408565 3.823396 11.545876
4.005939 0.61023462 3.943197 11.29325
-5.6338573 1.0003053 3.8344004 7.01475
-5.4350348 1.084892 3.8935902 7.6152
-4.7609811 1.1333125 3.99389 9.0165005
-2.2283924 1.0922556 3.7832961 14.0485
1.3969986 0.90036118 3.6932466 13.082251
1.8820232 0.96769333 3.65505 18.252832
2.1486173 0.9804166 3.6687062 21.202778
2.5715566 1.0577041 3.7663431 18.589874
2.9525561 1.0184715 3.7083437 19.90254
3.3993626 0.95743901 3.835824 15.821667
3.8682868 0.97188491 3.8620059 14.391666
-6.2557373 1.4949647 3.8749065 8.5349998
-5.6109409 1.5895481 3.9668694 10.0415
-5.4993134 1.5381738 3.8842039 10.03
-5.0657086 1.4580184 3.9330103 10.693
-2.9940071 1.3073728 3.899879 15.022
1.5106812 1.3979131 3.6927083 13.081
1.8124468 1.5217788 3.7045231 19.08625
2.388694 1.2117362 3.7070656 21.091
2.6575465 1.3356984 3.8521683 20.789402
2.9105864 1.3726228 3.6760619 21.27697
3.3773673 1.3612012 3.8125889 19.502888
3.8514504 1.3794664 3.8724387 18.572714
4.0720153 1.4114416 3.8376536 18.939571
-6.5848999 1.8615973 3.6363592 10.0395
-6.3048315 1.8502897 3.8127642 10.0285
-5.8215647 1.8228743 3.8269737 10.540751
-5.4674768 1.8160323 3.8394909 11.528749
-5.1536369 1.7379644 3.8721483 12.0215
1.8248891 1.7130159 3.6267054 21.4205
3.1275098 1.6599433 3.8472631 21.09025
3.4058666 1.7309215 3.8213468 22.339199
3.777822 1.708418 3.9259069 22.06275
4.0477142 1.7631555 3.9799161 22.081499
9.5745859 1.8659852 3.6270669 10.092
9.6551552 1.8405099 3.8363292 10.0915
11.117872 1.6992415 3.866658 9.0915003
11.205833 1.6941292 3.622813 9.092
-6.1825871 2.1533089 3.8566921 12.03425
-5.8190918 2.2921934 3.8627143 13.0295
-5.4147811 2.2203846 3.9284697 13.285625
-5.1234384 2.1661911 3.9471495 14.029
-3.4161258 2.3630641 3.9322689 20.026751
1.0324528 2.0588939 3.9336531 18.077999
1.2362908 2.3719296 3.6782668 20.0795
1.6991228 2.1380038 3.629117 20.083
4.3557162 2.328558 3.8934669 21.59325
4.5649529 2.3362079 3.8122962 21.09325
5.1139641 2.3791919 3.9886944 19.091999
5.5707431 2.2650759 3.8798807 17.091
5.6314397 2.2923017 3.7044821 17.091749
6.2927699 2.2303393 3.7882333 16.091499
6.4625154 2.2001774 3.7775316 15.091499
7.023406 2.0955148 3.7968423 14.091499
7.2892437 2.0782604 3.7252455 13.09175
-6.6123047 2.6290917 3.8106849 13.601286
-6.1317077 2.707139 3.886523 14.0405
-5.7068129 2.6963565 3.7693744 15.424601
-5.4605923 2.6096766 3.876899 15.310318
-5.1503396 2.6832941 3.877182 16.690001
-3.727598 2.7700267 3.7856591 21.068052
-3.5531929 2.7835834 3.9041183 21.7353
-2.4760041 2.6941485 3.7702487 22.05625
-2.1612842 2.6868122 3.8232539 21.808783
-1.8498694 2.7105789 3.7845638 22.060616
-1.3772593 2.7304189 3.6891158 22.420893
-0.87536746 2.7579403 3.7947087 22.816687
-0.75533247 2.7259302 3.8425934 22.400999
-0.15084049 2.6750174 3.9383836 22.071251
0.22468132 2.7231266 3.8375208 22.698437
0.58030355 2.654964 3.8631029 21.856501
1.0099546 2.6401589 3.8100834 21.946604
1.3594021 2.6457701 3.7708826 22.007467
1.6987188 2.5832183 3.7955739 22.082188
3.9642107 2.5242331 3.7499051 23.091499
4.1245065 2.427881 3.8011539 22.4245
-7.5159025 2.8302016 3.7067714 13.025
-6.9474654 2.8677306 3.7272561 14.0291
-6.5556803 2.8827906 3.7945967 14.527
-6.1855965 2.88428 3.7430136 15.030356
-5.81849 2.8871415 3.815984 15.91328
-5.316298 2.8833964 3.7616773 17.091532
-5.0454173 2.8836544 3.7914445 17.70953
-4.6254864 2.8739336 3.8038268 18.662001
-4.1818557 2.8494112 3.7510087 20.061857
-3.7366741 2.8329825 3.7692952 21.496847
-3.407176 2.886183 3.8119695 22.752836
-3.0120733 2.9311512 3.9133084 22.701666
-1.7924559 2.8039575 3.6518269 23.060249
-4.804842 -0.0028646588 4.1970034 1
-4.5628057 -0.071421288 4.340621 1
-4.1130261 -0.076903515 4.2931757 1
-1.6826166 -0.12943773 4.2520847 1.25
-1.4024576 -0.1115284 4.2503743 1.3333334
-1.0051194 -0.16722116 4.2514968 0.40000001
-0.58022547 -0.21310772 4.2593126 0.4375
-0.18404801 -0.2000531 4.2755466 0.63333333
0.13700649 -0.24005285 4.2011514 0
0.58789051 -0.18506382 4.1788487 1.4642857
1.0605891 -0.17255236 4.1276345 2.1111112
1.3415819 -0.17693038 4.141829 1.1666666
1.7994748 -0.19827457 4.1097374 0
2.1212077 -0.2400208 4.1249032 1
2.6636183 -0.27740464 4.2901549 1
2.9263036 -0.29122177 4.2217455 0.95833337
3.2418005 -0.25257832 4.2320299 2
4.238421 -0.19940597 4.1728544 3.25
-5.4876938 0.052212413 4.0710049 2
-5.1562724 0.080836907 4.2171259 2
-4.6604352 0.22111541 4.1342449 2.75
-4.2903523 0.29547113 4.2951918 3
-3.2217584 0.18282872 4.3065033 4
-2.968653 0.2259284 4.3774467 5
-2.1086493 0.30940944 4.2374611 6.5
0.0053728819 0.15316451 4.3047633 9.0155001
3.3011575 0.27243119 4.2258186 7.8683
4.3082933 0.29438129 4.1572242 8.1639004
-4.6016774 0.77203512 4.0978756 6
-4.3796735 0.41613716 4.3073759 4
-2.954634 0.62084907 4.3687596 8.6985006
-2.0833259 0.54057801 4.2370501 9.8836079
-1.9213519 0.64298326 4.3634319 11.694751
4.2376122 0.57149029 4.2009239 11.2045
-5.3914704 1.0369853 4.1786494 7.2665153
-4.9996891 1.0931458 4.1654134 8.1942501
-4.6127796 1.0610473 4.2428045 8.4180765
-4.2446251 1.0239224 4.343101 8.4747772
-3.8358393 0.98179054 4.3878498 9.5337505
-3.023495 0.96276683 4.349546 11.360166
-2.0571163 0.92139226 4.2667499 14.859917
-1.9129354 1.1046077 4.3497329 17.694416
3.255775 0.95740867 4.2473507 14.08725
3.950892 1.159008 4.0207915 17.080999
4.1428833 1.1111562 4.0465765 16.08075
-6.1984639 1.4893543 4.1042976 9.0290003
-5.6809378 1.3650866 4.0915146 8.0419998
-5.3694539 1.397221 4.1508937 9.1837854
-5.0226102 1.4069428 4.2058349 9.9438181
-4.6773653 1.4221603 4.2726283 10.571577
-4.1197729 1.4871368 4.3499231 11.819416
-2.7217193 1.571082 4.2451863 18.02475
-2.0598006 1.3966846 4.2577376 20.026249
-1.8938364 1.3541828 4.3607264 20.456358
3.1189997 1.3312744 4.1511292 18.087831
3.947155 1.4155453 4.1975207 19.579666
4.0939574 1.3867583 4.1660695 18.649918
11.732296 1.5801721 4.2586193 8.5907497
12.448031 1.5938501 4.1496038 8.0909996
-5.4038959 1.761104 4.1907616 11.200999
-5.01649 1.790098 4.1806645 12.246286
-4.533112 1.8079258 4.2776723 12.752608
-4.0207214 1.8274246 4.2450953 15.03075
-3.8575335 1.815706 4.3383074 15.525249
-2.6976116 1.7867919 4.2268252 19.899563
3.0173395 1.7298423 4.1309566 22.316124
3.4397974 1.8753443 4.1635427 22.089375
3.9361024 1.746542 4.1247754 22.264301
4.0185385 1.6487594 4.131846 21.040125
9.1794329 1.8877045 4.0164585 11.091
9.2474766 1.8638529 4.2333231 11.0905
9.9609995 1.7968118 4.260747 10.0905
10.634153 1.657236 4.3042717 9.0904999
-5.7088838 2.2165844 4.1947269 13.0295
-5.3140306 2.2875342 4.1810598 14.035643
-5.0509582 2.1632953 4.1991487 13.840722
-4.6005297 2.1742837 4.289083 14.964463
-4.2650952 2.1901662 4.1930146 15.700334
-3.7158816 2.2974524 4.2157135 19.0175
-3.5734591 2.050288 4.2421274 18.0285
4.2870979 2.35642 4.1885166 21.890125
4.5431623 2.3124089 4.2479963 21.243095
4.9802451 2.3203351 4.2781148 19.517466
5.4023504 2.2693357 4.2378883 18.089001
5.7424431 2.2044361 4.2228837 16.7575
6.2004747 2.2066453 4.1760764 15.8405
7.1708226 2.072022 4.1007795 14.0905
7.4903221 2.038147 4.1886044 13.09025
-5.6009297 2.441592 4.0622911 15.0265
-5.3622694 2.5765374 4.1462011 15.334801
-4.9824862 2.6342275 4.2267833 16.511749
-4.7131815 2.5565236 4.2603178 16.6364
-4.20228 2.7288191 4.2983961 18.5455
-3.7707565 2.77246 4.189817 20.7665
-3.4430785 2.7690539 4.2079768 21.657059
-2.9077179 2.7355204 4.2573481 20.803938
-2.6138518 2.6880393 4.2601695 21.505636
-2.1692126 2.6465273 4.165596 21.308897
-1.8324274 2.6496043 4.2010646 21.200001
-1.4125019 2.6666059 4.1609716 21.50811
-1.0356238 2.6709883 4.1694231 21.85537
-0.62673765 2.6500764 4.1593804 21.193438
-0.22734243 2.6676044 4.1404386 21.903959
0.19477649 2.617542 4.2119789 21.296965
0.57238889 2.6369197 4.18578 21.624327
1.0128034 2.6366029 4.2103105 22.009502
1.394025 2.6340096 4.276607 21.868206
1.7633936 2.5985155 4.2353978 21.394438
2.2040684 2.5280199 4.3553352 22.084499
2.4250486 2.6265807 4.2898254 23.087
3.003073 2.5433517 4.3488646 23.091749
3.96738 2.4153624 4.2984943 22.588749
4.1774163 2.4338574 4.3561573 23.088499
4.5217476 2.4636514 4.2689562 23.085251
-5.6920905 2.9014459 4.0046349 16.030001
-5.2843308 2.8718235 4.0560269 17.0266
-4.9867711 2.8644001 4.1857758 17.632032
-4.5443544 2.8508849 4.1562114 18.6565
-4.198667 2.8195031 4.2059855 19.535791
-3.8081503 2.8074243 4.244545 21.030001
-3.3951826 2.8364525 4.1975665 22.667442
-3.0422556 2.8766682 4.2229409 22.484592
-2.7799783 2.9525518 4.1799374 23.029999
4.8993549 -0.49234122 4.4618778 0
-4.4177413 -0.0097849742 4.4457502 2
-4.2756186 -0.018594831 4.5090914 2
-3.4410505 -0.040118556 4.6345439 1.5
-2.9016171 -0.097567976 4.7254958 1.3888888
-2.575526 -0.12059166 4.7378407 1.3333334
-2.100426 -0.1479729 4.6736894 0
-1.3348504 -0.12789194 4.5849009 1.5833334
-0.96255207 -0.1730504 4.6517205 1.5648149
-0.62341923 -0.1338575 4.5849237 1.5833334
-0.2406182 -0.20743476 4.6168699 1
0.14147319 -0.19825077 4.5899787 1.8333334
0.62387002 -0.22889066 4.617836 1.3333334
1.0772386 -0.25180119 4.5808225 1.6666666
1.4107853 -0.23599425 4.5897169 1.4333333
1.8308758 -0.23397532 4.6235008 1.4
2.2120252 -0.27116409 4.6041002 1
2.5881577 -0.28545645 4.5885386 0.8611111
3.29567 -0.34324443 4.7746162 0.75
4.2262411 -0.051878147 4.4442272 5
-4.0995402 0.20690036 4.5426254 2.875
-3.7613592 0.23158601 4.5749936 3.2555554
-3.4373252 0.1564979 4.7639327 2.6785715
-3.0249698 0.1805919 4.6467991 3.4444447
-2.5781264 0.13847585 4.711628 3.6842594
-2.3337567 0.047951445 4.7301931 2
-1.7767522 0.16353163 4.5103951 5.5
-1.4352257 0.28305274 4.7187719 7.5024791
4.2507548 0.071790919 4.4662189 6
-4.0049481 0.73529434 4.4048567 6.5
-3.8022397 0.74757701 4.5337701 7.5720558
-3.4905283 0.63585579 4.6577687 6.5116668
-2.9255705 0.66633165 4.5901113 8.1053915
-2.6468437 0.63045532 4.6410441 8.6889992
-2.2670929 0.68813527 4.7123313 8.9489222
-1.7622377 0.61852056 4.5895166 11.749981
-1.4514352 0.54862976 4.7184939 11.287154
-4.6429644 1.0325774 4.4631529 8.3001661
-4.1708646 1.0314891 4.5532684 8.7976818
-3.7946172 1.0010905 4.5663991 9.0217104
-3.4352245 1.0334169 4.6528807 9.3554344
-2.9737623 0.97568375 4.639235 10.067348
-2.6267958 0.96921992 4.6933165 11.077667
-2.2767565 1.0324447 4.6869383 11.797135
-1.7649817 0.98015296 4.6140785 16.414055
-1.3963377 1.0322576 4.7189608 18.349577
17.506092 1.0642195 4.72118 6
-4.9346542 1.453758 4.4466228 10.647875
-4.5648274 1.4381266 4.5229578 10.67995
-4.175189 1.3428258 4.5293016 10.903517
-3.8096955 1.395955 4.5770693 11.713613
-3.4691138 1.4241858 4.645472 11.988261
-3.0042982 1.3734612 4.6706023 12.475484
-2.6042187 1.3815931 4.6903629 14.790615
-2.2295198 1.4505839 4.7253323 16.317804
-1.7113713 1.3327557 4.5014758 21.069021
-1.4330338 1.2817311 4.6767836 21.667793
4.1402159 1.2669148 4.4315891 17.077999
-4.8599024 1.838577 4.4691992 12.041124
-4.4719162 1.8800443 4.4918976 13.702084
-4.1815052 1.7989935 4.5498128 13.079116
-3.7649322 1.816075 4.5858321 14.292874
-3.3964674 1.836038 4.6730084 15.385539
-3.0360646 1.8242319 4.6896372 14.482919
-2.6002011 1.7604957 4.6822147 17.241568
-2.2192109 1.825073 4.7118115 20.163902
-1.9317702 1.7436352 4.7664037 20.349667
5.2237864 1.8417035 4.5828128 18.077999
7.7519717 1.9952972 4.7989817 13.0885
9.4109402 1.8509457 4.5218511 11.08975
10.091892 1.7263157 4.7101488 10.0895
10.720579 1.6826853 4.6650167 9.0897503
-5.0403705 2.1966727 4.4553123 14.368833
-4.4888444 2.1670196 4.6070061 15.2025
-4.1536746 2.1679406 4.5253119 15.371208
-3.758616 2.1421645 4.5903463 16.122923
-3.4252851 2.1413219 4.6963506 16.32266
-2.9941754 2.2465584 4.7243896 17.891399
-2.6271474 2.1755505 4.7266145 19.875916
-2.2157493 2.132854 4.6193833 22.226101
-1.8675244 2.1112268 4.6882467 22.6052
3.502676 2.3837209 4.6722269 21.489698
3.8434999 2.3581932 4.630796 21.800283
4.208447 2.3541372 4.6584268 21.587393
4.5414715 2.2907734 4.5736022 20.940191
5.041966 2.3054714 4.6463418 19.88549
5.4222007 2.238029 4.6019931 18.088802
5.8001513 2.1863031 4.6505446 17.443356
6.1412044 2.1731236 4.5956473 16.089142
6.5378261 2.1508029 4.7385325 15.425
7.0797977 2.0206852 4.7270188 14.092751
7.5415883 2.0066569 4.4364395 13.0895
7.6708674 2.0031693 4.6180716 13.089
-4.8609982 2.5587127 4.4929938 16.207167
-4.6257172 2.5596561 4.4930472 16.91
-4.1884189 2.7168305 4.5728645 18.293751
-3.7669322 2.7148182 4.5837011 19.321753
-3.3779972 2.6935184 4.6169653 20.855154
-2.9853134 2.6355648 4.6700592 20.443222
-2.5948648 2.6484447 4.6346836 19.990782
-2.2341635 2.7060981 4.5751767 21.254416
-1.7972765 2.6667175 4.6490059 20.824657
-1.4343973 2.6582255 4.6295085 21.3965
-1.0123485 2.6098886 4.5787964 20.566284
-0.5475933 2.5957143 4.7104797 19.735666
-0.17886643 2.6308632 4.5997868 20.944824
0.17412201 2.5988822 4.5918889 20.845388
0.61272508 2.6069367 4.5863576 21.200178
0.94754148 2.6153796 4.569603 21.230846
1.452704 2.6118703 4.6479583 21.784439
1.79951 2.5901489 4.6408362 21.28652
2.2147818 2.5583544 4.6452613 21.074291
2.6083922 2.5375159 4.6684265 21.086611
3.031378 2.4779074 4.6316934 22.629751
3.4241192 2.4413903 4.5929303 22.588213
3.7740047 2.4578011 4.5657701 23.086849
4.1134176 2.4317572 4.602253 22.712969
-7.832829 2.9989984 4.7542 13.023
-5.6576214 2.9651017 4.5299492 16.5235
-5.4636469 2.992594 4.5582833 17.0165
-4.8535142 2.8348064 4.4612966 18.030001
-4.6402988 2.8662541 4.5687475 18.534416
-3.9758711 2.8125768 4.6643057 19.04825
-3.2976243 2.806699 4.4866934 22.032
-3.1005304 2.8294902 4.5733743 22.640375
-2.6201136 2.8334465 4.5772424 22.871319
-2.2233493 2.8389156 4.6498652 23.056002
3.5106966 -0.48834699 4.8687105 1
3.8401999 -0.48742071 5.017261 1
5.5223508 -0.48343444 5.1820307 0
5.8901801 -0.55588925 4.9907069 0
-3.1082187 -0.081041738 4.8322048 1.5
-2.6387749 -0.17133716 4.9119883 1.2
-2.1726053 -0.12469693 4.9502554 1.6066666
-1.8135846 -0.08944612 5.0535917 1.625
-1.460481 -0.1375372 5.087491 1.28
-1.0466125 -0.1456261 5.058001 1.7142857
-0.58514065 -0.20166631 4.9567699 1.6303031
-0.18625773 -0.25596744 5.051661 0.98809522
0.25953516 -0.22011942 4.9779024 1.8981481
0.60151625 -0.22957838 4.9159226 1.6666666
1.002422 -0.20700888 4.9963722 1.6666666
