# .PCD v0.7 - Point Cloud Data file format
VERSION 0.7
FIELDS x y z intensity
SIZE 4 4 4 4
TYPE F F F F
COUNT 1 1 1 1
WIDTH 464
HEIGHT 1
VIEWPOINT 0 0 0 1 0 0 0
POINTS 464
DATA ascii
5.7512903 2.1340353 -10.617164 4
7.1753445 2.6148686 -9.6321468 4
7.1902699 2.8465536 -9.5758257 5
-2.2136664 0.051029131 -3.913244 3
-1.9532704 0.053183373 -3.9472268 2.5
-2.2467484 0.26913399 -3.9104424 4.5
-1.9243352 0.28174615 -3.9322348 4.5
-2.2454851 0.55733705 -3.9040163 6
-1.9109761 0.54507291 -3.9526794 6
-2.2715914 0.69387484 -3.9004598 7.5
-1.9455707 0.68833995 -3.9441979 7.5
-2.2588103 0.91794306 -3.9200156 9
-2.0062959 0.86091107 -3.9450467 9
-2.275398 1.1086466 -3.922375 10
-2.1429937 1.1057662 -3.936707 10.5
-2.2136359 1.9630607 -3.9129479 16
-2.2097025 2.1633196 -3.8896134 17
-2.2361133 2.2796063 -3.8996999 18
-1.9482273 0.096155524 -1.4828869 4
-1.2644238 0.18790162 -1.4079578 5.5
-1.9383315 0.38756311 -1.4627652 8
-1.9310783 0.54485977 -1.4522389 9.5
1.0058739 0.58427715 -1.5485477 5
0.87728 1.1084563 -1.4941852 14
-1.8100944 -0.015088102 -1.2864628 4
-1.2219968 0.042322949 -1.3828969 4
-1.8425492 0.30113417 -1.2952471 9.083333
-1.2981415 0.25173455 -1.3558969 6.5
-1.183852 0.37348974 -1.3968234 8
-1.1613743 0.40263683 -1.3683438 9
-1.9252518 0.60624719 -1.3611102 11
1.0205313 0.69315648 -1.286678 7.5
0.97080165 0.8925947 -1.2929294 11
-1.4812299 -0.21379288 -1.1769543 5
-1.5330234 -0.089320801 -1.1853447 7.5
-1.465888 0.11953332 -1.0522041 6
-1.793237 0.22611032 -1.0235341 7.6666665
-1.8393167 0.50238901 -1.0374879 10
-1.4976941 0.4680666 -1.10615 10.5
1.1131706 0.52284634 -1.1427488 5.75
1.2152807 0.44422677 -1.0779355 6
-1.8629832 0.86016256 -1.0994503 15
0.989308 0.97500259 -1.0239297 13
1.1088443 0.87846625 -1.0162437 13
0.95949614 1.0734113 -1.017309 15
1.2447248 1.0360228 -1.0737395 15
-1.4540119 -0.070482336 -0.84702122 8.5
-1.6530634 0.52293336 -0.91466296 12.75
1.0715748 0.52128625 -0.90533465 5
-1.583703 0.60610068 -0.87706548 13
0.99737 0.75656015 -0.85286659 10
1.0298851 0.67605025 -0.91720712 8
1.284718 0.96196097 -0.86664683 15
0.92674828 1.2205871 -0.92314172 18
-1.4321731 -0.11574974 -0.64695561 7.1666665
-1.7387183 0.085030079 -0.64898288 4
0.88316077 0.12462099 -0.67656887 6.5
-1.7561144 0.2771858 -0.66613549 8.666667
-1.5454082 0.36611053 -0.63613403 13
-1.7237103 0.49138632 -0.73035359 12.5
-1.5544262 0.48966652 -0.66307044 15.5
1.0893365 0.51253194 -0.68616241 5
-1.780534 0.70740908 -0.77854091 13.5
-1.7852461 0.91140938 -0.67111045 17
1.1041495 0.85760468 -0.74268651 14
1.3009875 0.9347564 -0.73147404 14.833334
-1.7410932 1.0123268 -0.63145006 19
0.93287861 1.2948198 -0.76210093 19
-1.3600622 -0.26135355 -0.56197941 4
-1.6944818 -0.0077351704 -0.56304789 4
-1.4281528 -0.0087858289 -0.53329057 11
-1.920485 0.17053367 -0.45649344 8
-1.751627 0.15071568 -0.53882104 5
-1.4490575 0.014047848 -0.46708328 12
0.90906751 0.078551948 -0.50293785 4.8333335
-1.8765645 0.3802214 -0.45346758 11
-1.7350897 0.27675182 -0.54708862 7
-1.5135056 0.23127417 -0.48570111 11.5
0.9654929 0.26564956 -0.4620806 8
-1.8550389 0.51942074 -0.59004921 12
-1.7576711 0.52636057 -0.55118668 11.5
-1.5453593 0.57215983 -0.53222919 17
0.93732321 0.44859761 -0.48985383 13
1.1280109 0.4662987 -0.52791888 6
-1.7307023 0.71768188 -0.48990345 15
-1.580128 0.61063898 -0.43280676 18
1.0734859 0.79887861 -0.40343285 11
-1.7289097 0.85301554 -0.40727413 17.5
1.0342028 0.92105603 -0.477359 13.35
-1.4221318 -0.24385522 -0.39589253 3.5
-1.3390113 -0.22094437 -0.2037145 5.5
-1.9556162 -0.12791967 -0.38032275 4
-2.0215011 0.095914662 -0.35202092 6.5
-1.6898729 0.075103618 -0.3197743 7.0416665
-1.4920156 0.19232039 -0.35686091 11
0.95149815 0.12528354 -0.31128868 6.5
-2.1555715 0.32187319 -0.22085801 10.25
0.9429667 0.34155238 -0.30718154 13.5
1.1464421 0.29700977 -0.26829186 4.5
-2.0919294 0.53434837 -0.29803047 12.5
-1.8598686 0.53277057 -0.27933502 13.75
-1.7165912 0.54111731 -0.28829908 12.5
-1.5994998 0.59887773 -0.2074931 19
0.96478587 0.49727291 -0.31305987 14.333334
-2.229461 0.6945889 -0.21682674 15
-1.7119267 0.91426408 -0.32644537 18.5
-1.3626728 -0.068694413 -0.0049632788 10
-1.7733965 0.1544854 -0.19714192 7.5
-1.4431063 0.055789188 -0.098864838 9
-1.5315508 0.37522754 -0.16654959 15.5
0.98366475 0.29666984 -0.13080032 10.35
-1.8242687 0.46733308 -0.070964433 12.833333
0.98231316 0.52185929 -0.031102423 18.5
1.1473161 0.55560189 -0.18423975 6
1.2823361 0.59329659 -0.052809149 5.5
-2.3160701 0.77971083 -0.099266648 15.75
-1.6721752 0.67946541 -0.091525376 14
0.98160821 0.60753 -0.043441076 21
1.1205053 0.72960371 -0.16830423 9.5
1.2534487 0.72926241 -0.053552836 8.5
-1.6778592 0.91925496 -0.15601487 19
1.0979844 0.88758928 -0.12834474 12.5
1.307182 0.85850048 -0.055187792 13
-1.7009367 1.0517116 -0.059202012 20.5
-2.3310966 -0.2089687 0.099524677 4
-1.4039235 -0.2740978 0.10329044 3
-1.2786949 -0.2467393 0.12570012 4.5
-2.3563571 -0.075772211 0.11315709 5.5
-1.6950126 0.018677585 0.083940648 3.5
1.008937 0.093944542 0.14386378 5.5
-1.705389 0.26590678 0.032581277 8.375
0.98626858 0.28967232 0.033392604 12
1.0711608 0.30607548 0.076642588 8.3000002
-1.6067737 0.52168536 0.10145843 18
0.99574816 0.58921236 0.0032241088 20
1.0597334 0.50204217 0.16627961 14.333334
1.3260664 0.50115591 0.00038328767 3.5
-1.7923701 0.66921467 0.19697818 16
0.98824567 0.61825043 0.07911063 20.5
1.078832 0.65367508 0.085430056 14.5
1.2035174 0.9560011 0.028896928 12.5
-1.6616 1.0222503 0.19487269 20
-1.6972132 -0.014954245 0.38717684 4
-1.4484591 -0.071937591 0.30680725 7.25
-1.3245324 -0.084819265 0.20611557 9
-1.492849 0.13085738 0.2146779 11
-1.3666067 0.10319135 0.33237496 14.166667
-1.7512726 0.32063019 0.32799956 9.5
-1.5798925 0.28194892 0.30748385 11.25
1.0804538 0.25417548 0.25488439 7
-1.6200128 0.51174688 0.30530956 15.25
1.0585957 0.49047413 0.25081146 14.083334
-2.6519473 0.61667943 0.39855856 13
0.99975884 0.66285253 0.20912679 21
1.0824593 0.6640017 0.31821829 15.5
1.3313481 0.77771562 0.27868414 8
-1.6453482 0.98476088 0.29818478 20
1.2677027 0.94045371 0.24258217 12
-1.6461884 1.0814047 0.3013339 21.5
1.1877996 1.1161777 0.20786551 15
1.1453027 1.2720703 0.31071526 17.5
-1.2304465 -0.23081085 0.46852097 4.5
-1.4034864 -0.19877952 0.40305796 4.5
-1.3125597 -0.025540402 0.41019785 10.5
-1.7020955 0.19626346 0.46651152 7.5
-1.5854896 0.09365581 0.49418095 4
-1.252304 0.13388249 0.58705503 10
1.0710335 0.12977673 0.58380324 6
-1.6536816 0.34295678 0.43236321 9.75
-1.5556647 0.28489065 0.49766189 14.25
1.0557499 0.2168923 0.57469648 8
-1.6058421 0.48660883 0.55382496 12
1.0834761 0.55671018 0.59590733 12
1.4116918 0.47144163 0.40881193 3
-2.6521795 0.74402654 0.41433465 14.5
-1.7222836 0.6582731 0.498523 15.166666
-2.7034595 0.82390058 0.59375882 16
-1.5916393 0.82866371 0.47477192 18
1.2853312 0.93705869 0.45118588 11.5
-1.6453434 1.1109111 0.41167408 21
1.1873114 1.1362339 0.4084264 15
-1.4198742 -0.25326374 0.66501856 3
-1.6420867 -0.050814651 0.73678243 3
-1.5173763 0.054156523 0.75529957 6.5
-1.3199457 0.15898412 0.74824375 14
1.0601723 0.13943237 0.6712718 6
-1.6235864 0.35051706 0.79954755 9.5
-1.5618559 0.30441058 0.69419616 13
-1.5697275 0.5770129 0.74010336 13
1.4309901 0.50807035 0.69403493 3.5
-2.7835593 0.68079913 0.60680938 14
-1.5751427 0.66579217 0.7134943 14.5
-1.5841681 0.97260457 0.71377748 19
1.2311419 1.1562824 0.63292497 14
1.1710893 1.2762072 0.69762045 16.333334
-1.4683045 -0.058784485 0.9644872 7
-1.6183193 0.011933515 0.82340884 4.3333335
-1.556281 0.18949175 0.94181699 6
-1.6031685 0.28819054 0.95191121 9
-1.5926294 0.23922816 0.9695009 8
-1.1236566 0.21119505 0.92212862 12.5
-2.9507186 0.49125236 0.87563515 12
-2.105171 0.52553725 0.99538666 12
-1.6024566 0.4190219 0.95737016 10.5
-1.554161 0.55645591 0.97241998 12.5
1.112166 0.54793972 0.91591519 14
1.3355268 0.57541215 0.82343268 4.5
-2.942457 0.65913868 0.87090933 13.5
-1.6534892 0.69610834 0.85830909 16.944445
-1.5995295 0.612055 0.96005869 13.5
1.3103642 0.71027827 0.94808465 7.166667
-2.873462 0.82909334 0.85678333 15
-1.5522947 0.89199102 0.97202712 17.5
1.2514372 0.86890423 0.92385256 9.666666
1.1839583 1.1263609 0.83932269 14
1.1355729 1.3023334 0.82605886 17
-1.5126641 -0.093806885 1.0675912 6.583333
-1.4918911 0.074343525 1.0634259 4.25
-1.5331073 0.3308413 1.0185268 8
-1.3129835 0.24592453 1.1742259 14
1.1672432 0.31598157 1.1708508 6
-3.1409342 0.59468853 1.0809356 12.5
-1.5096108 0.55245346 1.0695909 12
-3.1480787 0.79306555 1.0662181 14
-1.6804521 0.71307302 1.1318421 20
-1.5401665 0.73139095 1.0644754 14.5
1.1764506 0.75729084 1.171105 16.5
-1.5214094 0.88653231 1.073084 17
-1.5299913 1.0512815 1.0346409 19.5
-1.5099046 0.014311422 1.2935061 3
-1.4910562 0.30350432 1.2536442 7
-1.3246377 0.32392985 1.2904696 14.5
-1.3716851 0.49707624 1.3479123 17
1.1744064 0.56215024 1.2076746 13
1.2054142 0.53603971 1.222505 12
-1.667833 0.71051109 1.2994153 19.666666
-1.5029297 0.72866166 1.3081257 14
1.1838104 0.6635294 1.2372928 14.5
1.3673195 0.72459757 1.2224917 7
-1.5075375 0.93458694 1.3150382 16.5
1.1961489 0.96468574 1.3928821 18.5
1.3260343 0.9077791 1.2532367 9
-1.5006175 1.0213453 1.3475665 18
1.224023 1.2836525 1.3076628 14
-1.4982111 -0.26460791 1.4151725 3
-1.5430017 -0.07197348 1.5169041 6.5
-1.1563127 -0.088941857 1.498889 6.5
-1.5472293 0.15051869 1.4717921 8.666667
-1.6131617 0.36972314 1.4888129 14
-1.4480891 0.2888352 1.4907371 7
-1.2773219 0.29580796 1.5070126 13
-1.6339788 0.48160744 1.5043159 16
-1.4495639 0.50114435 1.4937463 10
-1.3337437 0.52764529 1.5265456 16.5
1.4316268 0.59927493 1.4850143 5
-1.4485202 0.63611412 1.4480559 12
1.3944293 0.75137848 1.5328732 7
1.3311777 0.97622979 1.4856596 10
-1.4609321 1.1613849 1.5984702 19
-1.4957378 -0.27535236 1.7179834 3
-1.5265247 -0.063071407 1.6791888 7
-1.5759749 0.18443942 1.7540336 10.5
-1.2830993 0.42590556 1.6321653 14.5
1.2384366 0.52298272 1.6138818 10.5
1.4546269 0.68336391 1.6586146 6
1.3886847 0.90393227 1.6745756 8
1.4075342 0.93238342 1.78184 9
-1.4820027 1.1026146 1.6163511 17.5
1.3666151 1.0552413 1.7840954 10
1.2426884 1.3982099 1.7249712 14
1.2136197 1.4934921 1.6974165 15.5
-1.6220741 0.18329434 1.9855942 10
-1.3501515 0.15855032 1.950837 5.5
-0.47046119 0.098435983 1.821671 5.75
-1.4097594 0.25279009 1.990472 6
-1.4215841 0.51392967 1.9600517 9
-1.4318726 0.76658183 1.9064817 13
-0.59605908 0.66105318 1.9932739 14
1.4604683 0.73723614 1.8892065 6
-1.4337627 0.89651287 1.8505464 14.5
-1.4308655 1.1196051 1.8340024 17
-1.3966873 1.0245931 1.9979577 15
-1.4342343 1.2018445 1.8300829 18
-1.5676901 -0.080253437 2.0490777 6.5
-1.5974976 0.12180188 2.0872333 9
-1.3646033 0.16738334 2.1696727 5
-1.6146524 0.28811193 2.0583682 11.5
-1.3744298 0.34265226 2.1397321 6.5
-1.4071195 0.6877293 2.0295775 11.5
-1.4151124 0.86567104 2.0252025 13.5
-1.5872335 0.082303144 2.3505802 8
-0.4605366 0.078328609 2.2905231 4.875
-0.40347111 0.26140815 2.3572478 7
-1.3811921 0.48614892 2.2309988 8.5
-1.3747554 0.67800814 2.2207172 11
-0.89526302 0.97233653 2.2748544 18
-0.334427 0.86780751 2.311105 16
-0.6567747 0.72320658 2.5863192 13.5
-1.3522955 0.92637324 2.5548215 12.5
-0.6778782 0.86939746 2.5776281 15.5
-1.3415349 1.0271193 2.5295105 14
-1.6119545 0.1126418 2.6254013 8
-0.060553193 0.18167411 2.6639159 5
-0.085969448 0.30133811 2.6495092 7
-0.53644174 0.59352684 2.7131166 12
0.015167654 0.51711297 2.7977872 9.5
-0.20371491 0.69738698 2.6226931 12.5
-0.0981232 0.76092172 2.7536156 13.166667
-0.21209276 0.87039745 2.633172 14.5
0.38448426 0.17729835 2.910681 4
-1.2622496 0.96619511 2.8489716 12.5
-0.45181179 0.92100024 2.8574016 15.5
0.11378723 0.98160434 2.8639498 15.5
-1.2641026 1.1209643 2.801224 14
0.71995944 0.1169062 3.1371696 3
0.51355946 0.28822929 3.0375919 5.25
0.70161015 0.34653184 3.1647038 5.5
1.5767527 0.36610135 3.1791146 4
0.3719371 0.51911199 3.0288374 8.5
-0.28671581 0.79940277 3.1213632 13
0.33526927 0.68283093 3.0591981 10
0.58352995 0.60197687 3.1795921 8.5
1.4441991 0.70107031 3.073421 9
-0.30860141 0.92188138 3.1046124 14.25
0.23529881 0.94815648 3.103786 14
1.4520528 0.81961238 3.0792177 10
-4.709981 1.0935912 3.1482513 13.5
-0.32785863 1.0460675 3.0815299 16
1.4698648 1.0910069 3.0776422 12.5
1.4629629 1.2961947 3.0934079 14
1.6462302 0.4539735 3.2218974 5
0.86916184 0.68242359 3.4089615 8
-0.062136292 1.0965769 3.49335 15
4.4725075 2.7165034 3.543138 12.5
4.2739849 3.0044193 3.4517653 14
1.0586623 0.2732785 3.6629105 4
1.2244787 0.30534548 3.6286364 3
2.0345528 0.40177414 3.6155462 3
0.98041588 0.66498041 3.6430597 7.5
1.313303 0.68667471 3.6806769 7.5
1.8362753 0.60282284 3.6313736 5
3.1658363 0.7455492 3.6682212 4
3.206871 0.64057213 3.6868107 3
1.7479582 0.82066649 3.6666286 7
2.4471807 0.97578359 3.6572945 7
4.2102642 0.8051694 3.7070518 3
1.5742083 1.1150069 3.6584756 10
1.8616462 1.1980264 3.6832743 9.5
2.2689013 1.0844662 3.685288 8.25
4.1733146 1.0811049 3.7173381 4
0.86049736 1.2733079 3.6676469 13
1.2585832 1.387136 3.6692843 13
1.6217039 1.2226351 3.66749 11
1.8430904 1.3731629 3.6761506 11.5
3.2424948 1.2960361 3.7071402 7
4.1536708 1.2459167 3.7390883 5
0.81736684 1.5130837 3.6877387 15.25
1.1780282 1.5546845 3.7069664 14.5
1.5620296 1.4052145 3.6918027 12
1.6536961 1.5427278 3.710279 13
2.341063 1.481959 3.7139912 10.75
2.9494586 1.4062976 3.7296402 8.5
3.3138621 1.4710797 3.7337828 8.5
0.77713484 1.7983267 3.6964641 17.5
1.0058628 1.7083848 3.6978288 16
1.4472361 1.6407684 3.7385097 14
1.6626863 1.7113514 3.7136571 14.5
2.3358483 1.6787261 3.7212107 12
2.8121293 1.7788118 3.7579918 11.5
0.9934265 1.8819197 3.6931365 18
1.3102057 1.8902414 3.7139568 16.5
1.5661101 1.8970197 3.7107272 16
2.3982852 1.9926738 3.7703989 14
2.7505565 1.9074878 3.7301784 13
1.4372854 2.1862099 3.7509525 18
2.4078877 2.1596408 3.7621136 15
2.6788905 2.1168344 3.7543402 14
1.8746564 2.2829459 3.7798557 17.5
2.1355433 2.2709699 3.7963781 17
2.3855019 2.2920687 3.7787905 16
2.1038058 2.4774148 3.7752109 18
3.8970814 2.7226188 3.7695372 14
-1.1424357 0.91272414 3.8525658 12
-1.2001008 1.0997896 3.8696327 14
0.23918647 1.1175677 3.8975048 13.25
-1.2834491 1.323179 3.8667412 15.5
-1.285419 1.5421231 3.9172583 17
1.936187 2.518944 3.8001673 19
2.50951 2.5192459 3.802947 17
3.4774632 2.532994 3.8429687 14
2.3790498 2.6787779 3.8019729 18
3.3910608 2.7268345 3.8207622 15.5
3.7764671 2.6078749 3.923413 13
4.5405707 2.8170562 3.8954136 13
0.13074476 2.2254868 4.0700388 18
3.7098093 2.4157939 4.1706076 12
3.8972461 2.4539917 4.048027 12
3.5868576 2.6951828 4.0684824 14
3.6080456 2.6047356 4.0384784 13
3.8587537 2.7577581 4.1976662 14
3.789165 2.955189 4.1727176 15
2.3974771 1.1074911 4.3639355 7
2.0815482 0.98968315 4.4392385 7
2.2897434 0.94821537 4.4921336 6
2.4680727 0.96618831 4.4318209 6
2.1442344 1.1944417 4.4704266 8
2.2695146 1.25151 4.4678526 8
3.1429369 2.595669 4.5993233 14
3.6707106 2.4410515 4.5895886 12
3.5345781 2.6724992 4.5184498 13.5
3.2262294 2.8032062 4.500236 15
2.8509099 0.65285492 4.7386203 5.5
2.8538675 0.92256033 4.7465777 7
3.4736695 2.3825634 4.7173195 12
3.1766806 2.4595554 4.6801095 13
1.6530347 0.99114949 4.9479356 8
1.7759192 1.1790569 4.930583 9
1.8323705 1.0549597 4.9282541 8
2.223537 1.1914958 4.8516269 8
2.2065001 1.347912 4.863049 9
2.5106394 1.2726164 4.8643227 9
1.7072994 1.501322 4.9758754 10.5
2.2079201 1.5626442 4.8810978 10
2.4041531 1.410997 4.8595524 10
1.6856806 1.6915845 4.9530029 12
2.3573945 1.7369429 4.8786554 11
0.91208124 0.94747382 5.5945392 7.5
0.85296333 1.2228056 5.6001954 9
1.3868204 1.2563647 5.651897 8.5
1.3268321 1.6241437 5.6486769 10
1.5123928 1.615293 5.6600599 10
-0.81392711 0.15641777 6.0337038 3
-0.8188507 0.22165364 6.0256934 4
-0.82186598 0.6239019 6.0726223 6
-0.84557188 0.92718756 6.0574594 7
-0.80721235 1.1140575 6.0878839 8.5
-0.8126682 1.4705473 6.0821104 10
-1.9903398 1.3915215 6.5586667 12
2.768765 0.61628425 7.5139432 1
3.0752616 0.79258573 7.5279274 3
2.8172584 1.1057582 7.5549808 4
2.8617177 1.4890025 7.5797381 6
2.4595289 0.50770569 7.6435261 1
2.3303237 0.65454793 7.6975365 3
2.27036 0.80331314 7.7032709 4
2.2151999 1.0207143 7.7130952 5
2.894464 1.219396 7.6101956 5
2.2046266 1.430027 7.7228899 6
2.4842172 1.4598761 7.7028794 6
1.970472 1.881978 7.7541699 8
2.5895219 1.9935586 7.6688242 8
1.7274553 2.3776798 7.7288074 10
2.2621837 2.3027208 7.7882109 9
2.1566019 2.4189918 7.7351308 10
2.4437647 2.4198079 7.7128925 9.5
1.8993343 2.1184394 7.8675146 9
2.4476862 0.17601269 9.9384384 3
2.5894301 0.35815966 9.9567232 4
2.6887519 0.2234095 9.8950176 3
2.4593265 0.94499743 9.9988441 5
2.7060828 0.91119117 9.9097433 5
2.7031465 1.0147908 9.9147387 6
2.7170753 1.3406425 9.9684677 7
2.6412101 1.812762 10.004455 8
