# .PCD v0.7 - Point Cloud Data file format
VERSION 0.7
FIELDS x y z intensity
SIZE 4 4 4 4
TYPE F F F F
COUNT 1 1 1 1
WIDTH 1162
HEIGHT 1
VIEWPOINT 0 0 0 1 0 0 0
POINTS 1162
DATA ascii
5.2799754 3.6018999 -7.350667 10.121
5.8001361 3.669004 -7.2045088 10.11975
6.9287715 3.7760289 -7.4926815 9.118
7.2599573 3.8541827 -7.5416479 9.1175003
7.8636971 3.8876071 -7.360549 8.11625
8.3915787 3.9681888 -7.3757248 8.1155005
8.6089373 3.9739726 -7.2869492 8.1149998
9.4236155 4.1017203 -7.3489122 8.1140003
6.0996284 3.7057853 -7.1103458 10.119
6.9486785 3.7937708 -6.682004 9.1167498
7.2942357 3.8505642 -6.5814562 9.1160002
0.74521387 4.0492005 -6.0377769 18.132
1.1315843 3.5749187 -5.852314 16.131001
1.2608587 3.538801 -5.8074436 16.130501
4.5987782 3.4642496 -5.8311005 12.120501
5.0997548 3.5216758 -5.6924963 11.119
1.1859118 3.8963304 -5.7562714 18.130501
2.6845942 3.1578312 -5.5412569 13.62575
3.024785 3.1874886 -5.4665604 13.1245
2.9160376 3.2007639 -5.5451441 13.125
3.4900775 3.2590878 -5.4424782 13.123
4.7879043 3.4587286 -5.2352324 12.119
1.7126905 3.6164002 -5.2327671 17.1285
6.1083984 3.6510468 -5.5603056 11.1165
6.6476254 3.7266047 -5.4572506 10.11525
-2.4355092 0.78994191 -4.869112 10.011
-2.27878 0.59823072 -4.9430337 9.0105
-2.7413774 1.7286999 -4.879528 16.011
-2.3978791 2.0704782 -4.8342738 17.509251
2.3808703 3.130904 -4.8570194 15.126
3.0146651 3.1732206 -5.0750179 14.124
1.5652305 3.577863 -5.1191702 18.129
3.3452063 3.3523903 -4.9319901 14.622625
3.7228661 3.3029585 -4.8090353 14.12125
4.6063108 3.4703774 -4.9867992 13.119
4.9529052 3.4745092 -5.0815258 12.11825
-2.6178832 1.9618391 -4.5619392 18.01075
-2.5229068 2.0344121 -4.7428455 18.01
0.79363072 2.7123351 -4.5318427 18.133499
1.5681986 2.5004325 -4.4064789 14.12925
2.6001201 3.1143622 -4.6892033 15.125
3.0181184 3.1706426 -4.4477253 15.123
3.4230046 3.421319 -4.7164955 15.122
3.8864293 3.3017774 -4.4202023 14.12
5.5179186 3.6084652 -4.780549 12.11625
-2.9894798 1.9653172 -4.0034728 18.009001
1.8114789 1.809734 -4.1867437 10.1285
2.02633 1.9282293 -4.2158766 11.1275
-2.1215718 2.150805 -4.1670008 19.508875
-1.8730142 2.2085791 -4.0398173 20.4077
1.5283478 2.1533329 -4.1197653 13.1295
1.7291701 2.3566811 -4.2601891 13.795166
0.60213828 2.7165089 -4.0116038 20.133751
2.6705594 2.7221727 -4.3726482 14.1245
1.2854542 2.9549379 -4.220129 17.129999
2.6213052 3.0730305 -4.1309848 16.124063
3.4253273 3.2569306 -4.1512012 15.454333
4.1307979 3.3520627 -4.1018152 14.518499
5.5855384 3.5440397 -4.358943 12.11525
5.6826768 3.550447 -4.1638269 12.1145
1.9555916 1.4973842 -3.6658318 9.1274996
-3.2090945 1.9543796 -3.8690085 18.01025
-3.0924342 1.9734147 -3.9593627 18.009501
-2.5738573 1.9932899 -3.829916 20.011999
2.1637797 1.7585175 -3.631623 10.12625
-2.5447788 2.0855815 -3.7268822 19.341166
-2.339325 2.0711362 -3.6595659 21.136061
-1.98949 2.1815195 -3.639626 21.786779
-1.5794129 2.3045866 -3.9829774 20.863144
1.9475362 2.1091158 -3.7628829 13.127167
2.2644043 2.107003 -3.8103545 12.12575
0.62720275 2.6735129 -3.865427 19.633625
0.92857265 2.7533228 -3.6486602 19.13175
1.8717391 2.4012363 -3.6927412 15.127167
1.2923107 2.892328 -3.8494074 18.129749
1.7223568 2.9704244 -3.8756886 18.016527
2.1312416 2.9810102 -3.9255288 16.875874
2.5164528 3.1424835 -3.6280034 18.123501
2.987309 3.1751022 -3.8479767 16.622
3.4063625 3.2557995 -3.6881049 16.453333
3.8957634 3.3204548 -3.9826686 15.118999
4.1647096 3.3408203 -3.7317178 15.1175
4.5368958 3.3075948 -3.73329 14.241438
4.8429618 3.3855371 -3.6127613 14.11525
5.8424578 3.5493391 -3.686908 13.113
-2.2581944 1.4450758 -3.3443627 18.012501
1.7667928 1.3916683 -3.578985 9.1285
-3.0728903 1.9511086 -3.4056921 19.111149
1.5844042 1.6518756 -3.3661087 11.129
-2.6237919 2.0618055 -3.4400034 20.109051
-2.1838536 2.1175134 -3.3745492 22.36241
-1.6059459 2.2882342 -3.5735965 22.435213
0.66508126 2.2262363 -3.2418778 18.133249
1.6334759 2.0954752 -3.5671585 14.1285
0.23032619 2.6050794 -3.4595928 22.635376
0.6754812 2.7047679 -3.4434037 21.466
0.9870435 2.884155 -3.4446769 20.256062
1.2616296 2.9083369 -3.3437147 20.129499
1.8457689 2.9965174 -3.3066299 19.926216
2.1986208 3.0596888 -3.4853294 19.12475
2.8233109 3.1302586 -3.3226612 18.288166
3.3781357 3.2458944 -3.3166692 17.452499
-1.8453175 0.1663724 -2.8586078 8.0139999
-3.3989339 1.9044607 -3.0405049 19.01375
-3.1293759 1.9433862 -2.840013 20.346834
-2.5883369 2.0812147 -3.0836 21.295786
-2.0535297 2.2345023 -2.9840012 23.0075
-1.6862612 2.2570081 -3.0810847 23.005001
0.69442523 2.2395651 -3.0550399 18.132999
0.81249845 2.2836289 -2.8183801 19.1325
-2.3999977 2.4247565 -2.8401666 23.0075
0.23779011 2.6733274 -2.9829392 22.760126
0.86522847 2.7412333 -3.1170311 23.130501
0.71624291 2.8098369 -3.0963664 21.29925
0.80265641 2.8254821 -2.8055723 22.631918
1.244079 2.9073377 -2.9534063 21.7292
1.8650819 2.9778836 -2.943289 21.1255
2.1112146 3.0345902 -2.9654677 20.624126
2.5350072 3.089586 -3.0303602 19.584568
2.9750063 3.1450217 -2.920656 19.119751
-1.8289794 0.29935601 -2.5039725 10.414999
-2.5887926 1.0430993 -2.4115331 16.014
-2.9937346 1.9895325 -2.5250866 22.014297
0.40737498 1.634523 -2.491807 20.467333
-2.70892 2.0464466 -2.6912148 22.012247
-2.3768237 2.3071761 -2.689863 23.007999
-1.6802876 2.2697377 -2.6411154 23.00425
0.58145916 2.7388587 -2.7163801 23.132874
4.2284617 2.7527671 -2.5613306 14.114
1.0125512 2.858402 -2.600374 23.130375
1.3841654 2.9207907 -2.6458895 22.877876
1.7525535 2.9913611 -2.5928512 22.583708
2.145432 3.0453525 -2.6758194 21.435749
2.5075421 3.149744 -2.6023169 21.621
3.0064924 3.1401615 -2.5454254 20.035084
3.2772474 3.1727026 -2.4911907 19.117001
3.421639 3.2044687 -2.7564542 18.117334
3.8310955 3.2468476 -2.4904561 18.31485
-1.7310896 0.17343879 -2.118798 9.0823336
-2.611639 0.78909367 -2.005336 14.0165
-1.8953478 0.56345946 -2.2285123 13.872763
-2.0645556 1.123709 -2.3561752 19.515499
1.1390425 0.92621922 -2.0734415 10.129
1.2626569 0.94140977 -2.1521466 11.1265
-2.1984079 1.3260336 -2.1066549 21.682501
0.52664936 1.3926821 -2.0479252 19.757063
1.0465401 1.4849778 -2.2793515 17.128
-1.7165751 1.6218028 -2.2528968 20.5065
0.56318903 1.7965546 -2.1228027 20.633125
0.82753384 1.9318098 -2.3755159 22.129499
-1.7969493 2.0498424 -2.295259 23.00625
0.37269062 2.2075286 -2.1289096 22.136
0.44752851 2.1078568 -2.1160228 23.134001
4.4096284 2.7242808 -2.2403018 14.11225
2.1443233 3.03405 -2.1954315 23.121799
2.949049 3.1349378 -2.0417578 22.116751
3.5417728 3.2283077 -2.116657 20.1145
4.2439861 3.2939363 -2.2846811 17.112751
-1.7117947 0.20277628 -1.6825242 11.3525
-1.4322281 0.30270869 -1.9282613 9.0109997
-2.3072293 0.66570306 -1.8310232 14.016335
-1.8393195 0.6030826 -1.7413354 16.818699
-1.4876162 0.72917342 -1.7281356 16.011999
0.91839176 0.76662862 -1.7000715 8.3797493
-1.8968885 0.98729265 -1.8664936 19.88265
-0.95831776 0.93342346 -1.7053691 19.007
0.9169094 0.97420436 -1.6759273 12.604703
1.2350577 1.1007866 -1.878432 14.125
-2.0304685 1.442299 -1.9309384 22.01325
0.61300695 1.3669039 -1.7512457 19.706242
0.86279309 1.373673 -1.7456619 16.713667
-2.7902493 1.6177862 -1.9211981 21.017
-1.7990882 1.6316488 -1.8694067 22.508499
-1.1196285 1.9514537 -1.6716025 22.004749
0.55392426 1.871904 -1.9015094 22.465061
1.110172 1.7065256 -1.8141782 21.62475
-1.0211096 2.0800607 -1.7087979 22.837082
2.5512152 3.062983 -1.9000486 23.118252
2.9338989 3.1129265 -1.7339014 22.782124
-1.5497934 -0.032884613 -1.248443 8.5224171
-2.116852 0.22234616 -1.5041649 9.3515005
-1.6368275 0.14760996 -1.4383472 10.83324
-1.440434 0.19617525 -1.4030615 8.9122257
-2.2210996 0.61775714 -1.5105759 14.351499
-1.7091234 0.59304613 -1.3705173 15.945383
-1.5364411 0.59898424 -1.301898 15.180166
0.75695634 0.53330022 -1.5569665 9.5289011
0.99536675 0.66881001 -1.3795222 7.3580661
-2.1551018 0.99712455 -1.4317238 19.018
-1.7155843 1.0042878 -1.4043851 18.861128
-0.81501627 0.81656265 -1.4208683 20.0075
-0.58519495 1.0196968 -1.4916701 23.0035
0.7490232 0.97388136 -1.4619839 17.3773
0.94613808 0.96637207 -1.3783326 12.871691
-1.7682478 1.4824313 -1.4407212 20.285225
-1.5257682 1.5431445 -1.5538905 18.007999
-1.1012635 1.46099 -1.279651 19.257376
0.75004256 1.4905317 -1.508992 19.72916
0.95538414 1.295606 -1.3762542 18.090471
-1.4217111 1.9665225 -1.2824587 23.008501
-0.8367995 1.6920292 -1.2671713 22.005501
0.69388407 1.6947037 -1.4540476 22.463457
0.93429947 1.8584836 -1.5306742 22.626999
-1.3137518 2.0221882 -1.520036 23.0065
-1.1250449 2.0199504 -1.5547922 23.005251
-1.4824529 -0.11367628 -1.0138563 7.3563285
-2.0055614 0.32646453 -1.1056092 11.735143
-1.9139274 0.016036192 -0.92699647 8.0225
-1.5481495 0.25918356 -1.018855 12.374578
-2.1076059 0.63330418 -1.0738764 16.02125
-1.7214031 0.57737637 -0.94826967 15.44366
-1.4810989 0.5823499 -0.97466004 13.511106
-1.0054723 0.51424325 -0.89314699 10.01075
-0.34386659 0.50629294 -0.86341113 21.006001
0.16207427 0.6923883 -1.0669314 18.132999
1.0750968 0.61401474 -0.97874963 8.026701
1.2152807 0.44422677 -1.0779355 6
-2.145303 1.0273501 -0.9964996 16.516529
-1.7665124 0.96150589 -1.1646655 22.295862
1.0235897 0.98620307 -1.0116268 14.879822
-0.92722028 1.403692 -1.008882 20.21652
0.90478498 1.3156664 -0.98967689 19.290686
-2.2398789 1.6640509 -1.0136251 19.013748
-1.7676221 1.9761213 -1.0490191 23.011499
-1.5893356 1.6724563 -0.94215608 21.154642
0.76540029 1.606576 -1.0797329 23.123428
0.96914279 1.6519539 -1.1770327 22.625
-2.5995433 -0.022982299 -0.51327097 6
-1.4198548 -0.11392956 -0.57587767 7.7526021
-2.2697778 0.23754953 -0.5069828 8.0179996
-1.7452314 0.26429078 -0.56617165 12.284558
-1.5023115 0.18273295 -0.56810182 12.883326
1.1291784 0.37863955 -0.4216949 5.8333335
-2.5123453 0.61423546 -0.58334565 11.01775
-2.1754749 0.53089678 -0.73498428 10.307834
-1.7113256 0.58432913 -0.65512949 21.027964
-1.565145 0.53856623 -0.57439774 17.187555
1.0979604 0.58828968 -0.58384317 7.5772085
1.2906367 0.56895155 -0.53268468 9.860774
1.6935519 0.74850833 -0.46253109 11.452832
-2.0080073 1.1323837 -0.70798284 23.024
-1.6588938 0.95482385 -0.62029845 20.814873
-1.4198097 0.96845818 -0.72060031 17.351952
1.0341485 0.91760784 -0.57985288 13.437934
1.2113223 0.83947915 -0.56157017 16.111542
-2.2262735 1.414598 -0.44146514 18.5175
-1.39652 1.3637567 -0.53946429 20.347582
0.94477409 1.3034885 -0.70391756 19.739458
1.2400522 1.2211894 -0.46523857 22.409599
-2.6269529 1.8604522 -0.68208992 20.591562
-2.0351124 1.813653 -0.5807054 22.015751
-1.7666725 1.675794 -0.67325014 21.764374
-2.4464388 2.139879 -0.55344164 23.01675
-2.0860343 2.0028574 -0.79894257 23.014248
-1.3644456 -0.13371657 -0.13616723 7.9216285
-2.3342423 0.30003774 -0.22099173 8.6198997
-1.6462319 0.050843321 -0.37289679 8.8821125
-1.4762816 0.19205455 -0.17983149 12.529547
1.1464421 0.29700977 -0.26829186 4.5
1.200851 0.23544142 -0.0067596436 3
-3.1491375 0.55023074 -0.087711334 10.5215
-2.7855244 0.53730577 -0.27933496 10.32005
-2.1876073 0.71651262 -0.23080748 12.419317
-1.7128692 0.69075239 -0.27602723 18.28121
-1.4974352 0.54211348 -0.15023522 19.259953
-1.1562234 0.54859841 -0.37747103 11.765625
1.1128237 0.63165826 -0.2243344 9.8512974
1.2771317 0.69151276 -0.063004151 8.0760326
1.9366008 0.71195382 -0.074692369 10.630901
2.0032635 0.77088475 -0.16505104 10.8615
-2.593468 0.94407189 -0.13264328 14.449
-1.8016789 0.94482577 -0.20158419 17.144283
-1.4583863 0.89368093 -0.1862697 15.518
-1.1869494 0.84329653 -0.36466146 15.265542
1.0786723 0.9799273 -0.18681766 15.877238
1.2600648 0.90198612 -0.062128134 12.392357
1.7521511 0.9681142 -0.25024244 17.181475
2.0686378 1.0122426 -0.076966882 15.942668
2.4883628 1.1004585 -0.027267277 13.10575
-2.5219665 1.2736887 -0.19887865 17.269751
-1.9781538 1.4843812 -0.062372684 20.519667
1.0222838 1.4044149 -0.1384988 20.785755
1.2949809 1.2113564 -0.18532126 22.104778
-2.3459206 1.9747572 -0.34720993 23.018
-1.5262285 1.6214675 -0.12931812 23.018
-3.0135088 2.0145128 -0.29039109 21.019501
-2.6330953 2.1115773 -0.035190225 23.0205
-1.3413793 -0.12291621 0.2392932 7.2090096
-2.6381898 0.22873792 0.10613 8.0223322
-1.6885345 0.13410054 0.077538304 10.6003
-1.4211961 0.16839644 0.2622551 13.595713
1.1277186 0.32591888 0.15185335 5.6138887
1.2031626 0.3476153 0.18813948 6
-3.4697559 0.65101242 0.26095921 11.5235
-3.1745372 0.48042309 0.13373446 9.7727499
-2.5346298 0.69972777 0.36809373 12.52375
-2.2433643 0.70699537 0.076595783 12.8216
-1.6544726 0.57862276 0.16497895 18.828802
-1.5496491 0.72328514 0.019379169 21.442091
1.0811915 0.61231714 0.22205339 13.79066
1.3429519 0.67298698 0.14378475 6.9790235
1.7252047 0.47355089 0.24694505 5
2.1142673 0.74725759 0.1778037 10.739109
-3.2786145 1.0908746 0.39484227 15.024
-3.0626488 1.0556418 0.23243415 14.523
-2.5854588 0.86276233 0.31271088 13.69
-2.3412428 1.1306379 0.36440718 17.0235
-1.7959437 0.91434264 0.20769134 22.451794
-1.3507174 0.82649243 0.051478684 15.519917
1.1877996 1.1161777 0.20786551 15
1.2638752 0.97843903 0.15385294 12.940035
1.7072403 1.1060872 0.27093121 15.431833
2.1060214 0.99741119 0.20765477 16.437674
-2.2465291 1.5620499 0.060455322 20.021
1.130981 1.3007914 0.24872847 18.05245
1.4850855 1.4389597 0.19982317 22.218189
2.8527954 1.2639999 0.31279474 13.433667
-2.608777 1.7634734 0.31745172 21.023001
-2.3131409 1.7021896 0.26979196 21.522499
1.0084556 1.6731441 0.2714735 23.104401
1.5692955 1.6411368 0.39775234 23.097
2.3204596 1.6629442 0.0043209195 23.106001
2.5018697 1.7446818 0.096106172 22.104
-2.9061952 2.0198085 0.022710443 22.021252
-2.7726059 2.0539768 0.38084936 22.690084
-3.9992995 -0.042478472 0.71619904 7
-1.3206027 -0.14356861 0.54176897 6.1521082
-1.1191126 -0.006743487 0.69624573 7
-3.3205132 0.28279236 0.67334449 9.0257502
-3.0086393 0.24942924 0.40783882 8.52425
-1.7798721 0.16325712 0.63260305 8.8881826
-1.4566771 0.21686657 0.654351 13.397752
-1.1515315 0.22534642 0.77870375 11.924706
-3.7819815 0.62360048 0.49529743 11.02475
-2.5805578 0.55226445 0.77479362 11.0265
-2.2088909 0.55892801 0.57371712 11.8585
-1.7138147 0.64431137 0.6168555 17.898554
-1.4710428 0.5965097 0.54470903 20.750956
1.0474224 0.64123333 0.69441378 14.217875
1.3554635 0.57719338 0.60195345 5.7563777
1.8070811 0.66457599 0.48336062 7.9528337
2.2377205 0.78954363 0.49646449 10.8485
2.4471154 0.78040099 0.48501015 9.0984287
-3.6295023 1.0691803 0.66754925 14.0255
-3.5420012 1.1290932 0.62126052 14.525249
-3.0372322 0.95006698 0.67553473 13.914528
-1.5454655 0.91138536 0.6196208 19.533749
1.0771152 0.97599602 0.55489558 17.05315
1.2609535 1.040801 0.56357521 12.665718
1.737651 0.92292577 0.53635883 12.473962
2.2898693 1.0753764 0.54246163 16.351088
2.6228495 0.87067449 0.78244328 9.3799286
-2.6683159 1.2445297 0.66070956 17.025499
1.1659169 1.3077679 0.6457054 16.895481
1.5291877 1.2402358 0.63871348 18.638863
1.7755206 1.2734889 0.55852419 16.845501
2.2187996 1.3832927 0.55255055 22.298
3.2485781 1.394164 0.61130691 13.097
-2.2634645 1.7880411 0.41546512 23.0235
1.03097 1.7826331 0.66117132 23.1
1.6849385 1.7989616 0.62224048 23.094999
-3.0530238 2.0017653 0.58567762 21.8248
3.7479987 3.0522344 0.72514802 18.768581
4.4383478 3.1535316 0.79863 17.101749
-2.2602835 -0.069016337 0.86678708 6
-1.4221978 -0.080874458 1.0202659 6.8196378
-0.91050839 -0.11542012 1.0658624 4
-4.7169447 0.080502123 1.1365798 8.0275002
-4.2133527 0.2008063 0.86919379 8.0264997
-3.8246441 0.3252373 0.94877827 9.0270004
-2.5083973 0.36651629 1.0408052 10.02825
-2.0955219 0.2672275 1.0402598 9.0286665
-1.4203494 0.20877686 1.0525663 12.520548
-1.0268562 0.24466258 1.1313844 11.199926
0.96112001 0.37227842 0.85926354 7
-1.7052052 0.66494781 1.0321323 18.998495
-1.3698574 0.67185831 1.0613712 19.901402
1.0049998 0.55813056 1.0764836 10.41613
1.3460507 0.67999429 0.94554359 7.0444932
-4.5289869 0.95562887 1.0249541 13.027
-3.4857416 1.0901213 1.0458943 15.0275
-1.7295948 0.99844158 1.0184609 20.537266
1.0958591 1.1318437 0.89197946 17.542751
1.2391928 0.93473655 0.90778536 10.778217
1.7512468 0.90402097 0.80488461 11.59225
2.6963167 1.1171495 0.99023151 12.954571
2.8440804 0.90206432 1.1477544 8.59025
1.1336632 1.2779225 0.87686986 17.206715
1.5868069 1.2863505 0.92421192 17.757334
1.9624778 1.4198436 0.95537335 16.092499
2.5204978 1.4745685 0.89432538 19.593107
-3.3522892 1.9160773 0.9433108 20.443542
1.0340226 1.7620711 1.0576594 21.596085
1.8181919 1.7933426 0.87279409 21.343
2.5106452 1.7691754 0.89336878 23.093374
-2.845088 2.0014739 0.92626226 22.027
-2.6686583 2.0399222 0.80126214 23.026251
1.8736054 2.0992026 1.0784332 23.091749
2.912014 2.9238338 0.94166452 22.600124
3.8170195 3.0473619 0.99171507 18.6005
4.6430602 3.1463745 0.86654902 16.1015
5.0133586 3.2078016 0.83257747 15.101749
5.2430882 3.2336602 1.096933 14.434083
6.0634627 3.3424113 1.0317839 13.10125
6.4092088 3.3919053 0.91298389 12.101749
7.1049986 3.4696043 0.96680015 11.101749
9.0199547 3.776638 1.0772176 9.1017494
-1.6616881 -0.15208575 1.3579564 5
-1.5276477 -0.13594501 1.4811304 5.4285717
-1.1475993 -0.12250198 1.4902629 6
-4.7031999 0.14455482 1.3343856 8.0282497
-3.2268438 0.38306797 1.3723793 10.0295
-2.3741636 0.32634389 1.4818528 9.53125
-1.6067393 0.3043839 1.4958057 13.045454
-1.35954 0.26358694 1.3763403 12.996848
-0.89046925 0.28152055 1.3954433 11.215267
-0.65720606 0.17476 1.5521636 7.6491561
-1.6866554 0.63339156 1.3833392 17.830547
-1.3639367 0.54740632 1.419091 17.356579
-0.96700114 0.62224984 1.4881973 14.98925
-0.72924823 0.4773463 1.5085189 13.771358
0.92218971 0.54903382 1.500262 9.4536247
1.4003621 0.68868685 1.4052351 6.25
-4.9158688 0.96000218 1.448819 12.5285
-1.7421066 0.98261863 1.4854538 22.244001
-1.4543186 0.90149599 1.3797649 22.617334
-0.94263238 0.98210728 1.3842779 21.790911
1.3209968 0.96908355 1.3968521 9.8565836
2.0510917 1.0576923 1.2224973 11.34025
-5.0344925 1.2850988 1.4646536 14.0285
-4.7005286 1.5469031 1.4854136 16.028749
-3.4421449 1.5399487 1.3316255 18.028999
0.92096245 1.3106347 1.3528178 21.581249
1.2151877 1.3127874 1.3349999 14.500894
1.6641839 1.339335 1.2792388 16.587999
3.0141711 1.4363604 1.4032671 14.755583
-5.3022943 1.6149009 1.2471552 15.694167
-3.7290406 1.796869 1.3871462 19.028999
-3.0842819 1.9126656 1.559934 20.780624
-2.7762027 1.9965761 1.2835128 22.52935
1.0637115 1.7950978 1.3511885 20.522501
2.780345 1.9836355 1.2201736 22.0905
3.185636 1.6659586 1.533612 16.088499
-2.5459971 2.016618 1.2663929 23.029499
0.99191463 2.0039716 1.4060247 23.0935
2.6838877 2.8634272 1.325155 22.882839
3.1512809 2.9338768 1.2713815 21.098249
3.2970431 2.9509571 1.5400393 20.2969
3.8379521 3.0292935 1.3964888 18.398376
4.6543093 3.1589901 1.425189 17.387627
4.9789143 3.1386199 1.3704002 14.766167
6.0891767 3.3458662 1.4482138 12.933167
6.4228196 3.3965662 1.2219841 12.10075
7.3499398 3.4758589 1.4936841 11.10025
8.4881048 3.7318735 1.3398712 10.101
9.0592918 3.7446454 1.5107485 9.10075
-4.4866552 -0.16525242 1.9703368 6
-3.6204596 -0.011046946 1.7444921 7
-1.5093688 -0.18157005 1.7069302 4.8333335
-1.0649899 -0.023717463 1.6133133 5
-2.615839 0.39744198 1.8544374 10.033
-1.6220741 0.18329434 1.9855942 10
-1.4336774 0.25344083 1.8359101 11.239988
-0.93602288 0.013170004 1.7540449 5
-0.44710776 0.14840645 1.8178604 6.5778751
-1.7407815 0.62110138 1.7127483 15.881229
-1.2822105 0.50645643 1.7812492 14.206317
-1.0609459 0.79352528 1.9393265 16.556499
-0.60974723 0.63828683 1.8957694 14.035025
1.4582628 0.71743375 1.770876 6
-1.813336 0.92251474 1.857982 18.641834
-1.4324414 1.1414944 1.9215232 22.0655
-0.99756587 1.1585121 1.7946627 21.806999
-0.6019299 0.86604154 1.8886428 17.260799
1.3884411 0.96456563 1.7529348 8.999999
3.4684854 1.1482985 1.8399515 8.0865002
-5.1269164 1.3754501 1.6205595 14.528999
-4.5732441 1.5260159 1.8326868 15.696945
-2.0299401 1.2390537 1.6310108 18.033001
-1.7991332 1.2451062 1.9337431 23.048
-0.75248468 1.2222507 1.8475933 22.2265
1.2364955 1.4386718 1.7536782 14.5477
-4.0736036 1.6868442 1.9999387 17.364832
-3.8105111 1.7287657 1.7588449 18.197418
-3.2485068 1.8625616 1.8644774 19.907063
-2.9024301 1.9346455 1.8008837 21.2323
-2.7074795 1.9983144 1.6434579 22.28175
1.0943201 1.8923132 1.7659606 19.591499
3.3435497 1.7920462 1.806155 16.087
1.0638547 2.0459559 1.881034 21.091
2.3197229 2.8058267 1.8080065 23.089251
2.5544052 2.8259957 1.7966027 22.162811
2.8930268 2.8831458 1.6644166 21.595375
3.6755342 2.9881122 1.8767428 18.2957
4.1248159 3.0230815 1.8007863 16.84675
4.6682053 3.1294255 1.6925385 15.847875
4.8641415 3.1524353 1.7700361 17.093416
5.2588711 3.1830649 1.9289333 14.0975
5.7102766 3.2834091 1.7043349 13.09875
6.5447145 3.3678124 1.6986455 12.09925
7.5409465 3.5021071 1.8473427 10.432667
9.0913696 3.700665 1.9289833 9.0997505
11.71276 4.1014409 1.9433541 7
12.100638 4.1946497 1.6874685 7
13.941836 4.3652239 1.8527594 6
-1.5658543 -0.061672762 2.0692468 6.75
-4.4431458 0.1735756 2.1179917 8.0314999
-4.0061388 0.2205607 2.1034834 9.0319996
-1.6160768 0.22175546 2.2041111 10.327952
-1.5943661 0.070744812 2.2694175 8
-1.1313945 0.1395333 2.1458647 8.8164377
-0.2295413 0.27879089 2.1136122 8.2954998
-1.6949909 0.65549535 2.2929311 15.264769
-1.289904 0.72445071 2.2594156 15.400167
-1.0475779 0.71276116 2.1842451 14.0575
-0.40567958 0.55648822 2.2933414 11.729833
-0.2822524 0.51794654 2.29197 11.126732
0.82809812 0.62064624 2.1443641 9.0749998
-6.02143 1.1928533 2.2279868 13.0305
-5.6558299 1.1921476 2.0041864 13.03
-1.7495369 1.0201894 2.1922324 19.849899
-1.3225912 0.93793619 2.2451601 18.066999
-0.52421778 1.0351396 2.262187 18.179777
-0.33000061 0.88731217 2.3073564 16.156563
1.3755541 1.1273613 2.1488171 10.423
-5.0041862 1.3408604 2.1967857 14.28125
-4.5381556 1.5302482 2.1854525 16.03175
-4.2460833 1.5916995 2.0421844 16.5315
-2.2718968 1.436529 2.107734 19.0355
-1.8215473 1.4010292 2.3911593 22.384501
-0.60258466 1.4368322 2.2296591 22.370333
-0.38827461 1.3647292 2.3762271 20.828751
1.2604461 1.3197612 2.1191916 12.922832
-4.1977596 1.6097291 2.3430958 16.43285
-3.498415 1.7884569 2.2443449 18.700167
-3.0704696 1.8461317 2.3001177 19.812418
-2.4628158 2.0156958 2.0177603 22.867918
1.920648 2.6889744 2.2435188 23.084999
2.3278704 2.786109 2.0683553 22.634953
2.5335078 2.8037543 2.0476177 22.492001
2.9827952 2.9184332 2.2300334 20.592375
3.3520989 2.9350684 2.2883041 20.46916
3.8640196 3.0051658 2.2272317 19.86714
4.2482104 2.9505091 2.1052091 16.095499
4.6248741 3.1169558 2.007195 15.3465
5.1698174 3.1513314 2.0329649 14.097
6.9844894 3.4704239 2.2048776 11.098
7.6877975 3.5141861 2.1748466 10.0985
9.0916805 3.6611178 2.2380443 9.099
14.336372 4.4015059 2.2208426 6
-4.3066764 0.1652707 2.4584434 8.033
-1.6193053 0.15308554 2.6170316 8.4697857
-1.1141871 0.21175787 2.7777538 8.5682497
-0.13593085 0.26966378 2.6359403 7.1991668
0.04444921 0.3338812 2.764744 8.0515003
-1.7084433 0.63947666 2.5567143 14.651899
-0.10931794 0.71122044 2.718008 12.946667
0.57102668 0.5801183 2.6443546 10.0565
0.87384218 0.67786866 2.7638924 11.06
-1.8142837 0.99619579 2.6737211 16.387056
-0.92205751 1.1913142 2.5043952 18.060249
-0.22238599 0.99985677 2.6048977 16.077177
-5.9040632 1.2134172 2.5135069 13.0315
-5.5195508 1.2765133 2.7353783 13.632601
-5.074379 1.4056041 2.4217961 15.032
-4.6525526 1.5005308 2.6782088 15.533501
-2.662127 1.3759559 2.7839437 17.038
-2.1063101 1.5471646 2.6028237 20.052999
-1.8541025 1.5086789 2.559998 23.052
-0.28849834 1.4319733 2.6581922 20.831743
0.33722794 1.5038695 2.7404358 22.056
1.3363417 1.5322182 2.7807188 13.0875
-3.7131095 1.6676961 2.6983712 17.285126
-2.8378925 1.8739347 2.6585028 20.037001
-2.6252985 1.9085237 2.6520705 20.537624
-2.3319068 2.0071154 2.4058428 22.537249
1.0508522 2.2341282 2.5620527 20.087999
0.65503395 2.579288 2.7084718 22.885851
0.96226513 2.6215808 2.6450133 22.0879
1.2686576 2.5844016 2.7144308 23.079248
1.8119681 2.6598923 2.592952 22.834249
2.1897187 2.7345409 2.5177498 21.982302
2.4236517 2.7563481 2.5698714 20.485834
2.6598322 2.8101726 2.4630239 21.090071
3.1762066 2.871737 2.7130108 18.374912
3.402401 2.9082429 2.6055696 20.789621
3.9477932 2.9566824 2.6618361 17.172813
4.3256636 3.0417485 2.4499011 16.09425
4.7579398 3.1060424 2.4942613 14.894699
4.9302535 3.1006198 2.5640152 15.6745
5.4800763 3.2108498 2.7273924 15.587999
5.810976 3.2491002 2.6358728 14.09225
6.83254 3.3503349 2.7544861 11.096251
7.8335366 3.4886165 2.6751256 10.09725
10.97632 3.9651856 2.5977178 8.099
14.717463 4.4296041 2.6306229 6
-4.0900793 0.18601766 3.0236173 8.0354996
-1.6599989 0.2646696 3.1110702 9.3876657
-1.1087381 0.29316378 3.0733132 9.0690002
0.24626106 0.36640573 3.080338 7
-1.6890517 0.65794605 3.0527697 13.304376
0.18793672 0.51477766 2.9750764 9.4066477
1.2179153 0.49787372 2.923897 7
-1.7338339 0.92435515 2.9350615 15.803875
-0.37908769 0.80096513 2.9004345 12.0645
0.15997019 0.96893632 2.9877048 14.859683
0.52715296 1.0923185 2.9226494 16.057501
0.81606364 1.1889319 3.0325685 16.060499
1.32845 0.89520037 3.0271869 11.564625
-5.3476367 1.272585 3.1040709 13.534
-4.8517747 1.397082 3.1890392 14.535
-4.6545482 1.4776835 3.0934258 15.035
-4.1314583 1.5156523 3.0500686 16.035749
-1.7975724 1.5679356 3.0032296 21.054501
-1.5142381 1.289258 2.9532824 18.068001
-0.59664822 1.5433447 2.9156806 19.063999
0.085367501 1.2936696 2.9579728 18.720556
-3.6597872 1.6634202 3.0701308 17.036751
-3.375972 1.7718412 2.8736296 18.536625
-2.5223727 1.9024198 2.9828603 20.289562
-2.1980028 1.939078 3.0250852 21.377625
-1.9323089 1.8917668 3.0748444 22.033148
-1.553339 1.7977552 3.1767821 21.069
-0.0066486597 1.6981584 3.0131569 22.284616
0.62306833 1.7410386 2.8947604 23.0595
-1.735124 2.0846999 2.9206452 23.0425
-1.4411952 2.0375249 3.0313861 22.809
-0.97569066 2.1000035 3.087347 22.869667
-0.72253704 2.1702223 3.0290823 23.075251
-0.14141349 2.326122 2.9984739 23.075918
0.19953477 2.4141099 3.0702801 22.744875
0.55531549 2.4944482 3.0167642 22.436071
0.91437137 2.5616946 3.0244346 21.965832
1.5060651 2.5702007 3.0881081 21.932705
1.7716068 2.6257019 2.9362676 21.915874
2.1182537 2.6946399 2.9875793 20.729801
2.5120251 2.7544994 3.0407634 21.83165
2.966933 2.8319006 2.9589541 19.467306
3.3711426 2.8744843 3.123378 18.541811
3.8213336 2.9440594 3.0147512 17.985725
4.1390357 3.0055032 3.0116587 16.339062
4.6202846 3.0594926 2.9417033 14.964938
5.2424793 3.150763 3.0347278 13.093501
5.5922918 3.2092967 2.8065042 13.094749
6.9234991 3.3592007 3.1534777 11.09525
7.2302971 3.420588 2.9962428 10.096
10.462152 3.8539839 3.007822 8.0979996
-3.8540845 0.74553812 3.561754 11.038
-1.7085789 0.60785329 3.2727716 12.055
0.49238047 0.63076276 3.2788348 9.8348465
-1.8005008 1.0776883 3.5820727 15.056
0.35428172 1.0054522 3.285454 14.056467
0.63248658 1.1115514 3.378866 14.392334
1.6319842 1.1340766 3.235424 12.900584
-5.1734266 1.2741603 3.5006821 13.0355
-4.4986458 1.4826704 3.4602458 15.0365
-3.897912 1.5851927 3.2585382 16.037001
-2.1905956 1.3587772 3.4477279 16.0425
-1.360751 1.2718544 3.3241658 17.0695
-0.017749235 1.4153758 3.2687831 16.068001
0.2410838 1.4431884 3.2615478 18.806126
1.1590935 1.2336105 3.2205393 15.0635
1.435482 1.4863865 3.2348781 11.0865
1.6365497 1.2957319 3.4957271 14.067
-3.4031005 1.6508527 3.4867187 17.039
-3.1079547 1.7318208 3.410913 17.539501
-2.7025332 1.820675 3.464627 19.041
-2.3269272 1.9339477 3.2528927 20.5415
-1.871058 1.9832815 3.433378 22.656101
-1.3769554 1.9293286 3.2054524 22.070429
0.24551404 1.7309362 3.3152566 21.056665
0.41934681 1.7020416 3.2851923 21.058001
1.0426706 1.6295148 3.4999471 18.396334
-1.4268714 2.0830784 3.4447103 22.753941
-1.0038658 2.1116242 3.3733902 22.460962
-0.57881045 2.1902943 3.3960242 21.820623
-0.14611258 2.2740901 3.3984327 21.51977
0.17271757 2.2936757 3.4214225 21.933914
0.60682309 2.3884394 3.5327802 21.823563
4.9129944 2.354923 3.4272261 10.0895
0.57156235 2.4523418 3.3773041 20.794134
0.98455906 2.532558 3.4343667 20.879749
1.4314814 2.5467052 3.3900194 21.281668
1.8122504 2.6206288 3.4898779 21.324875
2.1787765 2.6798213 3.3669984 20.596199
2.5988688 2.7363143 3.4442666 20.182018
2.9309683 2.7751417 3.3875127 17.38575
4.5687037 2.7107377 3.5029917 12.397312
4.9075675 2.781687 3.3265929 12.09
3.0834742 2.8199716 3.2391555 21.245249
3.3653953 2.8314931 3.5092547 17.417276
3.8069031 2.9177833 3.3488069 17.209795
4.2886343 3.0186241 3.4362073 14.2358
4.5641966 3.0720537 3.4099705 14.424333
4.8496399 3.0385139 3.3909709 15.219867
5.8208704 3.1737304 3.4244082 14.086
5.904469 3.2135084 3.5016792 12.093
7.6860781 3.4723268 3.5228524 10.095
8.117507 3.4990714 3.3710582 9.0957499
9.8726864 3.747196 3.4647913 8.0967503
10.245914 3.8172793 3.2095842 8.0974998
-1.00916 0.38079327 3.7572064 8.0705004
1.0465332 0.32930508 3.6560543 4.5
1.2563703 0.32593647 3.6288936 3.2666667
0.63000345 0.6378777 3.6040332 9.2585001
1.0012881 0.72335386 3.6437562 8.0789585
1.3353385 0.64302552 3.643683 7
1.8211868 0.63404709 3.7139227 5.3249998
2.0199041 0.517941 3.6319122 4
3.165215 0.75191182 3.6758745 4
3.206871 0.64057213 3.6868107 3
-6.9664364 0.90721995 3.8610024 11.03425
-1.2001008 1.0997896 3.8696327 14
-1.1464466 0.9693743 3.8586409 12.5
0.70380116 1.0846511 3.7311289 12.930055
1.0604672 1.0777646 3.8561037 11.403957
1.4711547 1.1102481 3.8230627 10.141
1.8048022 1.0093465 3.6749516 8.25
2.2483401 1.0468791 3.6823986 7.9830999
2.4432011 1.0533315 3.6770005 7.5999999
4.1752052 0.93687725 3.7121956 3.5555556
-5.0709748 1.2969142 3.8570924 13.03675
-4.7519975 1.3581755 3.7613015 14.162001
-4.2054386 1.5061727 3.8472078 15.038375
-1.873595 1.5552551 3.9022098 18.056999
-1.2709287 1.4085728 3.8903503 16.017708
-1.0075799 1.3153678 3.9779711 14.605466
0.58802402 1.4303274 3.648021 16.614834
0.91615963 1.4351985 3.7113774 14.374329
1.3895321 1.4414856 3.7485442 13.295134
1.7467929 1.3287815 3.6832383 11.31707
2.2303486 1.4476801 3.7595296 11.052193
2.7304568 1.3160784 3.7193675 8.5836248
3.0661345 1.3462105 3.7138665 7.9000001
3.3616548 1.4451187 3.7249699 8.2516994
3.7388957 1.4968975 3.7600412 8.0869999
4.1348763 1.2378526 3.7395062 5
-2.9501314 1.7316352 3.6665154 17.541
-2.7507567 1.7852159 3.9058387 17.709166
-2.2352099 1.8452804 3.8681586 18.550501
-1.671214 1.8276497 3.8907876 19.264038
-1.3926787 1.8901064 3.8287513 19.240271
-1.0110682 1.9941953 3.7813048 20.073124
0.63857543 1.7994702 3.6566262 18.717031
1.030763 1.7621139 3.7214134 16.620947
1.4697392 1.8121836 3.7034335 16.209476
1.7743325 1.761767 3.7220733 14.292018
2.3318884 1.8144681 3.7372313 13.115738
2.7384617 1.8802276 3.7459562 12.627967
2.8121293 1.7788118 3.7579918 11.5
3.9695578 1.804347 3.8503647 8.8366241
4.2129822 1.8824492 3.8183906 8.7537508
-1.9654559 2.1241381 3.8830624 21.568251
-1.3042663 2.0400553 3.8363047 20.727627
-0.9552139 2.1210823 3.8151684 21.285278
-0.5922693 2.1340728 3.7423997 20.770502
-0.20392352 2.2275331 3.8058128 20.372993
0.15811232 2.3079827 3.7695804 20.296661
0.618016 2.2342372 3.8245029 21.200197
0.90761131 2.2630796 3.8590736 19.79747
1.4402649 2.2316544 3.7765381 18.472517
1.8647034 2.2656775 3.7962058 17.440159
2.2524357 2.2542925 3.7786646 16.270584
2.5717206 2.1892896 3.7702005 14.770937
3.1087279 2.1833186 3.7871044 13.335438
3.4845972 2.3058267 3.8491883 12.919833
4.5286493 2.1335151 3.6815126 9.4877996
0.59141082 2.431787 3.9038887 20.075167
1.0099608 2.4947076 3.8257749 19.576979
1.3996513 2.5173938 3.8107128 21.537645
1.8432779 2.5376651 3.7606392 20.15065
2.1930594 2.5560534 3.7884617 18.092035
2.6069624 2.5820911 3.8669064 17.276152
3.042685 2.641505 3.7952576 16.587358
3.3544891 2.6308842 3.8448644 14.881511
3.835994 2.6340539 3.8741689 13.351286
4.1636047 2.5499983 3.8702111 12.305753
3.441076 2.8075213 3.8518429 16.581249
3.7984216 2.8508584 3.7557886 15.901965
4.2381449 2.9249146 3.7641735 13.913176
4.6842937 2.9848876 3.7229285 14.886326
4.9624033 3.0265687 3.8140602 13.421249
5.4859495 3.1431129 3.6280513 12.092
5.36622 3.2183809 3.6842947 15.084249
6.9667363 3.3464587 3.615449 10.594
9.3675394 3.6598625 3.7870755 8.0957499
1.3239573 0.4965823 4.3901901 6
-6.5995035 0.93815756 4.0022926 11.035
-6.3011169 1.0019873 4.2393675 12.036
1.1747506 1.071794 4.2608414 11.062799
3.6351938 0.98331153 4.0000982 5
-4.6737361 1.3704028 4.0261393 14.038
-4.3952742 1.3932021 4.1707001 14.039
1.0982636 1.4978747 4.2792077 14.262799
2.6806469 1.4653342 4.1513443 11.072
-2.7550626 1.7579299 4.2153559 17.043501
-2.3003762 1.7850811 4.2341976 17.050999
-1.7531233 1.9032478 4.3522453 19.059
-1.4195864 1.9495273 4.2907419 19.061001
-1.0388906 1.9576989 4.0768843 18.573002
0.96980214 1.7750434 4.1590309 17.187374
1.46822 1.7075243 4.1024337 16.0655
3.5377421 1.6423146 4.3589764 8.0830002
3.7663584 1.6794168 4.0809255 8.6843996
-0.94247818 2.0590844 4.2458558 19.427835
-0.62087685 2.1091869 4.1683826 19.711878
-0.20583364 2.169688 4.1740608 18.738379
0.15871572 2.247154 4.2787137 18.094072
0.48104787 2.3320987 4.1468701 18.522722
0.88921362 2.3468411 4.3006926 19.151249
3.1856401 2.0432947 4.0306802 11.58475
3.6160979 2.3909192 4.239532 12.084
0.95285445 2.4631798 4.3047748 17.191195
1.474851 2.4730709 4.3890777 17.076
1.8938251 2.559932 4.3022656 20.235334
2.2406507 2.6077063 4.1264677 20.320999
2.6252232 2.6653514 4.2519474 17.476849
2.9593968 2.6879411 4.216908 16.703375
3.4225786 2.6353173 4.1606512 13.96265
3.7299707 2.5741456 4.0716624 12.914249
4.4016008 2.4670105 4.0020471 11.0885
5.1678762 2.6797736 4.038136 11.09
3.5436883 2.8008206 4.3414068 17.3265
4.5099926 2.8989444 4.3085098 15.079834
4.9071045 2.9680488 4.2574644 14.456125
8.4332867 3.4477403 4.0708189 10.087749
-8.6548519 0.48913956 4.5906949 9.0342503
-0.88838911 0.57156503 4.6413116 8.5719995
-5.4004679 1.1119018 4.6284122 12.038375
-1.0219641 1.0055652 4.7215457 11.072
1.3941045 1.1848373 4.621254 10.814
-3.9514232 1.4693192 4.6941671 14.0415
0.87449116 1.3679491 4.5792441 11.072
1.4330728 1.3812897 4.5362673 12.397834
-2.2382641 1.8124051 4.5370908 16.807877
-1.7951714 1.8528541 4.6980591 17.126501
-1.2474753 1.890056 4.6420679 17.429804
-0.99469179 1.8987201 4.5494256 17.07325
1.4054601 1.8770499 4.5381093 16.064877
3.5227122 1.6505501 4.6612968 10.0745
-0.61229348 2.0351706 4.4598079 17.575251
-0.20694335 2.1337137 4.6181693 17.350328
0.23249561 2.2177353 4.6137266 17.903374
0.54167092 2.2710462 4.4273205 18.071835
1.0196873 2.3520823 4.7108412 17.818312
2.1833909 2.1585443 4.5268078 15.07375
2.5493577 2.3587542 4.4494514 14.079999
0.65028715 2.4033468 4.4930606 17.081499
1.0589095 2.5168297 4.5911927 15.972056
1.6634867 2.4571705 4.6991911 17.571438
2.1474805 2.5501828 4.6325817 16.998875
2.6114731 2.6323237 4.619256 16.540215
3.2302852 2.7227993 4.4080448 17.574999
5.049479 2.4916556 4.5744305 11.58025
4.1809387 2.8504448 4.5261173 15.411499
4.7146077 2.9185309 4.6929264 14.2793
5.0099397 2.8872311 4.713994 13.08
5.9144449 3.0261779 4.6783876 12.082251
8.3314209 3.3785081 4.6459846 10.08625
-8.5358047 0.48355126 4.8957205 9.0349998
-8.1997242 0.52431047 5.117907 9.0357494
1.0661576 0.65417856 4.8075833 6
2.9060302 0.6897921 4.9387341 4
-5.1200943 1.176208 4.8856525 12.0395
0.86258453 1.0557759 4.9879789 9.0719995
-3.7386003 1.4763591 4.8750553 14.0425
-1.5775933 1.3048095 4.9322782 14.06025
-1.1619413 1.4498444 4.8355899 14.072
0.76643729 1.5188365 4.9693041 12.572
1.5947593 1.4037204 4.9739914 11.065
-1.9235897 1.7768934 5.1955886 16.0595
-1.4355386 1.8598355 4.983809 16.617224
-0.96798247 1.8685427 4.8940439 16.063875
-0.60046303 1.9728051 5.0500388 15.658417
-0.56658345 2.0484228 4.9698377 17.132566
-0.25861138 2.1013386 5.0407753 16.17115
0.088311352 2.1821263 5.0133424 15.825166
0.53542125 2.2654042 5.0492868 16.1415
0.88236225 2.3803945 5.164958 14.748166
1.416845 2.386008 5.0136046 16.694813
2.775954 2.1168325 4.9720583 11.0795
2.9935682 2.08531 4.8859329 11.080375
3.3941374 2.0654161 4.8040628 10.08175
1.2246867 2.4311454 4.9454551 15.191195
1.8474712 2.4612815 5.0232949 16.748089
2.2278159 2.4772313 5.1995425 14.077499
2.5984516 2.5474358 5.1194668 15.274799
3.0152497 2.644609 4.9192152 16.57275
3.3157594 2.7299318 4.9085789 14.827875
3.9373207 2.7500508 5.0001488 14.790285
4.2936292 2.8145163 4.8777351 14.577499
4.7579851 2.8020763 5.1841612 13.078
4.9008727 2.8569672 4.979866 13.079
5.4535398 2.8978491 5.1244278 12.08
5.6306071 2.9375448 4.909358 12.081
9.8959122 3.5555644 5.0832338 8.0869999
-7.9799294 0.51666903 5.5989227 9.0369997
-5.374083 1.1475018 5.3935995 12.04025
0.64310038 1.1753883 5.5746269 9.0701256
0.92891908 1.0173274 5.5966425 7.8214288
-2.2751191 1.3189747 5.5826073 12.059
-1.8201456 1.7382946 5.5122356 14.435625
-1.4587009 1.856156 5.423069 15.437063
-0.974222 1.8213402 5.2774849 14.736917
-0.71450585 1.9065808 5.2409425 15.0745
0.64722073 1.7040632 5.5299425 12.571125
1.9343181 1.8486724 5.2763352 13.56675
-0.8300789 2.0008931 5.3285432 16.564751
-0.13948868 2.0999203 5.4480944 15.06775
0.13982543 2.1449609 5.4595318 14.945643
0.63430423 2.2487204 5.4067788 14.825292
1.0772001 2.2912471 5.5131927 14.501287
1.5514953 2.3647816 5.5271702 14.0745
1.2220114 2.4265318 5.492641 13.6823
1.9055303 2.4241989 5.3818693 14.076
2.1859248 2.4769716 5.5683527 16.068001
2.4769378 2.5184231 5.4124327 16.0695
3.4967217 2.6065228 5.4591384 12.081
3.7692134 2.6696749 5.3590431 13.410335
4.3242517 2.7606356 5.3000059 14.0765
4.57616 2.7487888 5.4927368 13.07675
9.1295862 3.4024384 5.5454769 9.0852499
9.4079323 3.4590063 5.335804 9.0860004
-8.586401 -0.076172709 5.8841605 7
-7.6637034 0.5851413 5.6707659 9.0375004
-6.5969048 0.77897692 5.9586115 10.0395
1.2014424 1.1897727 5.624485 8.5722504
-3.5514445 1.3857423 5.9191189 13.0455
0.42267337 1.586033 5.6196394 12.07
0.85296333 1.2228056 5.6001954 9
1.3999153 1.2600415 5.6595716 8.5
-1.363549 1.8417084 5.6763635 15.0625
-0.95272028 1.8693584 5.8211298 14.468033
-0.65937692 1.9108002 5.6984396 14.070126
-0.34206241 1.9806842 5.6190519 14.076
0.73635 1.7308965 5.6267176 12.0715
1.0442094 1.6561689 5.6401653 11.072001
1.4229927 1.6193978 5.6576319 10
2.142303 1.7087855 5.7185478 11.067
-0.23818669 2.050179 5.6600728 15.5675
0.29754803 2.1403723 5.9330034 14.56975
0.59123641 2.2166238 5.8253784 13.411166
1.9678677 2.375308 5.8821073 13.0755
1.297125 2.4450347 5.9519601 13.082
1.6977766 2.5399046 5.8590555 12.5835
2.3215613 2.4634261 5.7570171 14.072624
2.5623279 2.5062437 5.6106129 15.0695
3.002439 2.571939 5.7015114 13.202126
3.4253688 2.6759019 5.6568079 14.57275
4.3599768 2.7734694 5.7947798 13.0755
4.8926706 2.8132973 5.9178438 12.07675
5.2262301 2.8491018 5.8523989 12.07775
5.7491307 2.9305074 5.8277521 11.412333
8.5857716 3.2795918 5.9323807 9.0837498
8.9045849 3.3672869 5.7816467 9.0845003
-2.0743291 1.5775257 6.3121481 13.06025
-2.3912747 1.6084296 6.0822906 13.0595
-1.6527772 1.7345943 6.1603761 14.06175
-1.3200959 1.805519 6.10851 14.063
-0.54218364 2.0282795 6.0633039 14.56625
-0.19232605 2.0299413 6.2069879 13.900917
0.4527227 2.1464126 6.3487468 13.075833
0.91001737 2.2332392 6.0675182 13.071625
1.551721 2.2865007 6.2080822 13.07375
1.7262021 2.3083739 6.0256977 13.0745
1.4560778 2.4216399 6.1677194 12.082251
1.6111494 2.4958992 6.0055656 12.583
2.630069 2.4793408 6.1028118 12.077375
2.815938 2.4527659 6.2560787 14.0695
3.3867109 2.5590267 6.147336 13.196688
3.9462681 2.652462 6.0280437 13.07375
4.1373396 2.6257243 6.183733 12.407333
4.6337442 2.7405713 6.0280666 12.07575
8.1985283 3.1985857 6.2804594 9.0825005
8.3917074 3.2501798 6.1658592 9.0830002
-6.9091768 0.66227949 6.7423429 9.0404997
-1.8432629 0.72590059 6.4808578 9
-1.8866906 0.94177711 6.5423265 10
-2.0822921 1.4626374 6.5597034 12.373501
-1.9483886 1.4226621 6.6079469 12.020416
-2.1687684 1.6475065 6.4112706 13.0605
-1.7794442 1.6750859 6.6381655 12.561874
-1.2628947 1.7628005 6.585743 13.063499
-0.86038709 1.8449225 6.4861426 13.065
-0.65107971 1.7931255 6.6565552 12.216143
-0.13853088 1.9554678 6.7165728 13.06775
0.041723132 1.9748477 6.5684452 12.077
1.8928207 1.8729703 6.5257425 10.07425
0.25391629 2.0634828 6.4931741 13.319313
1.0526059 2.2023787 6.6382656 11.825999
1.3069745 2.3029075 6.4472027 12.0785
1.8196454 2.3273988 6.5700536 12.07425
1.7697276 2.4433379 6.7852273 11.0825
2.3317103 2.4349484 6.6635303 12.07575
3.0436831 2.4976985 6.4701977 13.07
3.8438618 2.5280571 6.5916395 12.072374
6.5333657 2.9204304 6.6103067 10.079
7.9353175 3.152102 6.5904884 9.0815001
-9.5167103 0.055530652 7.1368685 8.0380001
-8.0523891 0.39096081 7.0312471 9.0395002
-7.6887336 0.45581985 7.0607605 9.04
-7.1151738 0.56340945 7.1572838 9.0410004
-6.6152124 0.71662003 6.9004555 10.04125
-6.2513552 0.7555151 7.142499 10.04225
-0.68264782 1.8211032 7.0091228 12.06575
-0.21585269 1.861161 6.9464331 11.575937
0.29796171 1.9801226 6.9985003 12.069
0.71325713 2.1256826 7.0971551 11.409333
0.87944615 2.1399744 7.0091619 11.0795
1.4013218 2.3046188 7.1482205 11.081
1.641076 2.3899395 6.8868022 11.082
2.1586957 2.384553 6.8709641 12.075
3.6864214 2.4785216 6.8519192 12.0715
4.3344131 2.6728995 7.1142254 11.073
4.6470194 2.6997151 7.1717634 11.07375
6.3807573 2.8659551 6.990037 10.078
7.2651772 3.0239677 6.938344 9.0797501
7.6222134 3.0775709 6.8577061 9.0804996
-9.2790585 0.10136288 7.2844143 8.0384998
-9.0109138 0.14769457 7.4050493 8.0389996
-8.7650051 0.19591472 7.5800991 8.0395002
2.7580748 0.63380355 7.5364332 1.5999999
3.0388331 0.77154827 7.533989 3
-5.8090224 0.82867515 7.2977829 10.04325
-5.4424763 0.92338896 7.4793715 10.04425
2.8172584 1.1057582 7.5549808 4
-0.12817173 1.375641 7.4053106 9.0672503
2.8878069 1.346396 7.5798197 5.3000002
-1.3656578 1.6337225 7.3714209 12.0635
-1.1263868 1.7032874 7.2661452 12.06425
-0.78056628 1.6208076 7.4426398 11.074
0.18955281 1.9522099 7.4281917 12.06875
0.5140872 1.9837797 7.4816055 11.078
0.64059764 2.0668266 7.4539776 11.0785
1.1559886 2.1980686 7.3762808 11.08
2.3324432 2.5528898 7.2970881 10.0835
3.4029226 2.4112203 7.3304911 11.07
5.3114843 2.7867014 7.3980017 10.075
5.8469892 2.7337658 7.4740667 10.076
6.0910811 2.792264 7.3407431 10.07675
5.5690203 2.8087611 7.4430199 10.0755
7.4781327 2.9015203 7.2635021 8.0795002
8.1907701 3.0555379 7.3487167 8.0804996
-8.2015562 0.27888021 7.7623501 8.0404997
-7.9472613 0.33472639 7.8842468 8.0410004
2.3303237 0.65454793 7.6975365 3
2.4499941 0.57736647 7.648591 1.625
2.2692165 0.96070641 7.6913161 4.6666665
2.6379681 1.0926313 7.6220574 4.5
-2.0685027 1.5633754 7.9313555 11.062
-1.8454928 1.5714349 7.7560368 11.06225
2.1734111 1.4281359 7.7295532 6
2.5027664 1.4584279 7.677352 6
2.8552828 1.3544006 7.6123095 5.5
-0.9077841 1.7676377 7.9709549 11.06525
-0.17217025 1.8431907 7.8080845 11.0675
0.32087758 1.9426422 7.6778722 10.407917
0.59139186 1.9972446 7.9028511 10.078
1.970472 1.881978 7.7541699 8
2.184907 1.9229976 7.7344289 8
2.5895219 1.9935586 7.6688242 8
0.99363291 2.1505084 7.794363 10.07925
1.2609751 2.1884663 7.8784838 10.08
1.863652 2.2621958 7.7714891 9.5
2.2064965 2.3337653 7.7747455 9.333333
2.6783991 2.0041902 7.667346 8.0834999
3.9908905 2.0279191 7.6855421 9.0710001
1.8736216 2.4106209 7.7876549 10
2.1566019 2.4189918 7.7351308 10
2.4738164 2.4237933 7.7111168 9.270874
5.6786413 2.6957569 7.9208145 9.0749998
7.294271 2.9298792 7.852561 9.0782499
7.6810412 2.9869132 7.810873 8.0790005
-0.47010744 1.1845551 8.3669682 8.0745001
-1.7016566 1.5916209 8.3495169 11.063
-0.57684922 1.7771156 8.251009 10.56625
-0.050868064 1.7923241 8.1847105 10.073334
0.28469735 1.8828344 8.218852 10.077
4.7147088 1.9400026 8.2868385 8.0719995
1.5900124 2.2384577 8.3729153 9.0804996
1.7499255 2.3161135 8.2786856 10.081
6.5558419 2.7779293 8.2672977 9.0762501
6.900948 2.8471889 8.0233107 9.0772495
7.8180184 2.9553576 8.2437544 8.0784998
-1.5419976 1.5840516 8.501503 10.0635
-0.45489544 1.4879808 8.4499979 9.5747499
-1.4071189 1.6028701 8.7368393 10.064
-1.1108429 1.6284858 8.5957832 10.06475
-0.57719201 1.7042179 8.6458673 10.06625
1.4668425 2.1850924 8.5291576 9.0799999
4.6394081 2.5351553 8.584034 10.07175
5.8305922 2.6298156 8.633337 9.0742502
6.334404 2.7443161 8.5044861 9.0754995
7.6445174 2.8962386 8.537674 8.0777502
-1.8806962 1.4625276 8.847065 10.06275
-1.2604749 1.5362155 9.1024694 9.0644999
-1.377146 1.6113913 8.9128428 10.06425
-0.88692749 1.6323605 9.0413771 9.5655003
0.99313509 1.9907005 8.9642372 9.0784998
1.9546469 2.2679238 8.8277435 9.0810003
3.8281569 2.5172513 8.9598808 9.0769997
4.2596536 2.578773 9.0916929 8.5777502
4.6806669 2.5469482 9.065547 8.5749998
4.9785318 2.5919867 9.0345993 8.5756254
5.3922224 2.6521926 8.9030132 8.5766249
5.6049013 2.7908931 8.9827976 8.0804996
7.3177948 2.7761567 9.0421677 8.0764999
7.4645314 2.8276215 8.8299103 8.0769997
-11.023098 -0.33977768 9.2806416 7
-1.7680748 1.4126217 9.4212608 9.0632496
-1.439991 1.4956864 9.2317419 9.0640001
-0.14264858 1.5983455 9.5005379 9.0754995
-0.90571022 1.6426337 9.4265594 9.0655003
0.16567636 1.6875327 9.4644032 9.0762501
1.2830075 1.9989533 9.3839264 8.5790005
1.4515693 2.0770741 9.285347 9.0795002
5.7653446 2.5387232 9.3406591 8.0732498
6.3870907 2.6450748 9.2963896 8.0745001
6.631145 2.6840076 9.2484665 8.0749998
7.0630517 2.7345028 9.2679453 8.0757504
-11.015251 -0.37444541 9.6315145 7
-4.3093681 0.87919223 9.8444691 9.0495005
-3.8732276 0.93243408 9.9409409 9.0504999
-1.111033 1.5012362 9.8805218 9.0649996
-0.30458194 1.4811552 9.9137878 8.0749998
-0.51138407 1.6399171 9.9042149 9.0664997
0.30697599 1.7561212 9.9136543 9.0684996
0.59905607 1.8527211 9.7036114 9.0772495
1.0190861 1.9482663 9.6280842 8.5782499
1.5723869 2.1047184 9.696558 8.0795002
1.9047222 2.1940265 9.7377434 8.0802498
6.3439693 2.6254153 9.6596651 8.0740004
-3.4246764 0.98904121 10.026635 9.0515003
0.14904827 1.5748503 10.205069 8.0760002
-0.0070723072 1.6928757 10.027992 9.06775
0.010069869 1.6712421 10.394524 8.06775
-11.030911 -0.45455822 10.518738 7
-0.51225996 1.5331193 10.64908 8.0664997
-0.11995986 1.5382825 10.605052 8.0726662
-0.97060204 1.3802589 11.093876 8.0655003
-0.73540831 1.4517272 10.936506 8.066
0.36740795 1.7336383 10.819832 8.0684996
0.59758151 1.6636949 11.07725 7.53825
4.8861241 2.4482443 11.190586 7
-9.7637825 -0.75868881 11.248676 6
-1.8188496 1.2713895 11.236578 8.0637503
-1.3549614 1.303074 11.347334 8.0647497
1.2602977 1.8127985 11.557014 7
-1.7936475 1.1481812 11.99718 7
-1.4994724 1.2197275 11.645573 7
7.1423292 2.513005 11.988124 7
7.8398647 2.4937959 13.151033 6
-1.1114926 1.1756465 13.389973 6
6.8056393 2.3749378 13.203819 6
-1.9961317 1.0061449 13.617278 6
1.1089019 1.5662827 13.848665 6
6.1423669 2.430151 13.966753 6
-1.7521036 0.98988074 14.098637 6
1.9955934 1.6774969 15.359226 6
-1.8959231 0.58864552 16.047518 5
-1.300997 0.95085937 16.464104 5
8.7634287 3.2759905 17.531685 7
