# .PCD v0.7 - Point Cloud Data file format
VERSION 0.7
FIELDS x y z intensity
SIZE 4 4 4 4
TYPE F F F F
COUNT 1 1 1 1
WIDTH 1189
HEIGHT 1
VIEWPOINT 0 0 0 1 0 0 0
POINTS 1189
DATA ascii
-3.0924342 1.9734147 -3.9593627 18.009501
-2.5738573 1.9932899 -3.829916 20.011999
-2.1544695 1.9503142 -3.9372268 16.005501
2.1637797 1.7585175 -3.631623 10.12625
-2.5447788 2.0855815 -3.7268822 19.341166
-2.2328477 2.2200356 -3.8295381 18.938074
-1.9004436 2.2474236 -3.7956347 20.064974
-1.5794129 2.3045866 -3.9829774 20.863144
1.9475362 2.1091158 -3.7628829 13.127167
2.168575 2.0807006 -3.7292645 12.125999
3.3847828 2.2200301 -3.9943697 10.1245
-2.121206 2.5462556 -3.8614085 19.511499
-1.8521271 2.4412153 -3.9679515 19.01
-1.3708446 2.4607215 -3.7606728 20.407999
-1.0481372 2.4893293 -3.7470543 21.00625
-0.55748993 2.4658966 -3.8181684 22.425165
-0.28666919 2.5119994 -3.8520441 23.134251
0.14399153 2.5428016 -3.8725474 22.7314
0.57031351 2.6350443 -3.834796 20.798834
0.92857265 2.7533228 -3.6486602 19.13175
1.8717391 2.4012363 -3.6927412 15.127167
2.7626653 2.7442837 -3.9621406 14.1235
0.96957701 2.9119663 -3.8170376 18.682327
1.4001784 2.9459224 -3.7793989 18.379
1.7907469 3.0195656 -3.8944147 17.878778
2.1415956 2.9064736 -3.8233113 16.500687
2.5625291 3.1002736 -3.8755889 16.75025
3.0556161 3.1817648 -3.7817459 16.455917
3.653002 3.0575502 -3.6809313 14.1225
2.8887112 3.201915 -3.6829231 16.374874
3.4063625 3.2557995 -3.6881049 16.453333
3.8971219 3.3187666 -3.8652601 15.118875
4.2343869 3.3294828 -3.7654951 14.451
4.5368958 3.3075948 -3.73329 14.241438
4.8429618 3.3855371 -3.6127613 14.11525
5.7566924 3.5507565 -3.7273307 12.613625
-2.1656795 0.99916422 -3.2333848 11.0135
-2.2581944 1.4450758 -3.3443627 18.012501
1.7314049 1.3990929 -3.561563 9.1285
-3.0728903 1.9511086 -3.4056921 19.111149
1.5428838 1.6584207 -3.3531394 11.129
2.0969412 1.7721616 -3.5667586 10.12625
-2.5530837 2.0670235 -3.440958 19.853088
-2.1409419 2.1384695 -3.3723519 21.687216
-1.6059459 2.2882342 -3.5735965 22.435213
0.66508126 2.2262363 -3.2418778 18.133249
1.6856583 2.2125566 -3.4875154 14.461166
-2.1801038 2.4629271 -3.2569623 21.0135
-1.7129495 2.4870872 -3.5689619 21.01025
-1.4108371 2.4866619 -3.5024502 21.508751
-0.99788123 2.470593 -3.3790925 22.577999
-0.63536584 2.4864981 -3.4586725 22.8375
0.23032619 2.6050794 -3.4595928 22.635376
0.6754812 2.7047679 -3.4434037 21.466
0.92550015 2.6184783 -3.4393482 20.1325
2.7538455 2.6246619 -3.5962136 14.1255
2.865458 2.6441412 -3.4551468 14.124625
0.9909749 2.8968635 -3.3779202 20.309921
1.3140118 2.9420428 -3.3453584 19.880001
1.7804402 2.9787352 -3.3923252 19.415873
2.1416271 3.0654829 -3.4525926 18.625666
2.5981941 3.1577785 -3.4290092 17.845778
2.8678966 3.1555252 -3.2725914 17.705833
3.4264274 3.1688848 -3.3770206 16.12225
3.3749709 3.2554073 -3.3503332 17.119333
4.5967431 3.3149629 -3.4542682 14.116
4.8342357 3.4073725 -3.3251281 14.115001
5.7783551 3.5467324 -3.364614 13.113
-1.8453175 0.1663724 -2.8586078 8.0139999
-2.0738428 0.65472221 -3.1045768 8.0135002
0.64261293 1.17012 -2.9966459 15.127125
0.57393122 1.4728699 -2.8203726 19.127125
-3.3573678 1.8957535 -2.9740155 19.013666
-3.0049992 1.9319272 -3.0362692 19.523046
-2.0040567 1.6935813 -2.8664854 17.014
1.4127297 1.8570231 -3.1566975 13.129
-2.6157751 2.0573757 -3.0959938 20.867189
-2.1973546 2.1780844 -2.9666436 21.4884
-1.6862612 2.2570081 -3.0810847 23.005001
-1.5741889 2.2653146 -2.9199467 22.576071
0.71216375 2.2425859 -3.0441992 18.633081
0.81249845 2.2836289 -2.8183801 19.1325
-2.2569757 2.4614811 -2.9668455 22.510624
-1.8189068 2.4948909 -3.0692151 22.512249
-1.4528828 2.4691195 -3.0215135 23.01025
0.25343254 2.6850164 -2.9894094 22.635124
0.51559335 2.6890433 -2.9471562 23.133999
0.91687983 2.7580462 -3.0289233 22.547709
0.35467929 2.816889 -3.0311565 22.63625
0.65050519 2.8268814 -3.1036234 21.485121
0.98989934 2.9020233 -2.8473823 22.394758
1.4011631 2.9494278 -3.0112529 21.235359
1.7762623 2.9977121 -2.975481 20.654152
2.1585693 3.0482244 -2.9807315 20.040871
2.555912 3.1070015 -3.0125232 19.325146
2.9750063 3.1450217 -2.920656 19.119751
3.2400374 3.2271614 -3.105233 17.619251
-2.0715961 0.29240724 -2.6298492 5.5
-1.8289794 0.29935601 -2.5039725 10.414999
-2.082911 0.59586871 -2.6067123 8.2578125
0.73481923 0.76771533 -2.78599 11.125999
-2.5887926 1.0430993 -2.4115331 16.014
-2.1168113 1.0367206 -2.5500894 12.265875
0.75633413 1.042125 -2.4586015 15.6245
1.425675 0.90704799 -2.4117196 8.1289997
-2.1090059 1.3455888 -2.5440683 15.015875
0.68260735 1.4510353 -2.5416238 20.12525
-3.2756431 1.8552915 -2.7121961 19.014
-3.0020971 1.9493549 -2.547617 21.180565
-2.1139712 1.758504 -2.6392794 18.348833
0.48980102 1.8361372 -2.5701621 20.909445
-2.668129 2.0281968 -2.7399573 21.440159
-2.154525 2.2021003 -2.6281438 22.676167
-1.8222284 2.2252843 -2.6795452 22.939583
0.62020499 2.1346476 -2.406441 22.133001
0.10221559 2.7192721 -2.6475141 23.136
0.48885602 2.6998072 -2.6144221 23.133402
4.2284617 2.7527671 -2.5613306 14.114
0.72232443 2.8499804 -2.7749958 22.989697
1.0931239 2.8777423 -2.6919899 22.629562
1.4664553 2.9394076 -2.5915196 22.681883
1.7867705 3.002692 -2.5553753 22.458691
2.1838176 3.0715601 -2.6139617 21.29845
2.5715067 3.149842 -2.6595457 20.788279
3.0052886 3.1543233 -2.6400137 19.577042
3.2772474 3.1727026 -2.4911907 19.117001
3.3702455 3.2042153 -2.6723766 18.117292
3.8310955 3.2468476 -2.4904561 18.31485
4.8036685 3.3772593 -2.6357958 15.113
-1.7283555 0.20279475 -2.1394382 9.2371111
-2.611639 0.78909367 -2.005336 14.0165
-2.0669386 0.64662457 -2.2007658 9.6173
-1.9010578 0.55639112 -2.2469778 13.515104
0.7822004 0.72284436 -2.2542202 11.923501
0.88642216 0.74593055 -2.1778531 12.555283
-2.0624387 1.0363399 -2.2281518 16.012249
0.74257928 0.97961384 -2.3020713 16.124001
0.9976927 0.96766216 -2.0971725 13.45875
1.2626569 0.94140977 -2.1521466 11.1265
-2.1532457 1.339467 -2.1957202 19.180626
-1.8635066 1.571934 -2.2541773 22.007
-1.495477 1.4305395 -2.0621817 18.008499
0.61795986 1.3989944 -2.0842035 21.065094
1.0465401 1.4849778 -2.2793515 17.128
-2.9117694 1.9346756 -2.3458254 21.347334
-2.681531 1.9948864 -2.3886175 22.012751
-2.0829568 1.6502798 -2.3969829 21.0075
-1.8284259 1.6420441 -2.1744473 21.7575
0.56318903 1.7965546 -2.1228027 20.633125
0.85566223 1.7851758 -2.3392684 19.630501
-1.7969493 2.0498424 -2.295259 23.00625
-0.89756042 2.0447755 -2.1366105 23.003
0.28367737 2.2345302 -2.1737776 22.469168
0.54930884 2.1248245 -2.1172791 22.966583
1.0431184 2.1183155 -2.0349495 22.1285
4.1667161 2.7514253 -2.1266499 14.3129
4.4096284 2.7242808 -2.2403018 14.11225
1.9705327 3.0443928 -2.2507312 23.124201
2.2113276 3.0697908 -2.2070117 22.510628
2.7024753 3.1240873 -2.3056335 21.11875
2.949049 3.1349378 -2.0417578 22.116751
4.0500093 2.8187823 -2.3229835 14.614
3.466604 3.2279847 -2.0973582 19.61475
3.8007772 3.2486951 -2.2756345 17.947748
4.2439861 3.2939363 -2.2846811 17.112751
-1.8197792 0.28717506 -1.7751067 9.9316254
-1.5015502 0.32159886 -1.9470261 9.5109997
-2.4825304 0.75559568 -1.7408898 14.0165
-2.1710873 0.72560358 -1.8876826 12.517418
-1.9095677 0.57713407 -1.7522136 12.835684
-1.4999679 0.56137884 -1.749947 13.011666
0.92121172 0.7499761 -1.7861024 11.024712
-2.0174491 1.0037031 -1.7736953 14.019501
-1.891299 1.0108794 -1.8267331 18.26598
-0.95831776 0.93342346 -1.7053691 19.007
0.78349441 1.0838741 -1.8787843 19.571026
0.96756655 1.0102383 -1.6964941 13.239263
1.3411255 0.98596382 -1.9222999 11.125999
-2.6822889 1.5786313 -1.6491232 21.017
-2.024838 1.4026327 -1.909742 19.765999
-1.9036975 1.3860562 -1.796666 21.261312
-1.0846772 1.4090612 -1.8282292 19.0065
0.38727486 1.512435 -1.7080421 22.134501
0.6433025 1.3508507 -1.7259026 20.447582
0.92867064 1.3756914 -1.7622092 16.775885
1.4148221 1.3430508 -1.9001577 14.12625
-2.7902493 1.6177862 -1.9211981 21.017
-2.0469332 1.6450788 -1.8841957 20.018999
-1.8638873 1.7430661 -1.7795908 22.764
-1.039971 1.8433449 -1.7368898 22.538361
0.55392426 1.871904 -1.9015095 22.465061
1.0751597 1.6790045 -1.8336906 20.859467
1.3060174 1.8343785 -1.7284698 20.1255
-1.0211096 2.0800607 -1.7087979 22.837082
1.0811508 2.0392044 -1.746881 23.126999
2.6288278 3.0838902 -1.9043926 22.784418
2.898737 3.1137707 -1.7019339 22.643166
3.380703 3.2172685 -1.9487689 20.1145
-1.5497934 -0.032884613 -1.248443 8.5224171
-2.116852 0.22234616 -1.5041649 9.3515005
-1.772861 0.24016425 -1.4258537 8.5700788
-1.3615381 0.26177305 -1.3861353 8.6835957
-1.1763442 0.39991379 -1.364387 9
0.79961795 0.39934674 -1.4302152 9.9505835
0.84196532 0.33542725 -1.2077736 10.13
-2.2210996 0.61775714 -1.5105759 14.351499
-1.7863035 0.56718242 -1.413471 12.76459
-1.3963616 0.59788525 -1.3294504 13.675813
0.77260351 0.57302904 -1.4627527 12.197701
0.89634502 0.63500261 -1.3638251 11.753595
1.4345212 0.71995717 -1.3135691 8.1234999
-2.1551018 0.99712455 -1.4317238 19.018
-1.7627941 0.9896431 -1.3817127 18.491072
-1.4723442 1.1955711 -1.3363986 19.012501
-0.8272264 0.8753624 -1.4130688 19.50725
-0.58519495 1.0196968 -1.4916701 23.0035
0.75842685 0.99584264 -1.4681076 18.495832
0.9515295 0.95852304 -1.3905847 15.361876
-1.8423492 1.4207904 -1.4558517 20.534571
-1.4477392 1.5019951 -1.3721858 21.010891
-1.0958017 1.4507998 -1.2743237 19.602465
0.75119865 1.4578223 -1.473088 19.863546
0.98972285 1.3345121 -1.4047574 19.343918
-1.9509166 1.7483953 -1.4309345 23.021502
-1.3978214 1.8260865 -1.3823409 23.009293
-0.93399972 1.7223325 -1.3746824 22.392426
0.62931484 1.6712118 -1.4252244 22.298979
0.93429947 1.8584836 -1.5306742 22.626999
1.3209964 1.6521859 -1.4629445 20.124001
-1.3137518 2.0221882 -1.520036 23.0065
-1.1250449 2.0199504 -1.5547922 23.005251
2.9014988 3.1263237 -1.3237423 23.113251
3.3309729 3.2026539 -1.3921273 21.112
-1.8760917 -0.21599598 -1.0045338 5
-1.475484 -0.10282055 -0.95793915 7.7126565
-2.0546846 0.34832764 -1.1025177 11.877321
-1.754295 0.25900409 -0.98523885 8.6955967
-1.4508716 0.22083807 -1.0164357 10.219472
0.85382515 0.25451949 -0.96033359 8.5328264
-2.1076059 0.63330418 -1.0738764 16.02125
-1.7477907 0.56415856 -0.94493705 12.876613
-1.4344201 0.5820784 -0.99206769 13.303769
-1.0860859 0.57094371 -0.88671154 11.67875
-0.70142502 0.76240081 -1.1082594 19.007751
-0.34386659 0.50629294 -0.86341113 21.006001
0.16207427 0.6923883 -1.0669314 18.132999
1.0420502 0.61666137 -0.97619361 11.127225
1.402771 0.63914263 -1.1457011 7.0609999
-2.1355166 0.98805308 -1.0350018 16.892021
-1.77905 1.0050069 -1.0896661 20.141537
-1.4328434 0.91812509 -0.94450229 17.094702
1.0002027 0.97950006 -0.9938513 18.378626
1.2894619 1.0354649 -1.0152583 14.638839
-1.7627459 1.4075147 -0.99404961 21.985718
-1.4111494 1.2734885 -0.93870032 19.224434
-0.92722028 1.403692 -1.008882 20.21652
0.9805904 1.3623375 -1.0020305 20.180286
-2.2398789 1.6640509 -1.0136251 19.013748
-1.7676221 1.9761213 -1.0490191 23.011499
-1.4372225 1.6623068 -0.98553312 22.082071
0.76540029 1.606576 -1.0797329 23.123428
0.96914279 1.6519539 -1.1770327 22.625
1.2755165 1.7409432 -1.0410371 23.121
-2.5995433 -0.022982299 -0.51327097 6
-1.4226993 -0.12296341 -0.54196215 7.1916199
-2.2697778 0.23754953 -0.5069828 8.0179996
-1.7831488 0.21977748 -0.56550848 8.8971138
-1.4385494 0.17987533 -0.59112197 10.256394
0.97024393 0.2873103 -0.55733192 8.4306803
-2.5123453 0.61423546 -0.58334565 11.01775
-2.1499829 0.59909594 -0.60786039 11.685034
-1.7874274 0.54314691 -0.62383491 14.482241
-1.4906833 0.54266894 -0.58770847 15.612478
1.0548521 0.6181702 -0.61138213 12.495261
1.2839525 0.59202623 -0.53138983 9.9263554
1.6935519 0.74850833 -0.46253109 11.452832
-2.0663025 1.0733727 -0.61480331 20.188082
-1.7744666 0.97188824 -0.59234351 19.752638
-1.4501166 0.93739325 -0.66385317 18.087776
1.0068647 0.88871574 -0.62992716 16.690582
1.2758374 0.93085063 -0.60319704 15.663292
-2.2262735 1.414598 -0.44146514 18.5175
-1.8151953 1.337914 -0.68857527 21.43709
-1.4579942 1.3769655 -0.5593279 20.86446
0.96556169 1.2946328 -0.69425064 20.028822
1.2713732 1.277456 -0.61929178 20.647936
-2.6269529 1.8604522 -0.68208992 20.591562
-2.0730057 1.8005729 -0.526573 22.516624
-1.7758688 1.6640291 -0.67251539 22.339588
-2.4464388 2.139879 -0.55344164 23.01675
-2.0860343 2.0028574 -0.79894257 23.014248
-1.9998014 -0.031787723 -0.32911736 5.0999999
-1.3913914 -0.10228956 -0.15529157 6.7328877
-2.2125194 0.32717946 -0.17713688 9.8026114
-1.7339492 0.17623779 -0.24226323 8.0957422
-1.471922 0.16076882 -0.17480731 10.393056
0.97578001 0.31634432 -0.25254497 10.873414
1.200851 0.23544142 -0.0067596436 3
-3.1491375 0.55023074 -0.087711334 10.5215
-2.6602716 0.59234321 -0.26792762 11.232994
-2.1943958 0.6806969 -0.23284163 13.418204
-1.7217624 0.62419647 -0.24195381 15.938715
-1.4865274 0.55917996 -0.15816875 16.984615
-1.1562234 0.54859841 -0.37747103 11.765625
1.0596734 0.59589607 -0.21588774 13.325147
1.3188388 0.65134287 -0.21515122 9.7927761
1.7607303 0.73178446 -0.081111096 10.374732
2.1107273 0.7054711 -0.0958362 7.6205001
-2.593468 0.94407189 -0.13264328 14.449
-2.2800293 0.96868032 -0.21879481 16.470167
-1.7707202 0.93606603 -0.20377374 17.686581
-1.472488 0.99339825 -0.19084707 20.147236
-1.1869494 0.84329653 -0.36466146 15.265542
1.0553024 0.98406458 -0.19709809 18.207994
1.3834877 0.93416184 -0.18362476 16.079704
1.7732435 0.9958455 -0.20945175 16.838331
2.0686378 1.0122426 -0.076966882 15.942668
2.4883628 1.1004585 -0.027267277 13.10575
-2.4952862 1.4480039 -0.14607902 20.105917
-2.2649682 1.5184764 -0.19432986 21.02025
-1.8439637 1.3709219 -0.25079793 21.097174
1.0222838 1.4044149 -0.1384988 20.785755
1.2944715 1.2424467 -0.18076359 22.205952
1.8012502 1.4755076 -0.1473515 22.443834
-2.3459206 1.9747572 -0.34720993 23.018
-1.5262285 1.6214675 -0.12931812 23.018
-3.0135088 2.0145128 -0.29039109 21.019501
-2.6330953 2.1115773 -0.035190225 23.0205
-2.3455467 -0.097423702 0.085609347 5.166667
-1.3272455 -0.086604521 0.28707525 7.7473788
-2.5438118 0.28249478 0.17421928 9.1597157
-2.0531092 0.13561268 0.15786828 7.9312501
-1.7267535 0.19626552 0.15479013 8.5756636
-1.4248637 0.20250744 0.20720524 11.322684
1.0620829 0.31760865 0.1524123 8.7240686
1.2031626 0.3476153 0.18813948 6
-3.4697559 0.65101242 0.26095921 11.5235
-2.9913247 0.5548991 0.093474895 10.898062
-2.5094717 0.64262712 0.26019508 13.109868
-2.1431928 0.74512219 0.14905541 14.92575
-1.7229043 0.62204581 0.18370719 16.051764
-1.5080535 0.66220164 0.15733793 18.723261
1.0654482 0.59757638 0.18369371 14.697872
1.419338 0.67191905 0.15810573 8.5376711
1.7674129 0.59440196 0.19712856 7.77209
2.1142673 0.74725759 0.1778037 10.739109
-3.2420151 0.98031962 0.35349604 14.357917
-2.9511378 1.0331451 0.20524216 15.079333
-2.5580401 0.95234001 0.15732989 15.984535
-2.2336888 1.1587372 0.32287347 19.276875
-1.7237189 0.93699998 0.18651542 20.607828
-1.4305725 0.93034196 0.15133931 19.922176
1.080349 0.98484784 0.25664136 22.542408
1.3245574 0.97118467 0.18064713 16.095171
1.7655169 1.0436829 0.19977252 15.014084
2.1206908 1.068958 0.14475459 15.74593
2.8946307 1.169317 0.26746315 10.1015
-2.5846152 1.4505087 0.23420671 21.967344
-2.2465291 1.5620499 0.060455322 20.021
-1.7916031 1.3710006 0.23382281 23.028502
1.1238201 1.3151519 0.21773508 18.328674
1.4433674 1.3722643 0.17152028 22.224157
1.7486871 1.4030771 0.24663433 20.063791
2.085505 1.5856013 0.017195374 21.606499
2.8527954 1.2639999 0.31279474 13.433667
-3.2814078 1.9704785 0.35344571 22.025
-3.0025687 1.8018909 0.13309461 21.5235
-2.6491909 1.730235 0.23570676 22.150063
-2.3131409 1.7021896 0.26979196 21.522499
1.0084556 1.6731441 0.2714735 23.104401
1.5692955 1.6411368 0.39775234 23.097
2.2701707 1.7343141 0.047575504 23.005501
2.5509017 1.9108235 0.20191944 21.636168
-2.9061952 2.0198085 0.022710443 22.021252
-2.7726059 2.0539768 0.38084936 22.690084
3.6281588 3.1441448 0.39961761 20.60375
-3.9992995 -0.042478472 0.71619904 7
-2.7145822 -0.19599438 0.64001775 5
-2.1391656 -0.050296217 0.59112161 6
-1.392391 -0.095248245 0.62782782 6.285306
-1.1191126 -0.006743487 0.69624573 7
-3.3205132 0.28279236 0.67334449 9.0257502
-2.9206614 0.30591446 0.57163191 9.276125
-2.5815687 0.33781299 0.7704863 10.53475
-2.1222072 0.24923158 0.56406307 9.1698933
-1.7493595 0.21231374 0.55921549 8.6381197
-1.447281 0.2139214 0.63204944 11.575738
-1.1621296 0.20952994 0.70201576 12.360401
1.0972261 0.23112446 0.59574157 6.7382965
-3.7819815 0.62360048 0.49529743 11.02475
-2.8766699 0.59298295 0.65357763 12.497917
-2.6408088 0.65669125 0.55903643 13.130722
-2.1672983 0.6125744 0.61263692 12.676857
-1.7125082 0.62217635 0.54465443 15.426489
-1.4937412 0.6291585 0.57302648 17.980247
1.0716784 0.63428581 0.63823068 14.809125
1.3273706 0.62549937 0.58800077 9.9022923
1.8577268 0.66979533 0.52726382 8.2577915
2.1914659 0.77390385 0.52017617 9.8484993
2.4471154 0.78040099 0.48501015 9.0984287
-3.7361596 1.0711572 0.69944382 14.526501
-3.4842532 1.0219585 0.49175373 14.192333
-3.0040207 0.95024097 0.70630527 14.500077
-2.7178316 0.98566914 0.4606714 17.032
-2.1606326 1.0315573 0.71670973 18.674143
-1.7047213 1.001906 0.57138067 19.765358
-1.5653332 0.91668469 0.65607446 19.021444
1.0358655 0.90249777 0.63106167 19.533184
1.2498411 1.0665174 0.57717574 15.953425
1.7439216 0.96722949 0.5615803 14.10199
2.1865711 1.0864332 0.57368606 15.350065
2.6228495 0.87067449 0.78244328 9.3799286
3.2988253 1.0586841 0.44417596 7.0497499
-3.0197279 1.2886965 0.60848153 18.307777
-2.706537 1.2684916 0.61990637 18.027832
-1.6042829 1.2269247 0.6219666 22.5445
-1.5780735 1.2362624 0.61270022 23.044436
1.1738914 1.3283821 0.61309218 19.145287
1.5111263 1.3031416 0.59731054 20.257736
1.7741975 1.2518677 0.58677679 18.680918
2.2680628 1.4056994 0.56485611 19.899134
2.5206311 1.2759678 0.61002493 12.878056
2.9066105 1.3516979 0.73203635 13.097
3.2485781 1.394164 0.61130691 13.097
-3.0153327 1.8143812 0.60955739 22.744017
-2.704653 1.6096888 0.7180745 23.034
-2.2634645 1.7880411 0.41546512 23.0235
1.03097 1.7826331 0.66117132 23.1
1.5953326 1.6176605 0.62293923 23.098499
1.6849385 1.7989616 0.62224048 23.094999
2.1729648 1.8330401 0.59533268 20.768112
3.2712157 1.6503594 0.50948083 13.4325
-3.0575633 2.0271628 0.55132151 22.4254
2.3581839 2.1602311 0.74655128 22.10025
2.9294989 2.1804328 0.49516273 20.766251
3.3259721 3.0692317 0.70074874 22.101831
3.7479987 3.0522344 0.72514802 18.768581
4.2340617 3.1891379 0.58401704 18.102751
4.4383478 3.1535316 0.79863 17.101749
6.5235896 3.0169556 0.55256587 11.103
4.678761 3.272356 0.54868197 17.103001
5.3125095 3.3121257 0.62676787 15.10275
6.3214288 3.4326065 0.50636965 13.103251
-2.1461458 -0.099557251 0.94474089 5.5
-1.3757222 -0.098726846 1.0116054 6.0214987
-0.91050839 -0.11542012 1.0658624 4
-4.7169447 0.080502123 1.1365798 8.0275002
-4.2133527 0.2008063 0.86919379 8.0264997
-3.7163296 0.34312868 1.0068717 9.5282497
-2.898066 0.3275795 0.94483352 10.032499
-2.4916661 0.32569072 0.96202421 9.695056
-2.0671303 0.31617093 1.033599 10.22296
-1.6025832 0.24338225 0.87961996 8.0421
-1.4759469 0.1961409 0.99245775 10.191131
-1.0460361 0.20690426 1.0672772 11.596354
1.078612 0.34541699 0.96293211 7.6976666
1.3011191 0.23766972 1.0857047 4
-3.0941842 0.64312285 1.0295547 13.011833
-2.6372468 0.45593718 1.1203392 11.704
-2.1212916 0.61403263 0.99096417 12.952719
-1.752228 0.58497649 1.014909 16.003275
-1.4599614 0.58478254 1.0360246 15.787536
-1.1643342 0.67411655 1.0437939 21.156219
1.1075262 0.59138411 0.9898867 12.318439
1.4304879 0.632779 1.0295017 7.5043249
1.7652533 0.70459777 0.91055501 8.9124775
2.2438266 0.58079565 0.91632462 5
-4.5289869 0.95562887 1.0249541 13.027
-4.172905 0.9490968 0.94555414 13.5285
-3.4857416 1.0901213 1.0458943 15.0275
-3.0505705 0.84662199 0.97888547 14.857361
-2.5349221 0.9982971 1.0560552 17.786999
-2.256902 1.0707504 0.99077463 18.449041
-1.7356911 0.99756557 1.0063462 20.620722
-1.5378239 0.90432739 1.0036999 17.525166
1.0997627 1.0213766 0.99131238 19.832027
1.3315552 0.94043911 0.97919911 13.762822
1.8073678 0.92563522 0.80735105 11.844275
2.2361002 0.9266544 0.96593022 11.354654
2.6949441 1.121214 0.98554009 12.33438
2.9633999 0.90136313 1.0102513 7.295125
-3.8158956 1.5192778 1.0247984 18.028999
-3.2807882 1.2828254 1.1708755 18.25878
-3.1021225 1.2179707 0.93887401 18.53525
-2.2441602 1.5819479 1.0936072 22.8309
-1.6191001 1.2203082 0.91405118 21.875999
-1.5428077 1.3080041 0.99968207 22.799126
1.1153245 1.3114294 0.9472329 19.211124
1.4964629 1.3805084 0.98550302 20.528456
1.9010177 1.3628458 0.93690085 16.469
2.1123691 1.4548721 0.99208081 20.592669
2.5204978 1.4745685 0.89432538 19.593107
2.8120918 1.5988089 0.95612425 14.09875
-3.3140614 1.9294939 0.96947938 20.972113
-2.952426 1.8022056 0.87917024 22.594219
1.0340226 1.7620711 1.0576594 21.596085
1.8181919 1.7933426 0.87279409 21.343
2.2604837 1.8351531 1.0734236 23.092501
2.5106452 1.7691754 0.89336878 23.093374
-2.845088 2.0014739 0.92626226 22.027
-2.6686583 2.0399222 0.80126214 23.026251
1.8736054 2.0992026 1.0784332 23.091749
2.9569111 2.9634044 0.90576714 22.766998
3.4251153 3.0436723 1.055775 23.095627
3.8469095 3.0694532 1.0318595 18.766916
4.1468325 3.1562877 1.0311458 19.198351
4.6430602 3.1463745 0.86654902 16.1015
5.0133586 3.2078016 0.83257747 15.101749
5.3312654 3.2559161 1.0708239 14.767542
6.2186255 3.3695331 1.0187204 13.101374
6.4092088 3.3919053 0.91298389 12.101749
7.1049986 3.4696043 0.96680015 11.101749
7.3449268 3.5665855 1.0895491 11.1015
9.0199547 3.776638 1.0772176 9.1017494
9.7238789 3.8151622 1.024215 9.1021252
-4.9055719 -0.18872705 1.5743344 6
-1.7315506 -0.13991623 1.3882565 4.75
-1.3637222 -0.12451241 1.4617825 4.9047618
-1.138886 -0.15606211 1.4816368 5.5
-0.71647787 -0.070319727 1.3994842 5.5999999
-4.7031999 0.14455482 1.3343856 8.0282497
-3.2520015 0.38896269 1.4679362 10.53425
-3.0290616 0.36679107 1.5852466 10.033
-2.7643087 0.29909289 1.2280297 9.53125
-2.2585349 0.30724061 1.4010996 9.9094791
-1.600317 0.23904468 1.5027984 12.090909
-1.3873143 0.2535772 1.3791146 10.856212
-0.92568654 0.2050464 1.446589 10.395715
-0.67823899 0.20213309 1.5453371 8.730051
-3.3481295 0.62702143 1.4175479 13.038
-3.0731473 0.53838563 1.4138236 11.838526
-2.2402532 0.57751775 1.3943695 12.68325
-1.7433112 0.6799376 1.3675483 17.506956
-1.4140925 0.54646432 1.4033021 15.2921
-1.0174948 0.64067602 1.4700071 16.412966
-0.72924823 0.4773463 1.5085189 13.771358
1.0571648 0.61207098 1.3911864 11.999087
1.2697273 0.57908303 1.4364229 9.4693956
1.6494155 0.6217311 1.4067985 7.7922668
2.5294697 0.65445876 1.3359224 5
-4.9158688 0.96000218 1.448819 12.5285
-2.3794081 1.1618298 1.4559972 18.033501
-1.7421066 0.98261863 1.4854538 22.244001
-1.4984472 0.93093407 1.3560929 19.08511
-0.95790797 0.97859305 1.4105692 22.001135
1.1865608 0.93560714 1.2901902 18.544563
1.271253 1.0026847 1.3836616 14.929931
1.6011621 0.82475054 1.3100514 11.311443
2.2711627 0.98377466 1.2337708 10.840083
-5.4115524 1.3801197 1.3163892 14.696167
-5.0832672 1.2726487 1.490489 14.029167
-4.7005286 1.5469031 1.4854136 16.028749
-3.4677365 1.4162728 1.3972225 18.034918
-2.5665438 1.3749775 1.4552794 20.03775
-2.3250377 1.4217064 1.3125644 21.032499
-1.4974612 1.4406168 1.3679352 22.268229
1.088262 1.3501431 1.361605 20.913292
1.3188713 1.4196023 1.2944419 18.42067
1.6641839 1.339335 1.2792388 16.587999
2.3003883 1.2738969 1.2449212 16.09
3.0141711 1.4363604 1.4032671 14.755583
-5.3022943 1.6149009 1.2471552 15.694167
-4.1888046 1.6996269 1.4510704 18.030876
-3.6967623 1.8169303 1.4277891 19.530251
-3.3721588 1.9022884 1.3575457 21.588896
-3.1145306 1.7827684 1.3888869 21.208862
-2.7762027 1.9965761 1.2835128 22.52935
-2.3166142 1.6503166 1.2473038 23.032
1.0637115 1.7950978 1.3511885 20.522501
1.8823413 1.7695125 1.2438326 20.759666
2.780345 1.9836355 1.2201736 22.0905
3.185636 1.6659586 1.533612 16.088499
-2.8945169 2.0201039 1.4581223 23.032499
-2.5459971 2.016618 1.2663929 23.029499
0.99191463 2.0039716 1.4060247 23.0935
1.9077216 2.159338 1.4861059 23.091499
2.6838877 2.8634272 1.325155 22.882839
3.0880435 2.9676437 1.2458453 22.098125
3.3529224 3.0184851 1.5335305 20.696825
3.775322 3.0603099 1.3258796 20.016851
4.2837114 3.1230721 1.3738253 18.221626
4.6842742 3.1586201 1.4750684 17.356384
4.9789143 3.1386199 1.3704002 14.766167
5.5244484 3.2672498 1.4305716 14.0995
6.1517701 3.3445833 1.393701 12.988945
6.5632067 3.4149671 1.3521234 12.100375
7.0055313 3.4778454 1.2406089 12.101
7.3499398 3.4758589 1.4936841 11.10025
8.4881048 3.7318735 1.3398712 10.101
9.0592918 3.7446454 1.5107485 9.10075
-4.4866552 -0.16525242 1.9703368 6
-3.6204596 -0.011046946 1.7444921 7
-1.4075283 -0.11097287 1.7600685 5.5
-1.0649899 -0.023717463 1.6133133 5
-0.77659088 -0.12555584 1.6308398 4
-4.8703208 0.14809275 1.728637 8.0314999
-4.4331074 0.19325696 1.7426827 9.0319996
-2.5239906 0.30317357 1.9050359 9.28475
-2.3690836 0.2123296 1.7640698 9.0354996
-1.4092025 0.24324863 1.8644177 9.164691
-0.89936954 0.14717367 1.7550732 8.7026396
-0.42592883 0.18389678 1.8379923 7.6236668
-3.241384 0.6521858 1.9377942 13.04125
-2.4430687 0.52420759 1.8828498 11.702749
-2.0124788 0.73938823 1.8253312 15.044833
-1.7407815 0.62110138 1.7127483 15.881229
-1.3854566 0.56426907 1.8053241 12.584858
-1.0525577 0.70825827 1.8820314 16.605083
-0.61657345 0.61545205 1.8773867 14.001844
1.3644644 0.6524443 1.7434877 8.8172359
1.6617479 0.41061014 1.6272743 4
-3.754977 1.1186606 1.907613 16.040001
-3.5523143 0.9935407 1.6693819 15.1141
-2.9989026 0.94607568 1.7002017 16.040501
-2.6088698 0.88019878 1.8781133 14.535749
-1.7701364 0.96482474 1.8307322 18.993
-1.4629318 1.0377014 1.8047329 17.303169
-1.0356361 1.1526401 1.8217397 22.156099
-0.67613864 0.8687458 1.8255548 19.0588
1.3612298 0.98841721 1.7510618 12.040563
2.1274588 1.1642166 1.6444082 12.09
3.4684854 1.1482985 1.8399515 8.0865002
-5.2525063 1.2472095 1.9484205 14.032
-5.0491281 1.420566 1.6976472 15.029999
-4.5732441 1.5260159 1.8326868 15.696945
-3.6818969 1.547483 1.7480717 18.705999
-2.5405335 1.5179883 1.8842449 20.594084
-2.0299401 1.2390537 1.6310108 18.033001
-1.7991332 1.2451062 1.9337431 23.048
-1.456574 1.2801464 1.7710345 19.305916
-0.75248468 1.2222507 1.8475933 22.2265
1.2452098 1.415617 1.8038584 16.592184
1.7122325 1.3589023 1.6375492 16.587999
-4.0736036 1.6868442 1.9999387 17.364832
-3.83008 1.7605611 1.821818 19.117672
-3.2570794 1.8804022 1.8030249 20.784668
-2.8915615 1.9584439 1.7894247 22.05011
-2.6299214 1.7748222 1.7300267 22.098499
-1.3894539 1.6895264 1.8347737 22.80271
-1.0830908 1.7268882 1.8336717 23.052999
1.0943201 1.8923132 1.7659606 19.591499
3.3435497 1.7920462 1.806155 16.087
1.0638547 2.0459559 1.881034 21.091
6.1888294 2.7740474 1.9310184 10.098
2.3197229 2.8058267 1.8080065 23.089251
2.5544052 2.8259957 1.7966027 22.162811
2.8508437 2.897181 1.7123277 22.273188
3.403861 3.0091565 1.7404809 21.630711
3.6755342 2.9881122 1.8767428 18.2957
4.2911668 3.0683219 1.7764744 17.428751
4.6682053 3.1294255 1.6925385 15.847875
4.8600292 3.155087 1.8186241 17.009769
5.2588711 3.1830649 1.9289333 14.0975
5.574017 3.2230012 1.967927 14.0975
5.7102766 3.2834091 1.7043349 13.09875
6.0773778 3.3227842 1.9627192 13.098
6.4837136 3.3549302 1.722991 12.224125
7.5409465 3.5021071 1.8473427 10.432667
9.0913696 3.700665 1.9289833 9.0997505
9.5585203 3.7375767 1.6185701 9.10075
11.71276 4.1014409 1.9433541 7
12.100638 4.1946497 1.6874685 7
13.941836 4.3652239 1.8527594 6
-1.4263303 -0.081426106 2.1146576 6.5
-4.5995479 0.15431702 2.0974908 8.0322495
-4.0061388 0.2205607 2.1034834 9.0319996
-2.5508261 0.1630623 2.1860535 8.0375004
-1.616789 0.18857725 2.2769828 9.7419291
-1.4907498 0.10679789 2.2401989 6
-1.1313945 0.1395333 2.1458647 8.8164377
-0.50152481 0.16785061 2.3124702 6.2792916
-0.26670286 0.26932013 2.1048853 8.5508337
-4.0188828 0.71320784 2.1300628 12.0405
-2.6533053 0.73771644 2.2678821 12.704501
-1.7901969 0.69440651 2.2082727 15.192012
-1.327354 0.5989455 2.1874771 11.058605
-1.0019126 0.58511603 2.205971 13.817555
-0.52421182 0.56788021 2.2142944 12.980721
-0.28914285 0.51027393 2.3033772 11.360799
0.82809812 0.62064624 2.1443641 9.0749998
-6.02143 1.1928533 2.2279868 13.0305
-5.6558299 1.1921476 2.0041864 13.03
-4.0403519 1.0844051 2.2332344 14.541
-1.6885271 1.0234993 2.221508 19.451075
-1.3669704 0.9155308 2.1623785 14.77305
-1.0155454 1.0255251 2.1998484 18.395998
-0.5979932 0.96876234 2.2892342 17.554081
-0.32852516 0.89381379 2.3061068 16.20875
1.3300483 1.0507851 2.1058517 12.753875
-5.8873343 1.2898172 2.2352328 14.0325
-5.5320978 1.447739 2.1476843 15.032499
-5.0640693 1.3662167 2.2345629 14.532001
-4.5305271 1.5433621 2.150387 16.282625
-4.2460833 1.5916995 2.0421844 16.5315
-3.5178492 1.2879628 2.1404657 17.04175
-2.2718968 1.436529 2.107734 19.0355
-1.7768999 1.4089065 2.3420129 21.967251
-1.3982918 1.3590429 2.1588616 18.171783
-1.0294168 1.4764075 2.2709339 23.046
-0.65012676 1.378781 2.2385623 22.308182
-0.38827461 1.3647292 2.3762271 20.828751
1.26732 1.3363262 2.0846953 15.310222
-4.1599236 1.6358824 2.3206446 16.983862
-3.7549584 1.7659549 2.120327 19.259056
-3.4858036 1.8005105 2.2412255 19.492434
-3.0677674 1.8834803 2.2267408 21.21427
-2.7542984 1.9644802 2.2254322 22.853718
-1.3619748 1.7898648 2.2300858 21.805775
-2.4628158 2.0156958 2.0177603 22.867918
-1.4462869 2.0561178 2.2506039 23.05175
1.920648 2.6889744 2.2435188 23.084999
2.3278704 2.786109 2.0683553 22.634953
6.1789889 2.7826738 2.139406 11.092751
2.2935002 2.8036349 2.2190614 23.089001
2.5447669 2.846046 2.1834195 22.315502
2.9329743 2.8955083 2.2175603 21.626266
3.3703189 2.9484363 2.2249193 20.677013
3.8568506 3.0106502 2.2272105 19.922604
4.256052 3.0057087 2.1384044 17.29285
4.6154618 3.1082926 2.1542482 16.530832
5.0726757 3.1550527 2.0907624 15.09425
5.7533345 3.25278 2.2159641 13.8445
6.5549841 3.2980056 2.1518652 12.09775
6.9844894 3.4704239 2.2048776 11.098
7.6877975 3.5141861 2.1748466 10.0985
9.0916805 3.6611178 2.2380443 9.099
9.3489876 3.6682074 2.1061213 9.0994997
14.336372 4.4015059 2.2208426 6
-4.4907961 0.084714673 2.7228222 8.0389996
-4.3066764 0.1652707 2.4584434 8.033
-1.6229806 0.17330742 2.6128466 8.7046785
-1.0068599 0.22611637 2.6660638 8.2267494
-0.59298086 0.27281356 2.5093005 7.872375
-0.14167702 0.24779052 2.6427891 6.7208033
0.16577114 0.23341525 2.6832314 5.9060555
0.61350751 0.30234319 2.6812553 5.625
-4.3356695 0.74067128 2.7346208 12.0425
-2.7115357 0.63979244 2.5135078 12.046
-1.7084433 0.63947666 2.5567143 14.651899
-1.432323 0.63000309 2.5591991 11.223167
-0.54548889 0.6006254 2.6207402 11.988856
-0.13404424 0.58188373 2.647872 11.114716
0.32028726 0.50373238 2.6176074 9.693471
0.57102668 0.5801183 2.6443546 10.0565
0.87384218 0.67786866 2.7638924 11.06
-2.8772449 0.85986292 2.5971055 13.039
-1.7681831 0.9929359 2.6900945 16.553917
-1.3418936 1.0712461 2.6119864 13.934
-0.97791535 1.1212283 2.561594 18.184313
-0.60427248 0.90107042 2.5221117 16.205242
-0.21371184 0.95087081 2.6418192 15.597051
0.16784942 1.0543849 2.7271211 17.055031
-5.8580966 1.2386829 2.5067699 13.365499
-5.5517149 1.2933152 2.6977944 13.833426
-5.0128956 1.4270806 2.4674859 15.03325
-4.6621766 1.4914287 2.6729743 15.589723
-2.9996393 1.2790354 2.5537596 16.5385
-2.5913062 1.4669271 2.6276016 18.5425
-2.1063101 1.5471646 2.6028237 20.052999
-1.8541025 1.5086789 2.559998 23.052
-1.3356533 1.4714715 2.5218489 17.806999
-0.98309922 1.3240461 2.6355634 20.553749
-0.62850827 1.4450215 2.6241171 21.76885
-0.28558409 1.423085 2.6763289 20.926512
0.36725348 1.3874214 2.740643 20.558624
1.3363417 1.5322182 2.7807188 13.0875
-4.1248298 1.630134 2.6749814 17.483084
-3.8333011 1.6895947 2.6773105 17.975658
-3.5310557 1.775365 2.5442553 19.793875
-2.9643607 1.8391199 2.628515 20.48361
-2.6137931 1.9307989 2.6501722 21.791962
-1.3492075 1.6564037 2.6463234 18.807251
-0.17452136 1.6473155 2.7749851 22.917946
1.3874888 1.7962978 2.5200353 21.0835
-2.2596107 2.021385 2.5907397 22.790039
-1.3462402 2.1440542 2.6329367 22.389418
-1.181109 2.3115253 2.7526555 23.055
-0.74282509 2.3069119 2.7493632 23.057999
0.60328108 2.3755147 2.6624901 23.067751
1.0393043 2.3110704 2.630487 21.229248
1.3309677 2.3959033 2.6165729 22.183723
0.65503395 2.579288 2.7084718 22.885851
1.0280333 2.5168011 2.5729451 22.5797
1.2686576 2.5844016 2.7144308 23.079248
1.8119681 2.6598923 2.592952 22.834249
2.1657586 2.7443891 2.5957274 22.400705
2.4236517 2.7563481 2.5698714 20.485834
2.3379216 2.8051956 2.4484267 22.087948
2.6389167 2.8364601 2.4989197 22.353973
3.0637927 2.873179 2.6168752 20.082815
3.3950942 2.9187465 2.6114712 19.908621
3.9477932 2.9566822 2.6618361 17.172813
4.2984142 3.0191922 2.6326575 16.990612
4.7719598 3.1004608 2.6661873 15.358899
4.9302535 3.1006198 2.5640154 15.6745
5.4545012 3.1424189 2.5966752 13.928374
6.483777 3.1628647 2.5548136 12.091749
5.1315889 3.2137053 2.624397 15.0945
5.4800763 3.2108498 2.7273924 15.587999
5.7473598 3.2450857 2.6091623 14.258167
6.6634197 3.2930303 2.5750401 12.0965
6.83254 3.3503349 2.7544861 11.096251
7.8335366 3.4886165 2.6751256 10.09725
9.1610861 3.6323733 2.7202728 9.0979996
9.2972651 3.6689343 2.5340908 9.0985003
10.97632 3.9651856 2.5977178 8.099
14.717463 4.4296041 2.6306229 6
-0.99834305 -0.11634892 2.9283347 3
-0.66624784 -0.070577577 2.9768028 4
-4.0900793 0.18601766 3.0236173 8.0354996
-1.6599989 0.2646696 3.1110702 9.3876657
-1.1087381 0.29316378 3.0733132 9.0690002
0.27358878 0.30371523 2.998796 6
0.60476357 0.29071254 3.0919273 5
1.4483749 0.30431128 3.0643158 5.5
-1.6890517 0.65794605 3.0527697 13.304376
-1.4083983 0.54842728 2.8866723 10.390056
-0.43437761 0.55702674 2.8538299 10.812036
-0.14884755 0.70629084 2.9657395 11.56425
0.23024035 0.54109794 2.9891107 9.2109423
0.55313742 0.68635952 3.051722 9.8546867
0.96467209 0.66956139 3.0320485 8.9627295
1.3491707 0.55054873 3.0576532 7.1664
1.7140021 0.65205252 3.1547842 6
2.2066927 0.58613145 3.1493909 4.5
-4.7111812 1.0657359 3.1068249 13.528834
-1.7338339 0.92435515 2.9350615 15.803875
-1.2479075 1.014232 2.9783683 13.293968
-0.97353387 0.94813019 2.9760251 13.558001
-0.40609831 0.93033296 2.9288511 15.164723
-0.28746378 0.86251754 3.0188155 13.392223
0.1419208 1.0078921 3.0371318 14.920084
0.48783913 1.0711492 2.9563119 15.317065
0.97328424 1.0568013 3.0589247 13.804629
1.3671516 0.9673174 3.0877812 11.836901
1.6743286 0.88319325 3.1638918 9.0785007
2.2695854 1.0189754 3.1771038 8.0820007
-5.394865 1.2973155 2.9632235 13.7845
-4.9707289 1.413491 3.100528 15.005316
-4.6341863 1.4334841 3.0964797 15.192917
-4.2467766 1.5412463 3.0296547 16.150194
-3.9659967 1.5950292 3.1456039 16.78875
-2.9000115 1.2292044 2.8875222 16.040375
-2.735507 1.2957531 3.1821923 16.04225
-2.050529 1.5594622 3.0221641 20.052
-1.7975724 1.5679356 3.0032296 21.054501
-1.3637569 1.259038 3.0272541 16.06575
-0.5489043 1.3970928 2.9189827 18.725292
-0.28034753 1.445545 3.0118489 19.935501
0.14599283 1.3563966 3.0232909 18.196707
0.65706336 1.4873673 2.9171906 20.064209
0.95798868 1.5858077 3.0506434 19.566999
1.4498322 1.3536568 3.03618 15.29125
-3.7395434 1.6606197 3.0272408 17.540876
-3.4465113 1.754874 2.9080563 18.639513
-3.0181777 1.8694807 3.0482664 20.490055
-2.5980062 1.9051903 2.9396925 20.917322
-2.2457938 1.9664915 2.9825246 22.000969
-1.9323089 1.8917668 3.0748444 22.033148
-1.4030116 1.8490834 3.1033578 20.399334
-0.48107976 1.605472 2.9344745 21.942833
-0.0087644905 1.7633425 2.9699783 22.675934
0.20506376 1.7383872 2.9851689 22.2645
0.62306833 1.7410386 2.8947604 23.0595
0.98243427 1.8691362 3.0864191 21.67872
1.451425 1.7665151 3.1154661 18.082001
-2.0599358 2.0401766 3.0658751 23.0525
-1.8489652 2.0613346 3.01088 22.877333
-1.3607419 2.1359706 3.0193834 22.183876
-1.0019584 2.2118342 3.0426049 22.764126
-0.62966228 2.2695885 3.0421944 22.800734
-0.19996445 2.3325086 2.9599326 22.942751
0.19728585 2.3337262 3.0257175 22.511927
0.70363414 2.3478086 3.060627 22.322437
1.0114664 2.3416777 3.0225425 21.974476
1.4354016 2.2753668 3.0463378 22.082085
1.6316619 2.3942041 3.0603528 20.073
0.18961823 2.4126806 3.0930314 22.826313
0.55189234 2.4868176 3.028137 22.648546
0.91751379 2.5500674 3.0120308 22.2572
1.4327677 2.5640259 3.0957954 22.189886
1.8291198 2.6647153 2.9465485 22.396311
2.1354518 2.7064712 3.0008678 21.144182
2.5155964 2.7703073 2.9736328 21.607492
5.3854198 2.6551135 3.0936725 11.093
2.7596879 2.8152213 2.8105237 22.637611
2.9722903 2.8435419 3.0216787 19.090622
3.3802607 2.8801079 3.0659535 18.891006
3.8549259 2.9600558 3.0660698 17.04834
4.1950641 3.0064807 3.0179095 16.540964
4.6284881 3.0596592 2.9544196 15.03039
5.0071735 3.099791 3.13696 15.3375
5.3526063 3.1245134 3.0629718 13.491767
6.4352107 3.1578503 2.9190426 12.0905
5.5922918 3.2092967 2.8065042 13.094749
6.903398 3.3308718 2.9794426 11.095584
7.2302971 3.420588 2.9962428 10.096
7.9887853 3.4897459 2.8005459 10.097
8.0199814 3.4512005 3.0969961 10.096251
8.8120213 3.5625727 3.0434353 9.0970001
10.462152 3.8539839 3.007822 8.0979996
0.17044452 0.21461529 3.4695024 5.333333
1.1211128 0.37328231 3.3173132 5
-4.3727036 0.69990194 3.2140551 11.038
-3.8540845 0.74553812 3.561754 11.038
-1.7085789 0.60785329 3.2727716 12.055
-1.1830205 0.5923233 3.368572 8.06425
-0.12754756 0.52585405 3.2638221 9.0562496
0.081157029 0.64772832 3.5662653 10.0585
0.59662104 0.68287432 3.3550341 9.4841738
0.93003488 0.70800006 3.3664114 8.5366879
1.3895174 0.48116165 3.5775108 5
1.6724087 0.61627609 3.3093567 5.8333335
2.7951043 0.7940309 3.2542093 5
-3.3068523 1.1477311 3.40732 14.374667
-1.8005008 1.0776883 3.5820727 15.056
-1.1935033 1.0077499 3.2643504 12.064
-0.7948522 0.84272748 3.5229261 13.062
-0.095869452 0.96275508 3.3793912 13.34075
0.19939776 0.99676746 3.4220891 13.373148
0.6077897 1.1438041 3.2883623 14.508796
1.1027145 0.83065641 3.5839393 8.9070005
1.4919742 0.8645786 3.2270813 9.5734997
1.7897792 1.0254054 3.2685323 10.490168
2.119468 1.075326 3.2920315 9.0808754
2.4600575 1.05353 3.3206484 8.0825005
2.9223597 0.81051409 3.2579305 5
-5.6936097 1.2645172 3.4769495 13.03675
-5.1734266 1.2741603 3.5006821 13.0355
-4.6651692 1.4072084 3.3700428 14.956082
-4.1261177 1.5606463 3.2703204 16.542126
-3.897912 1.5851927 3.2585382 16.037001
-2.1905956 1.3587772 3.4477279 16.0425
-1.3164699 1.3694675 3.284184 16.06225
-0.58522296 1.4870583 3.2300937 19.063999
-0.017749235 1.4153758 3.2687831 16.068001
0.18364251 1.5120817 3.2829928 18.937063
0.58222979 1.5416613 3.380944 17.533007
1.022616 1.2327923 3.3406124 14.345471
1.4306927 1.3020539 3.3450384 12.260767
1.7012497 1.4131362 3.4206049 13.575813
2.1542273 1.4284747 3.3851233 12.327875
2.6636305 1.2683688 3.4782677 9.0830002
-3.7016931 1.6416347 3.3654795 17.210209
-3.4136605 1.7409971 3.39692 18.091404
-3.1458497 1.7691159 3.4123242 18.292439
-2.6161308 1.8623416 3.4381294 19.796909
-2.1641462 1.9486654 3.4145157 20.921965
-1.871058 1.9832815 3.433378 22.656101
-1.3769554 1.9293286 3.2054524 22.070429
-1.1769086 1.9685611 3.4892113 19.064501
-0.23747772 1.8257899 3.4201984 21.512945
0.24551404 1.7309362 3.3152566 21.056665
0.54521829 1.8054132 3.3611143 20.111723
1.0648603 1.7043098 3.4064784 18.237793
1.2891271 1.8029487 3.4256699 17.490543
1.6622361 1.9572177 3.4171534 18.242208
2.0750148 1.7142639 3.4306173 14.577625
2.5883243 1.8183298 3.3410516 14.08375
3.0500202 1.8710713 3.3796282 12.585501
-1.7738001 2.0535975 3.2602096 22.876011
-1.424842 2.1104381 3.4293909 22.645201
-1.0011293 2.1782787 3.4164271 21.563646
-0.56267816 2.2074137 3.4281781 22.384323
-0.18901466 2.2818711 3.3863449 21.676542
0.18173149 2.2828476 3.4557691 22.428345
0.58135992 2.3210649 3.4548278 21.628941
0.97585964 2.3375378 3.2785368 21.073812
1.406655 2.2761507 3.3474116 20.969385
1.8413607 2.1706202 3.4368293 18.142164
2.4396713 2.0866365 3.505055 15.83275
3.1555076 2.1553841 3.408901 14.086
3.548547 2.369858 3.5512874 14.087
4.9129944 2.354923 3.4272261 10.0895
0.3702665 2.4322438 3.4900453 23.07225
0.61931312 2.4311743 3.3432181 21.791328
1.0161732 2.5050559 3.4118266 21.9412
1.4085846 2.5454519 3.380909 21.739588
1.8114163 2.6193173 3.4863758 21.410719
2.2259011 2.7003906 3.3587606 20.878233
2.5709479 2.7421966 3.3778977 20.210901
2.978523 2.7705967 3.437768 17.619081
4.600769 2.7088158 3.4896095 12.363083
4.9075675 2.781687 3.3265929 12.09
5.2482023 2.5572321 3.2325838 11.09225
3.0522618 2.8294194 3.344799 19.595919
3.3695517 2.8368425 3.4942787 17.733383
3.8103545 2.9478281 3.3669944 17.014347
4.2612295 2.9932892 3.4283893 14.892166
4.5935946 3.0667968 3.4046707 14.556417
4.8496399 3.0385139 3.3909709 15.219867
5.2541285 3.0810952 3.2992027 13.964812
5.8208704 3.1737304 3.4244082 14.086
6.3222485 3.1321397 3.3239098 12.089
5.904469 3.2135084 3.5016792 12.093
7.0086832 3.2814834 3.4416425 11.094375
7.2437849 3.3299375 3.3155224 11.09025
7.7982116 3.4410334 3.4697149 10.26025
8.1104155 3.4633169 3.3958421 9.5956249
9.8726864 3.747196 3.4647913 8.0967503
10.245914 3.8172793 3.2095842 8.0974998
-1.00916 0.38079327 3.7572064 8.0705004
0.01541014 0.15182015 3.806756 5
0.42675775 0.15237114 3.9030263 4
1.0344042 0.38533166 3.6491981 5
1.3201535 0.36711845 3.6294074 3.8
0.63000345 0.6378777 3.6040332 9.2585001
1.0082453 0.74281168 3.6439884 8.271945
1.3975582 0.64661741 3.7283845 6.5187502
1.8161573 0.64445519 3.7414391 5.4333329
2.0052557 0.63410783 3.648278 5
3.1645937 0.75827444 3.6835277 4
-6.9664364 0.90721995 3.8610024 11.03425
-4.5360937 1.051235 3.659817 13.0455
-3.4295444 0.94650698 3.7713296 12.54225
-1.1504576 1.0260246 3.8647161 13
0.37047809 1.0014433 3.992393 11.728001
0.71551275 1.0695258 3.7196205 12.465417
1.0134521 1.0543414 3.8024833 11.196031
1.4118923 1.0710373 3.9054744 9.9594002
2.2346323 1.0218208 3.6804724 7.8051667
2.4392214 1.1308794 3.6967068 8.1999998
3.1180997 1.1122146 3.6098082 7
4.142036 0.92435747 3.7121968 3.6666667
-5.076941 1.3145854 3.8495684 13.540874
-4.7519975 1.3581755 3.7613015 14.162001
-4.1801338 1.5070136 3.8023334 15.291063
-2.1499033 1.3849131 3.7204819 16.331751
-1.873595 1.5552551 3.9022098 18.056999
-1.2574235 1.3844945 3.8887014 15.785416
-1.0075799 1.3153678 3.9779711 14.605466
-0.47080451 1.5415515 3.7238884 18.056
0.20809437 1.3537821 3.7214687 15.838237
0.64522189 1.4575996 3.6673958 16.681433
0.95222449 1.4403561 3.7313616 14.407241
1.4128048 1.437963 3.8112655 13.390834
1.7874223 1.2780544 3.6818364 10.800808
2.193023 1.4392215 3.776521 11.240933
2.7288046 1.3887306 3.7942841 9.0830832
3.0953033 1.3311887 3.709923 7.75
3.4173057 1.4861593 3.7279756 8.5861673
3.8341105 1.3702738 3.7764397 7.0434999
4.1160812 1.2297884 3.7399242 5
-3.3593483 1.7013317 3.7386925 17.435999
-2.8779514 1.7893081 3.7189705 18.107719
-2.7346134 1.7943141 3.9279494 17.880833
-2.1663764 1.8619736 3.8381958 18.96871
-1.6783355 1.8864356 3.8543568 20.068565
-1.3765469 1.9267941 3.8068051 19.950418
-1.0110682 1.9941953 3.7813048 20.073124
0.023080766 1.9740722 3.7767189 21.059999
0.59783757 1.8555114 3.6484261 19.368959
1.0474709 1.7748853 3.7364466 17.132383
1.4911559 1.8143144 3.6902099 16.741583
1.7966617 1.7718502 3.7237563 14.250422
2.289531 1.8101524 3.7022381 13.845984
2.7324145 1.8665975 3.7538452 12.44195
3.9695578 1.804347 3.8503647 8.8366241
4.2129827 1.8824492 3.8183906 8.7537498
4.4959698 1.752637 3.9428995 7
-1.9654559 2.1241381 3.8830624 21.568251
-1.3061434 2.0411739 3.7940102 21.004751
-0.97492886 2.1749012 3.7724912 21.268358
-0.60327476 2.1805646 3.7708695 21.095444
-0.17350006 2.2468195 3.7905321 21.040047
0.17818595 2.3141751 3.8117702 20.710344
0.62631232 2.2655146 3.8169322 20.823809
0.96736717 2.3013608 3.8331454 19.684465
1.4346949 2.2754643 3.8296237 18.172729
1.8933815 2.2789712 3.848634 17.183258
2.1680839 2.2586324 3.7732308 16.385111
2.6000519 2.2403414 3.7821743 15.041875
3.1087279 2.1833186 3.7871044 13.335438
3.4845972 2.3058267 3.8491883 12.919833
4.5286493 2.1335151 3.6815126 9.4877996
4.8087997 2.0925002 3.9975536 8.5887499
0.59567386 2.4319069 3.8842671 22.103891
1.0189393 2.4825339 3.7980547 21.385506
1.3925772 2.5233898 3.7891493 21.640089
1.7955085 2.5516412 3.7860591 20.151909
2.1976337 2.596647 3.77071 18.806437
2.6454844 2.6429672 3.8576643 17.759754
3.0445378 2.6721218 3.8121848 16.912275
3.3225799 2.6312721 3.8500645 14.934117
3.8356819 2.6215765 3.8852468 13.2918
4.1636047 2.5499983 3.8702111 12.305753
2.9651053 2.8568892 3.9174967 17.084499
3.4425228 2.8330421 3.8629239 16.305111
3.8237519 2.8893023 3.7501438 15.698473
4.2336388 2.9660172 3.7983897 14.906544
4.64077 2.994333 3.7475963 14.61285
4.9257898 3.0013855 3.8162396 13.559418
5.3583698 3.0897932 3.6524653 13.256834
6.0736833 3.1386313 3.8357601 12.092
5.36622 3.2183809 3.6842947 15.084249
6.9667363 3.3464587 3.615449 10.594
7.4292402 3.3317032 3.8545175 11.089
7.7531686 3.388485 3.6981869 10.091333
8.1439896 3.3830287 3.8534925 9.0944996
9.3675394 3.6598625 3.7870755 8.0957499
-3.4185925 -0.38410419 4.0607033 4
-0.9234466 -0.16483918 4.0546656 4
0.75763613 0.38199636 4.3918595 5
1.3239573 0.4965823 4.3901901 6
1.7659349 0.55257094 4.1833429 5
2.1635695 0.67364478 4.0103064 6
-6.5995035 0.93815756 4.0022926 11.035
-6.3011169 1.0019873 4.2393675 12.036
-5.8159938 1.1542442 4.3271337 12.039
-3.6020265 0.95838726 4.2779827 12.0435
-3.5790687 1.0439522 4.113863 13.043
0.29409593 1.1443281 4.0161238 13.061
0.5800162 1.0642865 4.2525539 11.56275
1.1614809 0.96557474 4.3077245 9.5681496
1.5391836 1.0261476 4.199255 8.9506254
2.2185202 0.88008094 4.3893437 6
3.3541522 0.94323373 4.2273569 5
3.6351938 0.98331153 4.0000982 5
-5.06776 1.2930762 4.0892997 14.04575
-4.6056185 1.3923714 4.1300874 14.24275
-4.3835464 1.4056778 4.2306147 14.2935
-3.646045 1.3432921 4.2735319 14.5435
-1.5999055 1.4227394 4.1156449 16.050501
0.21101058 1.2446005 4.1845036 13.068
0.46939355 1.4638526 4.2244205 14.729167
1.0982636 1.4978747 4.2792077 14.262799
1.7203417 1.3163762 4.2096181 10.5765
2.1135755 1.3827367 4.2291217 11.072
2.6806469 1.4653342 4.1513443 11.072
3.0619009 1.5919808 4.0679302 10.083
3.2013068 1.2103939 4.2619653 6.5
3.9538381 1.3223284 4.2036495 6
4.2428889 1.3599617 4.1475425 5.6666665
4.7155142 1.4604081 4.1373391 5
-3.4173684 1.6472108 4.1656771 16.422188
-3.0511546 1.733145 4.059134 17.384834
-2.628062 1.771211 4.1985197 17.633707
-2.2745855 1.7837443 4.2798767 17.219248
-1.7028389 1.9410608 4.242559 19.554874
-1.4195864 1.9495273 4.2907419 19.061001
-1.0388906 1.9576989 4.0768843 18.573002
0.94909716 1.7270368 4.1412792 16.813417
1.46822 1.7075243 4.1024337 16.0655
1.7222574 1.8512199 4.2188344 14.077
2.463347 1.792188 4.3737264 11.4804
3.0012069 1.7890249 4.1787572 11.329876
3.397619 1.7408295 4.2739358 9.2502499
3.7880802 1.7848346 4.1882658 8.9850998
4.174633 1.7065604 4.1660209 7.7099166
-1.281059 2.0765753 4.2143507 18.554625
-0.96391022 2.098815 4.2145519 19.226574
-0.62869382 2.1207075 4.2253656 19.726936
-0.20699067 2.1782753 4.2131014 18.717964
0.21214101 2.2636285 4.1406932 19.081347
0.57080615 2.2993128 4.2651777 18.174242
0.92215341 2.2859304 4.3063402 18.236717
1.7165084 2.3016076 4.1901979 16.320873
3.06251 2.0268695 4.1747646 11.666959
3.6160979 2.3909192 4.239532 12.084
4.2591228 2.1769524 4.1634951 10.087
4.4951868 2.0501947 4.0127754 9.0880003
1.0582824 2.4378693 4.3000236 17.744307
1.4850554 2.4867995 4.2622867 18.076626
1.8568888 2.562397 4.1504335 19.781385
2.2406507 2.6077063 4.1264677 20.320999
2.5991068 2.6742311 4.2550626 17.465267
2.9287071 2.6952772 4.1618547 17.141811
3.3678188 2.6153622 4.1913743 13.9502
3.7780941 2.6579263 4.1145043 13.371374
4.1773081 2.5962167 4.2374449 12.211876
4.5600419 2.5604603 4.0080957 11.255334
5.1678762 2.6797736 4.038136 11.09
3.3786108 2.8127804 4.2638474 15.831917
3.8160255 2.880693 4.1434922 15.167562
4.2365198 2.9451537 4.2218637 14.334499
4.5655251 2.9366753 4.2155151 14.550278
4.9147587 2.9537899 4.2119107 14.000417
5.4204569 3.0282419 4.0096989 12.423667
6.1385775 3.1274731 4.146215 12.08625
7.0592279 3.2332668 4.206605 10.092375
7.3300228 3.3038297 4.0804701 11.08825
7.8062515 3.3588195 4.1159382 10.08875
8.279767 3.3769169 4.241281 9.09375
8.4332867 3.4477403 4.0708189 10.087749
0.85960954 0.31979504 4.4911003 5
-8.6548519 0.48913956 4.5906949 9.0342503
-0.88838911 0.57156503 4.6413116 8.5719995
2.7927675 0.75249887 4.7737494 6
-5.401751 1.1293035 4.6583142 12.374499
