# .PCD v0.7 - Point Cloud Data file format
VERSION 0.7
FIELDS x y z intensity
SIZE 4 4 4 4
TYPE F F F F
COUNT 1 1 1 1
WIDTH 321
HEIGHT 1
VIEWPOINT 0 0 0 1 0 0 0
POINTS 321
DATA ascii
0.58368075 1.885175 -2.4918675 20.75
0.49305144 0.43898401 -2.2111824 9
0.50582957 0.54315615 -2.1725686 11
0.63974905 0.11171814 -1.8200643 5
0.59375012 0.30521598 -1.9351125 8
0.53849876 0.43811676 -1.994553 10
0.63965988 0.56818557 -1.8776381 12
0.67330134 0.19768061 -1.7440362 7
0.74191022 0.3525793 -1.6542788 9.5
0.69741017 0.73116112 -1.6904531 15.5
0.63922572 0.94173676 -1.7514892 18
19.375824 1.1076802 -1.6190417 4
0.84241033 0.13831794 -1.5483069 4
0.89646304 0.35347036 -1.4408853 7.5
-1.9868948 0.9883495 -1.4005468 15
19.474449 1.5936707 -1.4406844 5
-1.9734946 0.10216337 -1.2452294 4
-1.9779189 0.32547951 -1.223781 7
-1.9452853 0.56916505 -1.2210757 10.5
-2.0149865 0.78869271 -1.3377625 12
0.92640126 0.72114646 -1.3148749 14
-2.0222425 0.82206845 -1.22067 13
0.87383962 0.96303225 -1.3557633 17.5
0.86607432 1.0733771 -1.2998104 20.25
-2.0308368 0.19609895 -1.1189121 4
-1.9592329 0.00091841817 -1.1639745 2
-2.0545344 0.28070235 -1.0169331 5.5
-1.9749755 0.29213104 -1.157232 6.5
-1.9805956 0.50399238 -1.1013657 9.5
-1.9658035 0.75287271 -1.0665834 12.916666
1.7471266 0.7872225 -1.0645175 14
-1.9604234 0.92405558 -1.1662836 15
0.96470845 0.89337504 -1.134239 17
1.6916158 0.86291194 -1.0492237 15.5
-1.9062259 1.0373112 -1.0932648 17
0.97191775 1.1732434 -1.0709506 21.333334
-1.9167387 1.2666152 -1.1467266 19.5
0.92734969 1.3011981 -1.0569279 23
-2.042845 0.45476016 -0.93132132 8
-1.920779 0.59173906 -0.8128131 11.5
-1.9204116 0.67839944 -0.83575362 13
0.9966315 0.7523976 -0.99661458 15.5
-1.9213586 0.94036782 -0.91192538 15.75
-1.9081548 1.0893511 -0.85664564 18
-1.8845266 1.2561563 -0.85420638 20
-1.9671832 0.0039910004 -0.72942585 2
-1.946687 0.76313114 -0.7224524 13.75
-1.9057767 0.9387778 -0.63250756 17
-1.9090751 1.1378812 -0.63610238 19.75
-1.8799508 1.250407 -0.70378256 21
-1.9476657 0.033318877 -0.45645386 2.5
-1.9845709 0.31560877 -0.56122613 7
-1.9275525 0.43614501 -0.40793186 10
0.95980167 0.53267974 -0.45214701 14
-1.9939079 0.63870317 -0.55969602 11.5
-1.9560051 0.86648065 -0.52115214 15.5
-1.8411646 1.0889097 -0.54252088 19.5
-1.8472408 1.2885536 -0.58249265 22
-1.9181452 0.12143762 -0.30069491 4
-1.9273975 0.29235759 -0.24812382 7
-1.9296728 0.41117561 -0.29700792 9
-1.8865072 0.67045552 -0.24597383 14
1.0150615 0.73422688 -0.22919524 19.5
-1.8658745 0.83356696 -0.37134346 16
-1.8767294 1.0659536 -0.30324581 19.333334
-1.8009378 1.2246118 -0.29104307 22
-1.7734756 1.2953469 -0.28198755 23
1.0198904 0.56419474 -0.15197177 16.25
-1.8184689 0.70859557 -0.071691975 14.333334
-1.8424883 0.92091697 -0.078052297 18
-1.8471218 0.15153824 0.010452849 5
-1.7363477 0.057218768 0.15067439 3.5
1.0910138 0.075167954 0.19503745 3.5
-1.8597252 0.27183217 0.018259289 7
-1.7881833 0.32904458 0.13437 8.5
-1.8348709 0.47653133 0.088955894 10.5
-1.8934758 0.7289421 0.01965853 14
-1.7725706 0.72715187 0.080856651 15
-1.787967 1.0394613 0.095784381 19.5
-1.7072443 0.17130688 0.37087786 6
-1.7618281 0.33003923 0.2242561 8
-1.7970885 0.71796989 0.23698118 15
-1.7358675 1.0648493 0.34470475 20
-1.6539274 0.17843968 0.58301812 6
-1.702747 0.30172125 0.49028236 8
-1.4679984 0.35118276 0.52861923 9.5
-1.7186602 0.4744916 0.50109941 11
-1.40657 0.44804871 0.58510882 13
-1.7685728 0.76910335 0.40317002 16
-1.7193445 1.0065153 0.49372646 19
4.1618509 2.2757928 0.55672002 19
-1.6441072 0.15602712 0.78528368 5
-1.6554353 0.24344358 0.65854377 7
4.0463037 2.3531122 0.603715 20
-1.6466444 0.33033562 0.90483266 8
-1.6569145 0.47150946 0.85431075 10.5
-1.6054314 0.65965253 0.85074955 13.5
-1.5796918 0.75682181 0.83385593 15
1.3661073 0.84768039 0.97515255 17.25
-1.670727 1.0961313 0.88273275 19.5
1.3427831 1.0136656 0.96622032 19.75
-1.6026577 0.13021709 1.0656406 4.6666665
-1.5967283 0.060453139 1.1017456 3
-1.5980456 0.24630529 1.0894235 7
1.3116887 0.30396086 1.1126503 8.5
1.4363198 0.32475311 1.0810256 7.75
1.3349938 0.4519484 1.0561007 10.75
1.3466696 0.60615879 1.0042633 13
1.5030591 0.76612186 1.1721275 15
-1.5894386 0.80207878 1.034246 15
1.4823886 0.94186234 1.0909036 18
-1.5635537 1.1457635 1.0505615 20
1.4534878 1.0847224 1.0864826 20.166666
-1.4479429 1.2786679 1.1281649 22.666666
1.4018102 1.2783337 1.0405349 23
-1.5424724 0.053118207 1.2792671 3.5
1.5275968 0.19977514 1.3665255 5
-1.5765238 0.37368834 1.2127886 8
1.3522478 0.36111212 1.3854862 8.5
1.5161588 0.28907916 1.3046492 6.5
-1.5396762 0.56743592 1.3320785 10
1.3285872 0.41933656 1.325183 10
-1.4373733 0.74113905 1.3216288 16
1.3179231 0.6707328 1.3807368 13.5
1.5105842 0.67917258 1.2644303 13
-1.5093509 0.80646628 1.374016 13.5
1.2808568 0.88868254 1.3586266 16.5
-1.4170927 1.1328534 1.2725378 20
-1.4349104 1.2209716 1.2906133 20.833334
-1.3599523 1.3270835 1.3786502 22
5.5534043 1.9541073 1.3868227 13
5.5194964 2.0779493 1.3656324 14
5.4522738 2.2194827 1.345117 15
-1.437748 0.050346404 1.538512 3
1.5382277 0.13471681 1.444513 4
4.5066462 0.13221948 1.5447476 3.5
4.4819922 0.34486002 1.5428699 5
-1.4568166 0.52217597 1.5046141 9.75
1.5339985 0.54251945 1.4459523 10.5
-1.4153384 0.79037869 1.5709331 13
-1.4123082 0.8955915 1.5234034 18
-1.343805 0.97130823 1.5563977 17
-1.4173875 1.0548625 1.4723136 20.5
-1.3744562 1.1494179 1.5044 20.5
1.4073395 1.0957968 1.5212882 19
-1.3649324 1.2632287 1.5066638 22.25
-1.3375447 0.067606784 1.6738372 3.5
1.4873298 0.16232178 1.7742988 4
3.3614748 0.043869697 1.7728691 2
4.1747661 0.15673275 1.7383834 3.5
-1.2913328 0.31031972 1.7555493 7
1.4817423 0.3337099 1.7720057 7
3.4045753 0.23925027 1.763868 4
4.1814399 0.31879929 1.7458233 5
-1.3285141 0.53337729 1.6954427 11.25
1.3767503 0.47880882 1.6382287 9.5
1.4854079 0.52654225 1.7363533 10
-1.3337561 0.67662042 1.6788237 13.5
1.3668987 0.64022321 1.6105012 12
1.4775996 0.72630018 1.6964582 12.75
-1.3034701 0.88127786 1.7696949 14.5
1.4627227 0.93209171 1.6828436 15.5
4.1635232 0.86795509 1.7726793 8.5
-1.2858793 1.1157722 1.7015219 18.333334
1.455238 1.0832477 1.7020792 17.5
-1.2536703 1.2704448 1.7005752 21.833334
-1.2741828 1.4365938 1.6101851 21.75
4.3075666 1.4678924 1.6340554 12.5
4.2679873 1.6137146 1.6378709 14
4.1486793 1.9030123 1.6717267 15.5
4.0814958 2.1301193 1.706763 17.5
3.7298434 2.3553262 1.7084293 20
-1.2767471 0.13537905 1.9094824 4.8333335
3.0237939 0.049631335 1.8408232 3
-1.2583889 0.27437258 1.9431232 6
1.5374069 0.3283754 1.9023483 7
3.0588458 0.27731997 1.8524843 5
-1.2955902 0.52377307 1.8408544 10
1.5174217 0.58052552 1.923938 10
2.9344993 0.46185273 1.9446696 7
-1.2010242 0.73489875 1.9797519 13
1.4966879 0.75613111 1.9385866 12.75
2.9246976 0.63699579 1.9178909 8
3.0392063 0.7656123 1.8826321 9
-1.1606202 0.97518575 1.9812399 16
1.49612 0.93414265 1.9544761 15
2.8898401 0.89583969 1.9376917 10.5
-1.2178723 1.1050137 1.856266 18
-1.1719308 1.0667173 1.9542211 17
1.4850184 1.0910026 1.9278029 16.5
2.803225 1.0790865 1.9506925 12
2.8387928 1.2130826 1.9691933 13.5
3.7990875 1.2630523 1.8837235 12
4.0167084 1.251578 1.8117878 11
2.7476652 1.4681191 1.9653862 16
2.822331 1.4117447 1.9567692 15
3.6811812 1.5730802 1.9259326 14
3.8013821 1.4592201 1.8835309 13
3.6691792 1.7363391 1.9223715 15.5
3.5579002 1.934886 1.9858888 17
3.5248494 2.1393716 1.967046 18
3.5040402 2.2742763 1.9596179 19
3.3959849 2.4240558 1.8954246 21
3.4522045 2.4243419 1.949747 20
-1.1956726 0.027891643 2.0886862 3
-0.96459031 0.080118358 2.1955972 3
2.7363863 0.0057571195 2.0497537 1
-1.2373822 0.35659391 2.0175097 8.5
-1.1358634 0.31664249 2.1303849 6.5
-0.99743968 0.22722626 2.1454122 6
1.525529 0.30026037 2.0396891 6
-1.2108129 0.51096034 2.0514879 11
1.523873 0.54557031 2.0001476 9
-1.2474518 0.63166386 2.0164657 13
-1.1331701 0.71971464 2.1318526 13
-1.1412799 0.88617134 2.0644445 15.25
-1.1734668 1.081807 2.0215921 18.5
-1.1235431 1.2218413 2.1227369 20.25
2.6658287 1.2886963 2.0064042 15
2.3478973 1.4522012 2.1345415 17
2.2747443 1.7178025 2.1250286 18.5
2.0859869 1.9555391 2.1481891 21.5
1.9653172 2.118356 2.184798 23
-1.0802009 0.10327873 2.3094468 4
-0.96720994 0.13843164 2.2139201 4.5
1.8618644 0.084609292 2.2353075 3.3333333
2.0992727 0.0002098605 2.2603509 1
2.3693876 0.011482108 2.2201591 1
-1.0945418 0.28826711 2.2973821 7.25
1.8997037 0.296399 2.2752907 5.5
2.1530161 0.25298914 2.3073494 5
-1.0732404 0.50487316 2.3268719 9.333334
1.7160164 0.55905914 2.309052 9
2.1319327 0.50761974 2.2941349 7.5
-1.0900718 0.68854982 2.2845941 12
1.7253884 0.66531646 2.3228524 10
1.8665358 0.8679716 2.3648739 11.5
-1.0542617 1.0598838 2.3041596 17.25
1.8874993 1.504697 2.3853052 18
2.168962 1.53328 2.2181494 17
2.0235515 1.8478301 2.2350459 20
1.5874256 2.0366404 2.3661687 23
1.7634512 2.1420302 2.2679443 23
-0.96774471 0.058612242 2.5263743 3.5
-0.98272419 0.52842516 2.5191064 10
-1.0168136 0.87795484 2.4216774 14.5
1.6845047 0.99926943 2.4246352 13
1.6991469 1.133655 2.4467766 14.5
1.6870582 1.3086356 2.4564381 16
1.6818422 1.5001893 2.4760714 17.5
1.710463 1.7735001 2.4043663 20
-1.1821083 2.0839074 2.5749338 23
-0.95622432 0.28347006 2.6016147 6.5
1.6952637 0.67428088 2.7585025 9
1.7053235 0.82366157 2.7697239 10.5
1.6849245 1.0395474 2.6612988 13
-1.1907396 1.2750692 2.7271178 15.5
1.7325505 1.2753102 2.6706548 15
-1.1414833 1.4332628 2.790879 17
1.7527692 1.4655521 2.6862335 17
1.6993647 1.687533 2.7729404 18.5
-1.2011636 1.8810506 2.6188531 21.5
1.691545 1.8694719 2.7537532 20
1.8485017 0.35995266 2.9805102 5.5
-1.0950508 1.1155844 2.9812119 13.5
1.7842773 1.1392907 2.9066114 13.333333
1.7383188 1.3791941 2.8867464 16
1.7095147 1.4853203 2.8752973 17
-1.0009555 1.9197047 2.9552984 20
1.8556813 0.11295714 3.0772965 3.5
1.812032 0.3707507 3.1832643 5.5
1.828618 0.53404486 3.0937777 7
-1.0777977 0.68211669 3.1050026 9
1.8250465 0.71419823 3.0638697 8.75
-1.0772326 0.95033431 3.0593364 11.5
1.7772909 0.90606415 3.163429 10.5
-1.0022273 1.3530234 3.1041155 15
-0.98340398 1.4452844 3.139791 15.5
-1.0007285 1.6092259 3.1170545 16.5
-1.0242805 1.8517524 3.0672064 21.5
-0.9297998 2.0390329 3.1451454 22.5
-0.93478584 0.18504 3.3545866 4
-0.97529626 0.35416016 3.3305526 5.5
-0.99370468 0.79518074 3.3224206 8.5
-0.91102058 0.94979924 3.2597823 11
-1.0178466 1.0890383 3.2475004 11.5
-0.89504892 1.067657 3.2842877 12.5
-0.93331081 1.3089207 3.3064871 15.166667
-0.95357394 1.7489334 3.2205682 19.5
-0.90657264 1.879043 3.2363408 20.666666
-0.90848571 0.26496777 3.4774089 4.75
-0.92701566 0.47834411 3.4212604 6.25
-0.842372 0.70913923 3.4657907 8.5
-0.85488987 0.85078263 3.479774 10.5
-0.92887473 1.0785512 3.417191 13
1.8704258 1.0161946 3.5401359 11
-0.83101881 1.2816453 3.5578659 15
1.867443 1.2608612 3.533376 12
-0.81173557 1.4835564 3.5408487 16
-0.82009447 0.084263384 3.6738682 3.5
-0.83690155 0.31252885 3.6872866 6
-0.76820725 0.32783082 3.7639425 5.5
-0.86445218 0.52467191 3.6093183 7.5
-0.7577526 0.51155055 3.7756927 7
-0.82850379 0.67251104 3.6039548 9
-0.81507313 1.0999589 3.6169813 13
-0.71913707 0.10355058 3.8084493 3.5
-0.70224363 0.61078751 3.811218 8
1.9975516 1.392714 3.9661722 12
2.0045025 1.5844411 4.0502739 13
1.9875746 1.7106879 4.0401087 14
1.9868016 1.8929189 4.0399947 15
-0.68105876 2.3523996 4.1317883 19
0.10012542 2.3526249 4.0891271 20
0.33079258 2.353441 4.1909895 19
-0.6879068 2.1554613 4.2800822 17.5
0.17535444 2.2727771 4.2536964 18.5
0.32289374 2.2617929 4.3252444 17.5
4.4047632 0.52482605 18.180874 3
4.0640192 1.1418922 18.171619 4
4.9485703 1.2318624 18.014408 4
