# .PCD v0.7 - Point Cloud Data file format
VERSION 0.7
FIELDS x y z intensity
SIZE 4 4 4 4
TYPE F F F F
COUNT 1 1 1 1
WIDTH 1202
HEIGHT 1
VIEWPOINT 0 0 0 1 0 0 0
POINTS 1202
DATA ascii
0.95083928 0.44310218 -0.44822535 12.86475
-1.8750647 0.51780391 -0.43299511 10.522
0.79378796 0.5733282 -0.47784016 19.109501
0.84756929 0.56522512 -0.43218896 18.858124
0.96030039 0.56027317 -0.44608599 14.890583
-1.9678079 0.61765587 -0.45839247 12.022
0.78665209 0.688434 -0.48955607 22.109751
0.98410833 0.6966812 -0.4102267 18.113832
-1.9178489 0.76255834 -0.49199209 14.0215
0.84970176 0.72301006 -0.4989123 22.359375
1.002918 0.74494767 -0.47007561 18.1145
-1.9432211 0.83908528 -0.45688334 15.347833
1.0331522 0.85831708 -0.45643896 20.364
-1.8334795 0.93667346 -0.45236358 17.846916
1.0711099 0.98737919 -0.44652677 22.113501
-1.9047916 1.0408199 -0.48329097 18.499449
-1.7745165 1.0543599 -0.4761444 19.518623
1.0871923 1.0610253 -0.42242408 23.113001
-1.894918 1.1789701 -0.45659158 20.771999
-1.7472934 1.2804997 -0.42936981 23.018999
-1.8378708 1.3699995 -0.47009003 23.026001
9.967001 2.011106 -0.42219773 9.1090002
6.4310751 2.1969883 -0.42536229 13.1095
7.2462678 2.1254501 -0.48931992 12.1095
4.3044052 2.2988503 -0.48075947 18.1105
3.1457865 2.369694 -0.48666352 23.1115
3.9238257 2.3979414 -0.43397012 20.1105
5.0394616 2.3483512 -0.45231146 17.110001
5.2107186 2.3155212 -0.46533895 16.110001
3.2903697 2.4027331 -0.43724284 23.111
3.5559602 2.4421613 -0.47614565 22.111
3.9023869 2.4468403 -0.43619356 21.1105
-1.9181452 0.12143762 -0.30069491 4
0.81917667 0.1563597 -0.3905251 8.1075001
0.95288789 0.18152699 -0.33035764 6.5
-1.7532505 0.26597369 -0.36124778 8.0200005
0.80427086 0.22738765 -0.32852194 10.856375
-1.9334431 0.38071772 -0.35456148 8.359334
0.83123904 0.35819113 -0.37985688 14.10725
0.94781321 0.38504738 -0.3546437 11.613375
-1.8441334 0.45626199 -0.34918582 9.5230007
-1.223834 0.42097729 -0.30002391 13.0175
-1.1655324 0.49411321 -0.31325603 15.01675
0.59778196 0.48269323 -0.39283967 17.1185
0.84267122 0.43792561 -0.35994527 16.190083
0.96498746 0.44372725 -0.3331641 13.223945
-1.1475983 0.59780759 -0.31738144 18.0165
0.83994353 0.52984029 -0.36280605 18.7735
0.9608019 0.56567615 -0.33154231 15.612875
-1.9317265 0.64308679 -0.33607143 12.77775
0.99147522 0.68140018 -0.33741313 18.112625
-1.9038985 0.74953312 -0.36117971 14.527374
-1.9656419 0.87080604 -0.34555647 16.0235
-1.8690858 0.83001006 -0.34844252 15.76175
1.0221469 0.81039286 -0.33186001 20.112249
-1.8119624 0.9402709 -0.3762762 18.02
-1.7761821 0.90944636 -0.31762183 18.0205
1.0630597 0.92446882 -0.3563112 22.112249
-1.8627453 1.071576 -0.36430961 19.511501
-1.7720199 1.0601424 -0.36798018 20.519875
1.0827283 1.0176147 -0.33142531 23.11175
1.1051178 1.0710684 -0.39246738 23.112499
-1.8560661 1.1642369 -0.35729325 20.277374
-1.7541207 1.2704735 -0.33152118 22.857336
-1.86098 1.3616457 -0.36599264 23.023125
8.7771578 2.1250186 -0.39177164 10.109
4.316494 2.2875099 -0.3849124 18.110001
4.6060548 2.2474289 -0.30682021 17.109501
5.7377801 2.220475 -0.37547949 15.1095
3.2344511 2.3573089 -0.36215901 23.1105
3.9802516 2.3932726 -0.35083216 20.110001
5.1410737 2.3239355 -0.34467724 16.109501
3.4869196 2.4315028 -0.3435941 22.11025
3.8340878 2.448719 -0.34245867 21.110001
0.82032788 0.12907574 -0.24257247 8.1044998
-1.9273975 0.29235759 -0.24812382 7
-1.8973306 0.20951034 -0.2233526 6
-1.6957328 0.26752681 -0.25755525 8.0209999
0.83217657 0.20191363 -0.23977436 9.7709999
0.94869554 0.26195541 -0.29261059 8.6123753
-1.7623479 0.3710621 -0.2457862 9.0227499
0.89388025 0.35445803 -0.26312375 14.1045
0.95371777 0.37272191 -0.22489205 12.60725
-1.9197181 0.44231573 -0.26883823 9.4635553
-1.8477296 0.49615604 -0.20014919 10.025
0.87530059 0.42218196 -0.26289731 15.77125
-1.9032835 0.57082868 -0.20710284 12.0335
-1.8702958 0.52091968 -0.26035628 11.02425
-1.1796697 0.513794 -0.21736664 16.018499
-0.82255441 0.50392699 -0.29374874 19.013
0.85959661 0.55344117 -0.24352533 19.10425
0.98401392 0.50249106 -0.23493928 15.111
-1.9243101 0.67108685 -0.27492127 13.02425
-1.8920599 0.65787989 -0.22774282 13.51675
0.95623541 0.6288352 -0.27658379 18.370432
1.0073938 0.60499316 -0.21490049 17.1105
-1.8786666 0.76820552 -0.28502229 15.024
1.0193692 0.74944448 -0.23634839 19.638748
-1.9083126 0.83157188 -0.2338713 16.02475
-1.8243957 0.84658253 -0.20481206 17.025
-1.8803345 0.90954351 -0.25393799 17.0245
-1.7293646 0.94051051 -0.29918778 19.0205
1.098007 0.99985296 -0.25809306 23.1105
-1.9035625 1.0055947 -0.27087703 18
-1.8620554 1.0687968 -0.24765655 19.778751
-1.7629999 1.0976955 -0.27123892 21.021
-1.8491679 1.1508087 -0.25988951 20.5165
-1.8559307 1.2269851 -0.25913265 21.683167
-1.7734756 1.2953469 -0.28198755 23
-1.8741992 1.3613185 -0.26015601 23.0245
11.612189 1.889153 -0.27503315 8.1084995
10.382601 1.9753054 -0.25428736 9.1084995
5.3411345 2.2538769 -0.23225358 16.108999
5.4098125 2.2675123 -0.23990621 15.109
5.7551503 2.2045567 -0.26649964 14.109
6.3538246 2.212244 -0.27864373 13.109
4.0141335 2.3843305 -0.26403096 20.109501
5.0179267 2.3179097 -0.22504871 17.108999
3.7849882 2.4627159 -0.25341299 21.109501
0.82546812 0.1717636 -0.1413323 9.1022491
0.85979843 0.20271634 -0.15006725 9.8166428
0.98225772 0.227874 -0.14500123 8.1094999
-1.8783731 0.30480686 -0.16237852 8.0340004
-1.7252481 0.38464415 -0.15618506 9.5240002
0.86015975 0.32861781 -0.13587426 13.602
0.99493253 0.33660433 -0.1245822 11.109
-1.8866191 0.42044091 -0.16468564 10.034
-1.7939734 0.41384616 -0.11137225 9.3594999
-1.236866 0.48452002 -0.11337051 15.02075
0.88815081 0.4340522 -0.16953029 16.102667
1.0166861 0.49372891 -0.10757989 14.441833
-1.8884574 0.57705468 -0.14442654 12.53425
-1.0186219 0.58052081 -0.16530561 19.018
0.87903833 0.57230955 -0.14048465 19.101999
0.95160377 0.5401144 -0.18846445 17.056526
1.026466 0.5676316 -0.13769226 16.179375
-1.9023653 0.61255878 -0.18843624 12.4
-1.8814471 0.66130042 -0.15798292 13.279875
-1.7829001 0.67442036 -0.16418268 14.0255
-1.7923061 0.74291408 -0.16535701 15.0255
1.0260544 0.70619702 -0.16064414 19.276083
-1.8864297 0.8309536 -0.17615362 16.025499
-1.7664415 0.81929684 -0.17505372 17.022249
1.0479141 0.87225205 -0.11744506 22.60475
-1.8576384 0.97030753 -0.17896783 18.517082
-1.7704213 0.92807925 -0.1541279 19.022499
-1.832196 1.0354795 -0.1486329 19.525875
-1.8390723 1.1379483 -0.16202667 20.534
-1.7224237 1.1970037 -0.12258124 23.022751
-1.8633552 1.2601838 -0.10934944 22.026501
-1.7967746 1.2489238 -0.14075336 22.4
-1.8549572 1.3424095 -0.18335547 23.025499
-1.7726021 1.3156381 -0.17261103 23.033751
7.6921225 2.1712577 -0.18194458 11.1085
8.8193483 2.1262224 -0.19757052 10.1085
4.3581462 2.2727697 -0.19342603 18.108999
4.805346 2.2699077 -0.10584087 17.1085
5.3187599 2.2671154 -0.12409304 16.1085
5.4133515 2.2626069 -0.1321009 15.1085
3.991776 2.3729353 -0.1816992 20.108999
3.3731945 2.4007699 -0.1545862 23.108999
0.87660712 0.1723469 -0.057078317 8.6003504
0.8983618 0.29098451 -0.044017985 12.1
-1.8387958 0.31644762 -0.079772815 8.0349998
-1.650594 0.38260645 -0.09601891 11.023
1.0332781 0.35361868 -0.016270265 11.60675
-1.8622091 0.43796337 -0.03982671 10.0355
-1.7582983 0.42178875 -0.01995714 9.6275005
-1.2515382 0.46394059 -0.046774417 15.022
0.91212708 0.45523494 -0.062462494 16.350311
1.028806 0.48859778 -0.023174703 14.5069
-1.8821874 0.59227043 -0.080286533 12.035
-1.710438 0.5403111 -0.056465343 12.027
1.0266098 0.57221657 -0.045095414 16.774
-1.8500341 0.6438036 -0.058156982 13.01775
-1.7681012 0.65981227 -0.056775764 13.777
0.96823382 0.61528385 -0.041049659 19.474812
1.0377455 0.6910181 -0.070891738 19.10775
-1.8404031 0.75529206 -0.073367037 15.350834
-1.7458162 0.72212654 -0.043597151 15.442764
0.89579022 0.72029555 -0.024353161 23.099501
1.0320439 0.76274258 -0.081044018 20.108
-1.7699709 0.86710739 -0.055512264 17.360416
1.03834 0.84105313 -0.027948812 23.099501
-1.8526423 0.95183486 -0.060635429 18.182293
-1.7454721 0.92110229 -0.034522861 19.024
1.084951 0.901393 -0.054370582 22.607168
-1.7937665 1.065836 -0.02428697 20.527626
-1.8306273 1.1184796 -0.075088888 20.035
-1.7480196 1.127238 -0.044681966 22.273874
-1.8101385 1.2012128 -0.077947326 22.035
-1.7832141 1.2758714 -0.074596778 23.035
-1.8465638 1.3337655 -0.072024897 23.027
9.7188015 1.9920442 -0.0095902048 9.1079998
7.6674109 2.1134374 -0.0044788057 11.108
8.7919703 2.1122143 -0.0016757579 10.108
4.3752675 2.2629561 -0.096542023 18.1085
4.402627 2.2550445 -0.005998102 18.108
5.0914049 2.2001088 -0.0029121775 16.108
5.490922 2.2640033 -0.011875924 15.108
6.1689367 2.2113481 -0.015805146 14.108
3.8739381 2.3992307 -0.083729871 21.1085
3.9062607 2.3856041 -0.0099483663 20.108
4.0713458 2.3566809 -0.048241559 19.60825
3.4543684 2.481842 -0.0019165947 23.108
3.8410001 2.4885783 -0.0052002845 21.108
-1.8471218 0.15153824 0.010452849 5
0.94187498 0.15637833 0.035350904 8.0985003
-1.8379798 0.28342026 0.050269749 7.5184999
-1.4182379 0.24980251 0.025552601 9.0240002
-1.1886902 0.23606087 0.024263874 8.0284996
0.88848817 0.28810066 0.065946653 11.59775
0.92407006 0.2554279 0.04366155 10.973249
-1.8623017 0.33976987 0.022658423 8.0362501
-1.3352761 0.30842182 0.037997663 11.024
0.94008291 0.32992139 0.078969076 13.0975
1.0529131 0.31111896 0.096071333 10.1045
-1.8465204 0.4853282 0.045872658 10.768
-1.7409469 0.42016411 0.065634862 9.0287495
-1.6234586 0.41210935 0.039931796 10.901625
-1.5877445 0.40905324 0.091460943 11.5255
-1.256853 0.48165292 0.017206609 15.023251
-1.8438743 0.52766609 0.041230749 11.5365
-1.6382798 0.53309476 0.034458131 14.02475
0.93310457 0.54582322 0.054022655 18.097916
1.049547 0.52026916 0.066304587 15.438416
-1.8054247 0.6739676 0.081724837 14.029
-1.773836 0.64243865 0.060806636 13.519084
-1.6471672 0.68273294 0.068162233 16.025249
0.9801029 0.69457626 0.034887388 21.098249
1.0695448 0.6834963 0.067137107 19.105
-1.8452425 0.73631293 0.034708396 14.637333
-1.7528324 0.78833961 0.083913907 16
-1.6958717 0.73599458 0.064197488 16.360416
-1.8329849 0.85150129 0.064284354 16.532749
1.077648 0.84939623 0.046514418 22.436335
1.1249886 0.94037789 0.060663097 22.938248
-1.8677087 1.0223765 0.043761052 19.036501
-1.7753255 1.0399344 0.097500369 19.764668
-1.8155712 1.1521803 0.038069967 21.036501
-1.7520161 1.1499625 0.067418486 22.364418
-1.7990421 1.222527 0.042034522 22.036501
-1.8217417 1.3176638 0.0370882 23.028498
4.4084802 2.2457907 0.09228009 18.1075
4.8799667 2.2629015 0.0010936587 17.108
3.9515078 2.3762176 0.084110588 20.1075
4.1190853 2.336154 0.082738295 19.1075
3.4141557 2.4894478 0.065863401 23.1075
-1.7363477 0.057218768 0.15067439 3.5
1.0910138 0.075167954 0.19503745 3.5
-1.768705 0.16882972 0.16007951 5.4117646
-1.3193259 0.14909327 0.18150531 5
0.93848288 0.15518463 0.15425545 8.0961246
1.0945231 0.10825099 0.19948664 4
-1.4147321 0.2191139 0.19983414 8.0270004
-1.3796648 0.26835677 0.12211002 9.5255833
-1.2580051 0.23713483 0.14609131 8.0310001
0.92412746 0.24666719 0.15352465 10.096
-1.7882476 0.3305099 0.13708803 8.5188751
0.89955902 0.34421712 0.17141424 13.0955
0.94223142 0.31613857 0.18276687 12.0955
1.0546755 0.31078669 0.14741774 10.1035
-1.7681303 0.46460027 0.19748242 10.5385
-1.6807892 0.43225712 0.17621882 10.0305
-1.5277448 0.45340577 0.19424221 12.527
-1.2179322 0.48494005 0.16418818 16.025999
0.93917328 0.44920275 0.14551504 15.846125
1.0260183 0.44773704 0.17427367 14.349376
-1.8106505 0.59842163 0.17100644 12.789474
-1.7944765 0.52600074 0.19719939 12.0385
-1.6698667 0.57703948 0.10874675 13.0295
-1.580956 0.54590178 0.11191395 14.52575
0.98262537 0.50560236 0.10577215 16.847
1.0763528 0.50971025 0.15913971 14.9032
-1.755147 0.63534749 0.18658103 13.5345
-1.6986727 0.61438417 0.17775603 13.363833
-1.576624 0.60725611 0.1979945 15.527125
1.019877 0.61376309 0.15226854 18.679501
-1.8317678 0.73075318 0.14098926 15.03775
-1.7942854 0.72771317 0.19524331 15.0385
-1.6903131 0.76437187 0.19048001 16.03075
1.0439086 0.75136 0.14850061 21.097979
1.1000617 0.70157462 0.15549061 19.103251
-1.737235 0.85015315 0.13156237 17.363167
-1.6808499 0.87129128 0.15194035 19.026501
1.0397798 0.83645821 0.15628065 23.096001
1.1046031 0.82994872 0.11620452 21.104
-1.7952487 0.95762622 0.11315109 18.696165
-1.695639 0.90229571 0.12718418 19.692833
1.1208853 0.90386575 0.1490469 22.769999
-1.8140126 1.0322006 0.15885906 19.538
-1.7464807 1.041875 0.1633973 20.698999
-1.7531278 1.1462173 0.13386382 21.905937
-1.7514946 1.2572774 0.16375601 22.769001
-1.8174607 1.3225104 0.14690362 23.030001
7.8225517 2.1103342 0.16974531 11.1075
8.7816677 2.103214 0.1933766 10.1075
4.469408 2.2603934 0.19329114 18.107
4.949676 2.2810252 0.10294269 17.1075
5.1984496 2.2313747 0.11490494 16.1075
5.5221939 2.2475071 0.11085945 15.1075
6.0445313 2.2051528 0.13802904 14.1075
4.0250797 2.3878212 0.17529303 20.107
4.1266103 2.3171663 0.17473941 19.107
3.5239165 2.5085688 0.15060835 23.107
-1.5679297 0.13624626 0.22363572 4
0.97003293 0.17961262 0.21615712 8.0950003
-1.3920196 0.27904341 0.28880322 10.0285
-1.2633088 0.23461746 0.21867411 8.0325003
0.92633474 0.24594688 0.23107775 10.427833
-1.7520947 0.33008417 0.22851327 8.0194998
-1.659687 0.38529131 0.23835926 9.0314999
0.95812857 0.38710761 0.26167083 14.094
1.0846356 0.36471596 0.2720069 11.601
-1.5481085 0.41237408 0.27385366 11.04
-1.4953134 0.47633734 0.28843364 14.0285
1.0070134 0.45260975 0.20525171 15.09525
-1.5499516 0.55935127 0.26505312 14.196125
0.98658812 0.54718667 0.23588948 17.0945
1.091607 0.52647078 0.23418501 15.101749
1.1092193 0.58244038 0.27100912 16.434334
-1.7932799 0.63856417 0.23578721 13.539
-1.6282078 0.62202764 0.27048188 14.0321
0.95429671 0.6868664 0.21416421 21.094749
1.1199569 0.66868758 0.25612018 18.434668
-1.7970885 0.71796989 0.23698118 15
-1.6465939 0.73012191 0.26397839 16.032
-1.580173 0.73002732 0.25042564 17.777874
1.1309934 0.776851 0.24630561 20.434832
-1.8060204 0.8253873 0.20157279 16.0385
-1.7730806 0.87249798 0.20337655 17.201332
-1.6405385 0.85650003 0.20689663 19.52725
1.1422664 0.8705098 0.24307652 22.097082
-1.7852064 0.95627117 0.24513263 18.617868
-1.6576229 0.91104925 0.22395271 20.360834
-1.7639947 1.0499321 0.20604108 20.280876
-1.6663761 1.0371768 0.2755703 22.02825
1.2150236 1.01612 0.27120873 23.101
-1.7440042 1.1413006 0.2499997 21.478582
-1.6983296 1.1578307 0.25498194 23.028
-1.7453653 1.2360206 0.25131738 22.539249
10.564893 1.9332463 0.21258943 8.1075001
9.734746 2.0033944 0.20715728 9.1075001
6.3092256 2.1917586 0.27326217 13.107
4.4541602 2.2895894 0.29081368 18.106501
5.1017027 2.2897451 0.22015785 16.107
5.5692954 2.2380097 0.23576543 15.107
5.9449329 2.2022629 0.25855044 14.107
4.0430269 2.359797 0.26626769 20.106501
4.1574717 2.311873 0.26875636 19.106501
4.9678888 2.3135717 0.20969452 17.107
3.4474359 2.4386413 0.29386911 23.106001
3.4992964 2.5344055 0.22757503 23.106501
-1.7072443 0.17130688 0.37087786 6
-1.3739395 0.23185125 0.35728824 9.0297508
0.91957128 0.23391099 0.30713725 10.093
1.0663627 0.26663458 0.36118731 9.5959997
-1.6158575 0.34759143 0.3619259 9.0410004
-1.5526307 0.33711889 0.34533072 8.7872505
-1.1190331 0.37403291 0.34611902 12.536125
0.96716964 0.31361511 0.32157582 12.093
1.1161853 0.36529565 0.37614775 11.099
-1.5443873 0.43827403 0.3272455 11.037
-1.4289119 0.47114941 0.3608093 14.02975
1.0573163 0.45592684 0.3395856 14.259708
-1.5967013 0.54285914 0.35590446 12.0335
-1.468505 0.52492273 0.37924927 15.029999
1.0742301 0.55345809 0.38190645 16.342375
1.1284708 0.51750827 0.35263792 15.0995
-1.6090461 0.60835028 0.34225902 13.53325
0.98410094 0.69001663 0.31072724 20.093
1.0615157 0.60571617 0.30788529 17.8435
1.1392844 0.65073591 0.35418314 17.349501
-1.714708 0.70246392 0.34004715 15.0405
-1.6453472 0.72260606 0.3456144 15.910063
-1.5544518 0.7635783 0.36189497 18.529625
1.0357844 0.71203136 0.38431457 20.091999
1.1324952 0.76445472 0.35704875 19.929501
-1.7014816 0.86352432 0.38012597 17.033501
-1.653905 0.86098176 0.32416621 18.1985
1.1756799 0.86195928 0.31724012 21.597
1.2298801 0.87036097 0.37801975 21.093
-1.8001926 0.92712492 0.31776628 18.040001
-1.7689066 0.96543431 0.3537358 18.532875
-1.628722 0.92128533 0.32251263 21.028999
1.2229842 0.94598305 0.37814179 22.262709
-1.7547115 1.033335 0.3446126 19.457888
-1.6393433 1.090222 0.3940452 23.030001
-1.7149597 1.1284044 0.3398757 21.25
-1.6477216 1.1147619 0.32764235 23.028999
-1.7295671 1.2221925 0.32511449 22.703083
7.7368426 2.1655602 0.32113379 11.107
8.8315029 2.101831 0.37678692 10.107
4.9307976 2.290364 0.31878561 17.106501
5.15309 2.2772288 0.33735561 16.106501
5.5828958 2.2259283 0.35193586 15.1065
5.8875427 2.2149398 0.38726574 14.1065
3.1528056 2.3651006 0.34632474 23.105499
4.0555077 2.3455143 0.34484461 20.106001
4.1810327 2.311799 0.3637836 19.106001
3.4836273 2.448945 0.37497765 22.105499
-1.1167997 0.23518926 0.48533514 8.0389996
0.97843206 0.23829472 0.43276981 9.3411245
1.1301955 0.23179866 0.45596829 8.0974998
-1.7042065 0.3034085 0.49350655 8.0212498
-1.6911185 0.38606173 0.49070042 9.0424995
-1.5670118 0.32884327 0.44773182 8.0349998
-1.0935986 0.37798169 0.48665342 12.039249
1.1423701 0.38077649 0.44871652 11.09775
-1.7291977 0.46467039 0.45067552 10.7085
-1.6294994 0.47913623 0.48542309 11.03525
-1.4158508 0.43791947 0.4488368 13.53125
-1.7384659 0.55815959 0.44958401 12.54175
-1.6604912 0.5785535 0.45091468 12.534625
-1.5474834 0.58061242 0.4704209 13.0355
-1.4404747 0.55584347 0.48576111 15.598482
1.1381295 0.51250982 0.47033596 14.761
-1.7486506 0.66059029 0.45049047 14.04175
-1.6187872 0.66287667 0.46165338 14.035
-1.5916775 0.63523108 0.43575183 14.28475
-1.4810741 0.62137949 0.41054875 16.697166
1.0514129 0.61713433 0.4216221 18.091499
1.1580278 0.63927644 0.43564323 17.095999
-1.7630382 0.76188207 0.42999864 15.85425
-1.5340697 0.7433244 0.429425 18.28075
1.0727323 0.73101646 0.45685226 20.091
1.1938999 0.77629328 0.44182023 19.598
-1.7506771 0.85815287 0.42902079 17.5415
1.2227952 0.84522188 0.42711812 20.595249
-1.7444361 0.99388564 0.44871169 18.666666
-1.5835109 0.921453 0.41997954 21.0305
1.2644435 0.99138761 0.44040468 22.261917
-1.7195697 1.0349325 0.44669971 19.689333
-1.617991 1.0623788 0.46809942 22.8645
1.2933378 1.0216006 0.49929133 22.091499
-1.7238467 1.1457671 0.45177129 21.288124
-1.6859604 1.2702487 0.47520146 23.04225
6.3852105 2.1871681 0.4182747 13.1065
7.480051 2.1604342 0.48911145 12.1065
4.1751604 2.2928777 0.45700869 19.105499
5.2201619 2.2718351 0.45856255 16.106001
5.6601048 2.2343621 0.48335403 15.106
5.8072729 2.2140787 0.4932164 14.106
3.2837057 2.4012494 0.43067631 23.105
-1.6539274 0.17843968 0.58301812 6
-1.2403113 0.26489738 0.55299842 8.0389996
1.0604888 0.2471666 0.51089394 9.3403749
-1.5745531 0.31694657 0.56187457 8.0402498
-1.4655687 0.36479783 0.52850956 9.8479996
-1.1056073 0.36081734 0.53415358 11.04
-1.0692178 0.32357681 0.56420678 10.041
1.0709207 0.31611407 0.58618802 10.589251
-1.7186602 0.4744916 0.50109941 11
-1.6059879 0.4972184 0.5835951 11.03675
-1.547168 0.48482406 0.51833022 11.53975
-1.4349784 0.47278509 0.57409632 12.848
-1.3987064 0.42632067 0.57857227 12.700168
-1.0107129 0.402504 0.56961948 13.041833
1.1793169 0.40846086 0.54949367 12.096
-1.5323441 0.54531872 0.51301593 13.03975
-1.4339271 0.51415455 0.56213975 14.038851
1.1855279 0.53896326 0.56033403 14.59025
-1.581493 0.67247069 0.55765218 15.04375
-1.4731565 0.66935551 0.54780233 17.532749
1.1968008 0.61025774 0.58334655 15.756667
1.2179213 0.6098218 0.56920868 15.595876
-1.6000669 0.7241925 0.56480628 15.536499
-1.5287979 0.73398656 0.52007931 16.043501
1.2260069 0.71549141 0.54741645 18.096251
-1.6819787 0.8602258 0.55486476 17.043251
1.2604109 0.8066842 0.57009333 19.096001
-1.7256603 0.97194123 0.56120622 18.539499
-1.5631955 0.90129584 0.51592088 21.032
1.2791419 0.9424513 0.5342223 21.261499
1.3056439 0.92440701 0.579597 21.096001
-1.7093283 1.0075399 0.56088984 19.26775
-1.6016922 1.03722 0.53933895 22.532249
-1.5850974 1.0227411 0.58370507 22.033001
1.3148214 1.0927639 0.58047622 23.0905
-1.7154701 1.1563164 0.51872569 21.039
-1.6860324 1.1726747 0.57489336 22.043501
1.3408421 1.1334959 0.56087083 23.0965
-1.6800092 1.2755287 0.54487908 23.039499
-1.667595 1.3118063 0.56669319 23.043501
6.4083686 2.1601918 0.5624423 13.106
8.0828085 2.1024768 0.51048934 11.1065
4.1618509 2.2757928 0.55672002 19
4.560163 2.2476606 0.59248388 17.105
5.2449756 2.2491751 0.57857519 16.105499
-1.6598027 0.16438104 0.60443467 5.4545455
-1.6554353 0.24344358 0.65854377 7
-1.510427 0.20940325 0.69914722 5
-1.3430372 0.24050567 0.6203717 9.0345001
-1.0161179 0.2977441 0.69580513 9.0439997
1.1894745 0.27590889 0.66998869 8.0939999
-1.3729185 0.36714548 0.60414535 12.034
-1.5614752 0.40617979 0.69327378 9.0384998
-1.3891354 0.45126736 0.66513944 13.368333
-0.95698583 0.42226511 0.63025504 14.043667
-0.85841537 0.41724941 0.64664263 15.0455
1.1986743 0.47206464 0.61434257 13.095
1.2017409 0.40726799 0.64596152 11.0945
-1.710945 0.59965527 0.60149515 12.777778
-1.573595 0.50428534 0.64157641 11.03775
-1.4232769 0.58354229 0.67698032 16.035
-1.3922189 0.52945852 0.66724634 15.235001
1.2434387 0.55087453 0.66908115 14.090833
-1.6428121 0.61990756 0.65522259 13.0375
-1.5910784 0.6002543 0.6661815 13.038
1.2324181 0.68101108 0.63132918 17.0895
-1.5868541 0.75960183 0.67105758 16.038
-1.4737908 0.72548115 0.63496768 18.284126
1.2904277 0.79851234 0.62031329 18.428667
-1.6669654 0.85799682 0.65028787 17.0445
-1.523098 0.80668861 0.6364702 19.034
1.3058679 0.84143597 0.68717086 19.091751
-1.6669456 0.96242952 0.60881782 18.536751
-1.5619397 0.95447904 0.64671379 21.784
1.2648704 0.98590666 0.60011649 22.09
1.3354387 0.95759845 0.64873827 20.592501
-1.7164557 1.0136944 0.6907894 19.0375
-1.6521041 1.0648766 0.63788587 20.937151
1.3176841 1.0784425 0.69681549 22.089001
-1.678314 1.1896574 0.61449087 22.044001
1.2605817 1.1348957 0.66668266 23.089001
1.3570429 1.1660001 0.64989638 23.092501
-1.6499621 1.2599553 0.61497682 22.666666
6.0501785 2.1771672 0.65537632 14.1055
6.4556055 2.1519899 0.69019979 13.1055
4.1204071 2.299475 0.61226141 19.333334
5.2752123 2.2429101 0.68395126 16.105
5.7050152 2.2166216 0.63079214 15.1055
3.4703352 2.3920901 0.64357454 22.10375
3.9564652 2.3731821 0.69890922 20.104
4.0463037 2.3531122 0.603715 20
-1.2146571 0.082373828 0.70330441 3
-1.6441072 0.15602712 0.78528368 5
-1.3552668 0.25593594 0.71713829 9.0360003
1.232257 0.29227123 0.74639773 8.0930004
-1.6572223 0.33708629 0.7466954 8.3789997
1.2530512 0.3722747 0.73804259 10.09325
-1.6443931 0.42723042 0.74631947 10.04575
-1.5490324 0.43262827 0.75142068 9.3726664
-0.75248277 0.43232435 0.73480022 15.048875
-1.6510246 0.55494332 0.72393101 11.541875
-1.5512751 0.52371371 0.7262693 11.039
-1.3806801 0.52583605 0.75735712 15.036499
1.2892528 0.58467704 0.73987317 14.0885
-1.7002866 0.60306495 0.70430392 13.045
-1.6858851 0.64736372 0.76534694 13.04575
-1.5366462 0.61951858 0.76027429 13.0395
1.2948369 0.6739037 0.70749915 16.094
1.3486713 0.69275761 0.79194224 15.593
-1.570855 0.75857341 0.7374106 16.039
1.2730025 0.71208298 0.7695049 16.087999
-1.6866729 0.83827651 0.74626434 16.5455
-1.5905316 0.8893888 0.75222355 18.039
-1.4979702 0.81137216 0.71018445 19.606642
1.3549565 0.87884414 0.74959737 18.927042
-1.6716487 0.98567283 0.72477883 18.79175
-1.5368323 0.92271113 0.74065971 21.0355
1.354744 0.97867507 0.76939487 20.425085
-1.6713688 1.0058672 0.78468508 19.046
-1.5580759 1.0509537 0.76508313 22.535751
-1.6453673 1.1512549 0.77559936 20.5425
1.3452473 1.152032 0.72842324 22.841373
-1.6603419 1.2457542 0.70713812 22.038
-1.5940971 1.2528183 0.79363406 22.773251
1.3826025 1.2061415 0.79291797 23.09325
-1.6462734 1.3259301 0.72113007 23.03825
4.1698642 2.2693496 0.73358095 19.104
5.1726661 2.2587745 0.78341728 16.1045
5.6464458 2.2193916 0.73340917 15.105
3.8826373 2.3923914 0.77481019 20.1035
3.5185556 2.4046822 0.77423936 22.103001
-0.90468776 0.15321317 0.87548143 5
-1.651112 0.29898417 0.86078733 8.0469999
-1.3365697 0.27341273 0.83515418 9.0380001
-1.2246931 0.26176965 0.87494373 10.0395
-1.0722837 0.28835005 0.8363235 8.0452499
1.1568002 0.22913954 0.80642158 8.0869999
-1.6387174 0.35226282 0.8428781 8.546875
1.2586797 0.32069045 0.84506589 8.9227505
-1.6542572 0.46685684 0.83466256 10.273251
-1.5318576 0.4148463 0.8562519 9.0407505
-1.3731457 0.46786973 0.81633806 14.0375
1.2988383 0.41383544 0.83713609 11.0875
-1.5198808 0.53394258 0.86741197 11.541
-1.3566859 0.50987923 0.84220403 14.538
1.281937 0.50395972 0.84639734 12.58725
1.3328015 0.53116018 0.81879222 13.0925
-1.6054314 0.65965253 0.85074955 13.5
-1.5465287 0.61596078 0.84756601 13.0405
-1.4220445 0.63108385 0.85067117 16.537689
1.2808475 0.68636346 0.83986765 15.58725
1.3404588 0.65601808 0.82217669 15.0925
1.4014994 0.68692863 0.8839947 15.092
-1.6594735 0.75835609 0.82120419 15.546499
-1.5883763 0.75384277 0.83618844 15
-1.4434228 0.7569713 0.85392523 18.537624
1.3474585 0.77604717 0.83209449 17.087749
-1.5953747 0.88302416 0.81176043 17.039749
-1.4828032 0.81877041 0.83855039 19.703835
1.3785338 0.8022266 0.82827145 17.426001
1.3509852 0.9530828 0.84441131 19.5875
1.4202381 0.95578122 0.89766407 19.591999
-1.6703409 1.0659416 0.82938546 19.192749
1.4374734 1.0588756 0.88621461 21.092251
-1.6487356 1.1379725 0.84592074 20.581945
-1.5552883 1.1051817 0.83359408 23.036751
-1.6035887 1.2330947 0.82816774 22
1.2866822 1.2070441 0.83744496 23.087
1.3993603 1.2144804 0.87128663 23.092251
-1.6311828 1.3325239 0.84776998 23.039833
6.1342816 2.190912 0.80294478 14.105
6.5676918 2.1489449 0.8495518 13.105
4.1805806 2.2710731 0.82479089 19.1035
4.2221799 2.256089 0.8393141 18.1035
4.6643744 2.2683189 0.81885737 17.104
5.0999675 2.2498529 0.88882113 16.104
5.3622231 2.2474694 0.82561761 15.1045
3.0501754 2.3272448 0.88355273 23.1015
3.7926393 2.3918464 0.83193064 21.103001
-1.3315849 0.28572896 0.90193045 10.039
-1.2745848 0.2304671 0.95365357 8.5402498
1.3272513 0.2586489 0.95714062 8.0865002
-1.6466444 0.33033562 0.90483266 8
-1.3286521 0.30537742 0.98377007 10.04025
-1.6400526 0.40476507 0.90541071 9.0474997
-1.5461378 0.44893256 0.95040196 9.54175
-1.3545138 0.44310334 0.91226482 13.039
1.3431979 0.44825521 0.93010825 10.9215
-1.630342 0.59024328 0.96075147 12.285714
-1.5431257 0.51193732 0.92876524 11.0415
-1.3793366 0.54364192 0.95067209 14.62275
1.3607534 0.57221174 0.94008666 13.088168
1.4114923 0.52212107 0.98450255 11.59075
-1.5476439 0.61894161 0.95232987 12.54175
-1.435101 0.67163849 0.97177094 16.705999
1.3509514 0.66067445 0.9068352 14.839125
-1.5825849 0.73685557 0.9570868 14.2915
1.4409329 0.74628204 0.97385949 15.591083
-1.5740981 0.8418957 0.90382832 16.541
-1.4768661 0.84025621 0.93041301 19.5385
1.2945166 0.88787025 0.96971941 18.085751
1.3662122 0.8468886 0.93945473 17.418499
1.4611483 0.89006656 0.98815709 18.091
-1.6208861 0.97186214 0.92916107 18.222221
-1.5168258 0.98696119 0.94836783 21.0385
1.3514246 0.9684642 0.99165481 19
1.4494201 0.99727041 0.96953642 19.591249
-1.6110301 1.0534606 0.93306059 19.548
-1.5875604 1.0659298 0.96668351 19.0415
1.3417403 1.0303863 0.97087008 20.307333
-1.63232 1.1158355 0.93123442 19.694
-1.5596693 1.1275839 0.92632443 22.043125
1.447174 1.1259561 0.94918364 21.091499
-1.5553566 1.2802355 0.95668811 22.25
1.264021 1.2413636 0.95551473 23.085501
1.4132534 1.2728311 0.99622941 23.09075
-1.5380116 1.3678117 0.97922963 23.042
6.1281304 2.1795673 0.94126898 14.1045
6.8927269 2.1826663 0.91495562 12.105
4.1515784 2.2683222 0.91811758 18.603001
4.69313 2.2725987 0.92442256 17.1035
5.3894153 2.24103 0.93533033 15.104
6.30867 2.209156 0.97231299 13.1045
3.6845908 2.4157622 0.9916144 21.101999
3.7465732 2.4238441 0.90914053 21.102501
-1.6026577 0.13021709 1.0656406 4.6666665
-1.6127988 0.27233121 1.0262501 7
-1.5980456 0.24630529 1.0894235 7
-1.2626542 0.20667805 1.0170069 5.3333335
-0.81908166 0.28495094 1.0548211 8.0515003
-0.62461936 0.25332519 1.0388227 8.0547504
-0.59307128 0.24783866 1.0597285 8.0555
1.3237268 0.28437862 1.0207759 8.0857506
1.4107285 0.27619112 1.0546136 7
-1.3395839 0.33022305 1.0845617 10.0415
1.3394825 0.39716244 1.0665863 9.7519999
1.4368147 0.34721327 1.0555937 8.0900002
-1.3575001 0.40904552 1.0911809 11.708167
1.3446521 0.46517229 1.0484098 11
1.407972 0.41627079 1.0267658 9.7568331
-1.5584359 0.50122368 1.0529611 10.042749
-1.3663595 0.52545547 1.0785271 14.04125
1.3606393 0.52114069 1.0635644 12.0855
-1.6185013 0.66614079 1.032191 13.049
-1.5486885 0.63322479 1.0936136 12.04325
1.2865752 0.67185158 1.0001681 15.0855
1.3462569 0.64110404 1.0365211 13.945832
-1.604085 0.74574786 1.0096672 14.795375
-1.428478 0.74429107 1.0558866 17.790501
1.3576934 0.74113083 1.0274899 15.752334
1.479745 0.71946537 1.0976285 14.423167
-1.5844109 0.83005702 1.0191362 15.521
-1.4617329 0.8345533 1.0152403 19.039749
1.4813942 0.87047476 1.0845981 17.09
-1.4969889 0.94057876 1.0123012 20.789499
1.2958754 0.90195072 1.0705589 18.084749
1.4685456 0.95568407 1.0820104 18.545
-1.5725932 1.0449144 1.0399783 18.713306
1.3390599 1.0107433 1.0423735 19.085251
1.4549649 1.0284309 1.0321418 20
-1.5484581 1.1537015 1.0402267 21.519749
1.3223732 1.1188923 1.0277154 21.085251
1.4337454 1.1710291 1.0377141 21.474443
-1.5349375 1.2722057 1.0271933 22.296
-1.4807123 1.2750098 1.0572286 22.383499
1.2456239 1.2530478 1.0618011 22.750916
1.4065387 1.2772291 1.0264535 23
-1.5848936 1.3039317 1.0124422 22.042
-1.4712558 1.3125479 1.0782429 23.050501
5.7663808 2.1978569 1.0049403 14.104
4.1573739 2.2555289 1.0141178 18.102501
5.0781374 2.2736104 1.0102143 16.1035
5.4062648 2.2274969 1.0626479 15.1035
6.2142591 2.2062871 1.0965488 13.104
4.8883905 2.3054924 1.0767201 17.103001
3.5934176 2.4238958 1.0536287 21.1015
-1.5967283 0.060453139 1.1017456 3
-1.5855495 0.18629262 1.1269008 5.5555553
1.3317901 0.27928728 1.1323447 8.0423756
-1.5589725 0.38233906 1.1479832 9.0504999
-1.3606406 0.39196488 1.195032 11.042749
-0.66406214 0.39430895 1.1847901 11.055
1.3217579 0.35887685 1.1319839 9.3896666
1.4554899 0.38678458 1.127625 8.7945004
1.3352495 0.45582014 1.150516 11.0845
-1.5804026 0.52909368 1.146372 10.0435
-1.3752799 0.5552184 1.1853812 14.0425
1.3762525 0.5053432 1.1246812 11.751667
1.4897581 0.55006558 1.1561522 11.755833
-1.5613163 0.63575709 1.1640148 12.438749
-1.4109986 0.64506131 1.1604724 15.791937
1.3634372 0.61765337 1.1084965 13.085
1.3570629 0.74218512 1.1488274 15.0845
1.4874179 0.77684903 1.1514841 15.589251
1.5030591 0.76612186 1.1721275 15
-1.5677527 0.84820944 1.1507051 15.543583
-1.4567155 0.84301281 1.1124656 19.041
1.4975461 0.88082701 1.1838207 17.089001
-1.48931 0.95521694 1.1311718 20.541
1.2910396 0.9155401 1.1907275 18.0835
-1.5195032 1.0296143 1.1656413 19.051001
-1.4844474 1.0879596 1.1446239 20.051001
1.3272773 1.010743 1.1642267 18.834
1.4722852 1.044673 1.1651754 19.0595
-1.5623448 1.1569898 1.1196361 20.043251
-1.4963053 1.1354414 1.1350708 23.041
-1.5419061 1.2357419 1.1136725 20.771751
-1.4458196 1.2689769 1.1181371 22.358833
1.4189017 1.2492352 1.1308557 22.422501
-1.5090169 1.3094459 1.102829 22.043501
-1.4582663 1.3486941 1.1741929 22.522499
1.2587768 1.3159044 1.1964366 23.083
1.3896589 1.3026202 1.191983 23.088249
-1.4812211 1.4392849 1.1865411 23.0445
4.1320601 2.2376592 1.1482856 18.101749
4.8222179 2.2917666 1.1804717 17.102501
5.0229859 2.2177763 1.112704 16.103001
5.6489377 2.2035143 1.1181986 14.1035
3.4376144 2.4564316 1.1581959 22.1005
3.6371102 2.4052031 1.1401182 21.101
-1.5424724 0.053118207 1.2792671 3.5
-1.2604388 0.1871009 1.2536654 4
-1.5237478 0.29094428 1.2742195 6
-1.3262055 0.28964293 1.2565184 9.0437498
1.5027372 0.2728824 1.2952503 6.5
-1.5765238 0.37368834 1.2127886 8
-1.36194 0.36814693 1.2187119 10.043
-0.42668754 0.35215822 1.281711 10.0595
1.3546284 0.34902617 1.2590599 8.6670275
1.5068949 0.33170253 1.2543446 7.3571429
-0.57933486 0.40840536 1.2040609 11.0565
1.3704181 0.47641912 1.2405417 10.583875
-1.5650499 0.54173195 1.2106261 10.04425
1.354849 0.58866274 1.2810378 12.333333
1.5211879 0.55368859 1.2860243 11.088
-1.5079694 0.6180889 1.2967827 11.5455
-1.4102372 0.63444048 1.2944062 15.0435
1.5072598 0.67770261 1.2453867 13.04425
-1.5445561 0.74101275 1.2230445 13.460571
-1.4094337 0.70474631 1.2180514 16.709333
1.3047916 0.73358059 1.2437948 15.08325
1.504429 0.75321847 1.2284232 14.5
-1.5488317 0.84021676 1.2878711 15.045
-1.4528445 0.81951809 1.2548614 17.792749
1.3255093 0.82012838 1.2755547 16.041626
-1.5238404 0.93166864 1.2528733 16.044876
-1.4711351 0.91781735 1.225908 19.79225
1.2861561 0.92146981 1.2423773 17.083
1.4810138 0.96790171 1.2094898 17.75
-1.4809604 1.0248233 1.2081518 21.042
-1.4353768 1.1437377 1.2381024 21.0315
1.350017 1.1486777 1.2940277 20.083
-1.4380981 1.2127938 1.2462823 21
1.4057889 1.2151548 1.2491829 21.587749
-1.4137906 1.3825583 1.2669364 23.05275
1.2648321 1.332402 1.2576356 23.0825
1.3453965 1.336755 1.2522069 22.585251
4.1314816 2.231674 1.2978579 18.101
5.0488205 2.2401209 1.237556 16.102501
5.4713092 2.2388415 1.2024279 15.103
5.6976476 2.2116735 1.2608052 14.103
3.6503768 2.3983159 1.2338759 21.1005
4.8209152 2.3070316 1.2819579 17.101999
3.151119 2.4142904 1.296913 23.099001
3.2289248 2.4187624 1.2572515 22.099501
1.5275968 0.19977514 1.3665255 5
1.5217389 0.25959179 1.3395824 6
-1.3393898 0.36474478 1.3347306 10.0445
-0.57919657 0.38509548 1.3513458 10.05725
1.3619972 0.3482444 1.371308 8.5552502
-1.5410362 0.47505653 1.3023961 9.0452499
-1.3606812 0.40660003 1.3047557 11.044
1.3285872 0.41933656 1.325183 10
-1.5337191 0.55870748 1.3459686 9.8638334
-1.4019593 0.5570873 1.3322668 13.044
1.3285853 0.53263807 1.3353772 11.08275
1.329229 0.64454228 1.3738782 12.79125
1.5112202 0.63413221 1.3812101 12.2
-1.545489 0.73577416 1.3081295 13.04525
-1.4312887 0.7324006 1.3219141 16.125666
1.2758654 0.75707161 1.3600792 15.082
-1.5093509 0.80646628 1.374016 13.5
-1.4520406 0.85556471 1.3477637 18.043751
1.2966232 0.84963721 1.3795856 16
-1.4467913 0.98554248 1.3653512 17.382317
1.2650903 0.92772788 1.3376677 17
1.4586798 0.99521196 1.3547319 17.75
-1.4448799 1.0524367 1.3348109 20.213501
1.4600196 1.0503204 1.3512299 18.587
-1.4408031 1.1449727 1.3586006 20.44685
-1.4288545 1.2341294 1.3699017 21.348
-1.3911467 1.2710435 1.3844705 21.300501
1.3661962 1.2066727 1.3617921 20.584375
5.591167 1.272658 1.3666853 10.1025
-1.3641794 1.313976 1.362222 22.0235
1.3420227 1.3227605 1.3234442 23.0865
-1.4321052 1.4176743 1.3629258 22.046499
-1.3798419 1.4332711 1.3565105 23.053749
5.626399 1.6603593 1.3606445 12.1025
5.5534043 1.9541073 1.3868227 13
5.5545416 2.043108 1.3665183 13.55125
5.4627714 2.1684821 1.3920509 14.666667
4.5995588 2.280457 1.3397664 17.1015
5.0375385 2.2458997 1.3377123 16.101999
5.4677467 2.2271881 1.3393428 15.05125
3.0477755 2.3968062 1.3346827 23.098499
3.6742916 2.3951735 1.3335074 20.1
-1.4802371 0.18830697 1.4305897 5.3684211
1.5382277 0.13471681 1.444513 4
-1.3463886 0.32522911 1.4492686 9.1706247
-0.63126111 0.34287024 1.4790077 8.0570002
1.3220557 0.35274911 1.4669633 8.0817499
-1.3720778 0.41575974 1.4082571 11.045
1.3226322 0.44611737 1.4567546 9.7484169
1.529727 0.54504168 1.4776112 10.557334
-1.5039607 0.64480877 1.4169309 11.5465
-1.454784 0.62520182 1.4321096 12.136364
-1.3815682 0.61194348 1.4652247 14.0455
1.512931 0.68514711 1.4306698 13.0865
-1.4637119 0.7743122 1.4394592 14.046166
1.4912297 0.72241861 1.4687955 13.086
-1.5038729 0.84322089 1.4221834 14.0465
-1.4438386 0.85056633 1.460788 16.046125
1.3260649 0.80066574 1.4774696 15.0815
-1.4352547 0.92026079 1.4174994 17.379168
5.3455873 0.97531003 1.4180576 8.1020002
-1.4467943 1.0454612 1.438177 19.034563
-1.3803258 1.061361 1.4559288 19.693916
1.3658127 1.0564995 1.4930856 18.081499
1.4319504 1.0371163 1.4881343 18.585501
-1.4449946 1.1066059 1.4628675 18.047251
-1.3638855 1.1145924 1.4757694 19
-1.4195688 1.2256708 1.4453664 21.296188
-1.3450803 1.2724826 1.4477348 20.548
1.3900388 1.2078184 1.434236 21.085751
5.1140881 1.2772377 1.4910034 10.1015
5.3547397 1.2106538 1.4360484 9.1020002
-1.3605013 1.3277401 1.44529 21.768167
1.3266441 1.3155938 1.4371786 21.081499
-1.3012389 1.445962 1.4356824 23.04825
-1.3704187 1.5065567 1.4213592 23.047501
5.4129615 1.650318 1.4367205 12.102
5.1868863 1.7785933 1.4991541 13.1015
5.4726949 1.9557344 1.4131626 13.5
5.4333563 2.0948524 1.4505595 14.102
5.3872476 2.1894972 1.4378781 15.102
2.6653724 2.2631128 1.4532118 23.0965
4.1204481 2.2270842 1.447288 18.10025
5.0605688 2.2742131 1.4657955 16.1015
2.8636062 2.3683133 1.4095243 23.0975
3.1373558 2.3577759 1.4593755 22.098
3.6650774 2.3762004 1.4229668 20.099501
-1.437748 0.050346404 1.538512 3
4.5066462 0.13221948 1.5447476 3.5
4.4795675 0.20153587 1.5642282 4
-0.73427713 0.3392401 1.5505979 8.0559998
4.4819922 0.34486002 1.5428699 5
-1.605734 0.44423011 1.5272465 8.0465002
-1.4494107 0.45825258 1.5048536 9
-1.3612241 0.44268346 1.5007257 11.046
-1.5698004 0.51678795 1.5491858 9.0469999
-1.4642224 0.58609933 1.5043747 10.5
-1.4536403 0.67820048 1.5163174 11.583333
-1.3872733 0.65779251 1.5209526 14.546
1.3570908 0.62947774 1.5806342 11.580999
-1.4147446 0.76671433 1.5763849 13.02425
-1.3952167 0.74285406 1.5632083 15.5
1.3722898 0.77567929 1.5230532 14.0815
-1.4110136 0.84810472 1.5297563 17.189667
-1.384535 0.82108819 1.5980337 16.546749
1.339972 0.86292815 1.5845618 15.08075
-1.4058794 0.91514337 1.5165448 18.7125
-1.3716137 0.970846 1.5530996 18
1.2988333 0.97026426 1.5009818 17.080999
4.4176874 0.90190578 1.5955614 9.1000004
-1.3664618 1.0245327 1.5461117 18.047916
1.4073395 1.0957968 1.5212882 19
4.5450492 1.0001043 1.5429493 9.1005001
-1.4361091 1.1434367 1.556556 18.048
-1.3698874 1.1583097 1.5629233 21.5235
-1.4051605 1.2057387 1.5846214 19.0485
-1.3613082 1.2151269 1.5498167 22.682333
1.4066545 1.2334523 1.5810801 20.084499
4.3907266 1.2076179 1.5893151 11.1
4.5779219 1.2207209 1.5589277 11.1005
-1.3415507 1.3210721 1.5101781 21.12425
-1.3709488 1.449895 1.5603538 22.0485
-1.2797539 1.454971 1.5410247 22.54925
1.3973073 1.4754652 1.5762718 23.084499
-1.2584771 1.5071054 1.5563362 23.0495
4.9298277 1.6138016 1.5453504 12.101
4.9337068 1.7113589 1.5549219 13.101
3.9839201 2.2984982 1.547731 19.099501
4.277143 2.2467306 1.5559025 17.1
4.8107634 2.2746406 1.5026833 16.101
5.2051754 2.2505116 1.5143136 15.1015
3.1455297 2.3594463 1.5559591 22.0975
3.670378 2.3715978 1.5195767 20.099001
-1.3375447 0.067606784 1.6738372 3.5
-1.0998837 0.16561757 1.6341703 4
-1.4947312 0.24691391 1.6091385 5
1.5200297 0.28664386 1.6297184 6.2727275
4.2590203 0.22940035 1.6925299 4.1666665
4.4050527 0.22665714 1.6141201 3.5
-1.34884 0.3458164 1.6538363 9.0474997
-1.3612736 0.41797948 1.6097534 10.380333
1.3740296 0.45561939 1.6261696 9.2905006
-1.4806939 0.54081345 1.6593795 9.0485001
-1.3672723 0.53836489 1.6673324 11.411063
1.384756 0.52844018 1.6848593 10.0805
-1.3477554 0.65190667 1.68014 12.649313
1.3718953 0.62253606 1.609336 11.75
1.495447 0.60596567 1.6516012 11.090909
-1.3846908 0.73188031 1.6109498 15.380168
1.3281125 0.70254046 1.6990242 13.08
1.4655224 0.73712939 1.6212375 13
-1.3959917 0.83070165 1.6022987 14.04875
1.376948 0.80199856 1.6657226 14.0805
1.4527766 0.88330293 1.6449211 15.042
-1.3630904 0.91576946 1.610567 17.0515
-1.3013033 1.0676633 1.6250547 17.049749
1.4472166 1.0310534 1.6083574 17.299999
-1.29135 1.1832538 1.6959555 21.5485
-1.3064548 1.2130817 1.6635165 22
-1.2641344 1.296757 1.6828661 21.75
1.4238158 1.2518976 1.6380041 20
-1.3527625 1.36816 1.658534 20.716
-1.2830606 1.3308659 1.6390617 21.153374
-1.2630016 1.4474108 1.6356506 22.151875
4.3075666 1.4678924 1.6340554 12.5
4.4109321 1.4801373 1.6019169 12.1
-1.2505457 1.5426089 1.6567546 23.050251
-1.1774832 1.5752496 1.6668638 23.051001
4.4168878 1.5370136 1.6018748 13.1
4.2679873 1.6137146 1.6378709 14
4.1464267 1.7939438 1.6808987 14.833333
4.1486793 1.9030123 1.6717267 15.5
4.75421 1.9812185 1.6003537 15.1005
2.6904027 2.294415 1.6380688 23.095501
3.9363165 2.2906382 1.6260092 19.099001
4.107542 2.2180552 1.647483 18.099251
4.2671752 2.2509274 1.6585433 17.099501
4.7718806 2.2497303 1.6081285 16.1005
3.6763852 2.372685 1.6185274 20.098499
3.3614748 0.043869697 1.7728691 2
-1.3304716 0.17066722 1.7545165 4.8666668
1.4873298 0.16232178 1.7742988 4
4.1747661 0.15673275 1.7383834 3.5
3.4045753 0.23925027 1.763868 4
-1.3426973 0.32370219 1.7145298 8.5480003
-1.2913328 0.31031972 1.7555493 7
1.4817423 0.3337099 1.7720057 7
4.1814399 0.31879929 1.7458233 5
-1.2545748 0.46644944 1.7944508 9.0579996
-1.44733 0.56273562 1.7410965 9.0492496
-1.3094836 0.59841084 1.7815003 10
-1.2914412 0.55151379 1.7013818 10.5
1.3334684 0.57926226 1.7454236 11.07975
1.4854079 0.52654225 1.7363533 10
3.9838457 0.56280994 1.787219 7
-1.3528786 0.65309954 1.7185681 11.05
-1.2967538 0.64135373 1.7748163 12.0575
-1.2899345 0.76426888 1.7603133 13.0575
1.4896767 0.71547097 1.7716789 12.5
4.0446877 0.75425428 1.7944459 8
4.2206378 0.7563771 1.7414869 8.099
-1.3496189 0.88866764 1.7453434 14.27475
4.0703936 0.83893931 1.79333 8.3825836
4.1635232 0.86795509 1.7726793 8.5
-1.3324164 0.92099744 1.7447457 15.843442
-1.2661757 0.99115771 1.7828784 16.299999
1.4782104 0.96227771 1.7589674 15.722333
4.2086625 0.90563494 1.7424163 9.099
-1.2458764 1.0952324 1.7459087 17.051001
1.455238 1.0832477 1.7020792 17.5
-1.2723229 1.1132146 1.730355 18.195541
-1.3383154 1.2484989 1.781189 18.550251
-1.2428498 1.2457049 1.7433362 21.028875
1.4461461 1.2632488 1.7337823 20.0835
-1.3327289 1.3728409 1.7423024 20.025126
4.142765 1.379492 1.73713 12
-1.2094005 1.43208 1.7095314 22.051001
4.0552058 2.1384861 1.7195669 17.5
2.520843 2.2847488 1.7621553 23.094
3.7954128 2.2196989 1.7910582 18.333334
3.1897371 2.3910499 1.7463691 22.0965
3.6566985 2.3561604 1.7973787 20.0975
3.7298434 2.3553262 1.7084293 20
-1.2920897 0.086035416 1.8730314 4.5
3.0237939 0.049631335 1.8408232 3
-1.3265184 0.29585704 1.8765545 5.4000001
3.0588458 0.27731997 1.8524843 5
3.3685334 0.21266778 1.8009629 4
-1.3259498 0.36643928 1.8195463 9.0489998
1.3447608 0.35424802 1.8078239 8.0795002
-1.3156488 0.4331899 1.8274255 8.6494999
-1.2618542 0.47200814 1.8976941 9
1.5048219 0.45302826 1.8361485 9.0830002
-1.3081127 0.57234889 1.8357862 11.449875
-1.2880566 0.5025869 1.8459734 10.058
-1.3259684 0.6082412 1.8018677 12.769231
-1.2750247 0.60986096 1.8238014 11.166667
3.2237549 0.69731456 1.865626 8.0959997
1.4964064 0.79548389 1.8989687 13.5
1.5124117 0.74089718 1.8527533 12.583
3.0392063 0.7656123 1.8826321 9
3.927022 0.76162165 1.8222518 8.0979996
3.0720074 0.87300843 1.8663806 10.0955
3.3549993 0.80494469 1.8352168 9.0965004
1.4889239 0.9392283 1.835912 15.083
-1.2382574 1.0317715 1.849665 17.444445
-1.2198217 1.139801 1.8368858 18.222
-1.2196271 1.2836645 1.8179488 21.054249
3.7990875 1.2630523 1.8837235 12
4.0167084 1.251578 1.8117878 11
-1.2146971 1.3039593 1.8567981 22.050501
-1.1804541 1.3211139 1.8636332 20.059
1.4471087 1.3150582 1.8014075 20.083
-1.1636227 1.4190884 1.8076999 21.052
3.8298836 1.4719326 1.8764687 13.125
3.8539646 1.8079575 1.8420712 15.545455
3.3959849 2.4240558 1.8954246 21
-1.2690759 0.16005087 1.9277079 5
-1.2744168 0.24826923 1.9239612 6.25
2.9786754 0.20759323 1.9041787 4.4000001
-0.63481212 0.34529042 1.9463887 7
1.5337017 0.3226456 1.9471962 6.6999998
-1.2376533 0.48193666 1.983705 8.0524998
2.9344993 0.46185273 1.9446696 7
-1.2457654 0.5508911 1.9572436 9.0522499
1.5174217 0.58052552 1.923938 10
2.9419353 0.56276184 1.9338448 7.5
1.505978 0.67345065 1.9183443 11.66625
2.9246976 0.63699579 1.9178909 8
-1.2010242 0.73489875 1.9797519 13
-1.1942049 0.70808494 1.9799486 12
1.4969692 0.71677834 1.9782045 12
2.8000782 0.703107 1.9918816 9
-1.2331332 0.84458578 1.9547892 13.05225
2.8745601 0.89252257 1.9438021 10.5
-1.3484001 0.95843071 1.9081068 14.051
-1.2863736 0.98424608 1.9992416 14.052
-1.1708448 0.95544618 1.9688313 15.5
1.4917421 0.93346828 1.9605331 15.041
2.7728794 0.98537135 1.976836 11.5
-1.2124344 1.0865227 1.9098923 17.059
-1.1829759 1.0444393 1.972919 17.525749
1.4850184 1.0910026 1.9278029 16.5
1.502143 1.0434842 1.9401114 16
2.803225 1.0790865 1.9506925 12
-1.2029603 1.1254747 1.9763069 19.718
-1.1768111 1.1446134 1.9094622 17.0525
1.4842002 1.1753638 1.9087085 18.0825
3.0146413 1.1543877 1.9104691 13.095
-1.1903062 1.2130578 1.9378276 19.551876
2.8387928 1.2130826 1.9691933 13.5
2.9190295 1.2775537 1.9400727 14.0945
3.1334038 1.2575228 1.9001133 13.0955
-1.1736566 1.3738143 1.9531366 23.0515
2.7298405 1.3296585 1.9745765 14.666667
2.8249424 1.3394176 1.9724498 14.5
3.0350442 1.3242556 1.9279972 14.095
2.7476652 1.4681191 1.9653862 16
2.8426902 1.4126545 1.9309576 15.04725
3.0423629 1.4790685 1.9369823 15.095
2.8464098 1.5770651 1.992245 16.094
2.9208508 1.5917895 1.9433776 16.0945
3.6811812 1.5730802 1.9259326 14
3.6691792 1.7363391 1.9223715 15.5
2.7263732 1.8953172 1.9973351 19.0935
3.4395568 1.8619784 1.9856286 17.096001
3.5691962 1.9367015 1.9779648 17
3.5248494 2.1393716 1.967046 18
3.445483 2.2410676 1.9841938 19.096001
3.5382032 2.2733459 1.9358463 19
3.2856662 2.421062 1.9954811 21.095501
3.4357994 2.4233084 1.9415345 20.532
-1.1956726 0.027891643 2.0886862 3
2.7363863 0.0057571195 2.0497537 1
-0.77205706 0.1842175 2.0394313 4
2.8120294 0.16809063 2.0121584 4
-1.2103308 0.27968618 2.0236902 6
-1.1961607 0.20028864 2.0926263 5.7857141
1.5291914 0.23120734 2.0267565 5
-1.2373822 0.35659391 2.0175097 8.5
-1.1767493 0.36279941 2.0655854 8.052
1.5218667 0.36931339 2.0526218 7
-1.2152998 0.46921813 2.0387728 8.2765007
-1.1907667 0.46734628 2.086031 10.052
-1.2109604 0.52598321 2.0492809 10.026501
-1.1926185 0.51903737 2.0921233 11.052
1.523873 0.54557031 2.0001476 9
2.8149269 0.57982409 2.0076602 7.6666665
-1.3342335 0.65166569 2.0489097 10.051875
-1.2279977 0.618909 2.0406096 11.758408
-1.1606278 0.69812936 2.0895514 13.5
-1.2249943 0.77775753 2.0053267 15
-1.1564844 0.7309224 2.091228 12.552999
1.5189468 0.7708258 2.0729761 12.0815
-1.1584458 0.85867703 2.060504 14.7915
-1.1449077 0.9443081 2.0658431 15.40325
-1.2725365 1.0166528 2.0865574 14.0525
-1.1641581 1.0750268 2.0402002 17.530125
-1.2761821 1.166111 2.0014939 17.052
-1.1454146 1.1456439 2.0476627 18.052876
-1.151039 1.2369899 2.0652099 20.5
2.6658287 1.2886963 2.0064042 15
2.5664515 1.3449184 2.0601161 15.142858
-1.3603309 1.4033945 2.0557723 19.0515
-1.1414939 1.4205077 2.0192041 23.05225
2.7467675 1.5321726 2.0149775 16.0935
2.3832772 1.702172 2.0929544 19.091499
2.4449968 1.7252462 2.0528815 19.091999
1.6566314 1.8028117 2.0872264 21.5795
2.4638922 1.8899378 2.064863 20.091999
2.6426082 1.9054322 2.027704 19.093
3.0136828 1.9461721 2.0152926 19.0945
2.4743433 2.0759239 2.0668976 21.091999
2.7993264 2.0919721 2.0426757 20.0935
2.4461663 2.114023 2.0501938 22.091999
2.798121 2.1276877 2.0440953 21.0935
3.0844758 2.1553471 2.0495961 20.0945
3.1887603 2.1023638 2.0369933 19.094999
2.372788 2.3301756 2.0702207 23.091499
2.4824538 2.3663075 2.0837822 23.091999
2.5461617 2.3290889 2.0395 23.092501
2.7546506 2.3638601 2.0610857 22.09325
3.104727 2.3298106 2.0735087 21.0945
3.1426845 2.4452221 2.0048065 22.094999
3.223717 2.448657 2.0429556 21.094999
-0.96459031 0.080118358 2.1955972 3
2.5798254 0.19238037 2.1491582 4
-1.1329657 0.20052011 2.1708474 5.6666665
-1.0498112 0.22108904 2.1703801 5.3076925
-0.99743968 0.22722626 2.1454122 6
-1.1358634 0.31664249 2.1303849 6.5
-0.84154814 0.42576215 2.1728809 8.0635004
-1.145512 0.54031372 2.1426218 10.565471
1.5520093 0.53858954 2.1851749 9.0810003
2.601419 0.59777135 2.1343534 8.1538458
-1.1385502 0.67957681 2.1592824 12.8
-1.1175666 0.73591584 2.15974 13.276501
-1.1436754 0.84930944 2.1746364 15.552999
1.489287 0.8926816 2.1339269 13.0785
-1.1414551 0.9693771 2.1232717 17
2.5479069 0.98962682 2.1269715 11.866667
-1.124465 1.2382704 2.1118107 20.5
-1.0960473 1.2066929 2.180264 20
2.3478973 1.4522012 2.1345415 17
2.3183711 1.6751473 2.122138 19.091
2.1256351 1.7691691 2.1951108 19.444445
2.2747443 1.7178025 2.1250286 18.5
-1.3197477 1.8745635 2.1560173 23.05575
1.6511028 1.8264775 2.1977293 21.412169
2.3294363 1.8161649 2.1230204 20.091
2.0859869 1.9555391 2.1481891 21.5
2.1450012 1.9240574 2.134901 21.09
2.2210765 1.9630044 2.1251864 21.0905
