# .PCD v0.7 - Point Cloud Data file format
VERSION 0.7
FIELDS x y z intensity
SIZE 4 4 4 4
TYPE F F F F
COUNT 1 1 1 1
WIDTH 430
HEIGHT 1
VIEWPOINT 0 0 0 1 0 0 0
POINTS 430
DATA ascii
4.3712368 0.086452559 -4.2936873 3
4.282239 0.36012256 -4.2685533 4
4.27456 0.55954057 -4.2608662 5
3.9527042 0.62920088 -4.231297 6
4.449254 0.67451131 -4.2612867 6
4.0912342 0.91599274 -4.2130508 7
4.4075389 1.0065737 -4.266396 8
4.1577201 1.723114 -4.2255883 12
3.8208497 1.7664549 -4.177803 12
3.8070116 1.9262801 -4.1607246 13
4.1467071 1.9164153 -4.0828915 13
4.1018124 2.0281708 -4.0371175 14
3.8072581 2.3636878 -4.0440984 16
4.0420747 2.292017 -4.0846753 14.5
-0.49123073 0.20312935 -2.9134541 3
-0.27378413 0.30829325 -2.9026759 4.5
-2.6288395 0.4653199 -2.8236008 6
-0.45692968 0.46038544 -2.88661 6.5
-0.3879776 0.67183411 -2.873142 9.25
-2.5195174 0.93835169 -2.8355803 10
-0.75174993 0.89255816 -2.8042436 13
-0.392084 0.89172542 -2.8705928 12.25
-1.7691561 1.1879898 -2.990716 14
-0.57404727 1.1301556 -2.827821 15.25
-2.3795638 1.3084056 -2.8144042 14.25
-1.757556 1.3439504 -2.9560647 15
-2.0196066 2.1239464 -2.8077483 22
-1.4832678 2.1472669 -2.9594126 23
-1.9517627 0.27668732 -2.6301975 3.5
-3.3666482 0.4934136 -2.600143 5.5
-2.7015333 0.4928773 -2.7755613 6
-3.192368 0.7168057 -2.625433 7.5
-2.7088528 0.7410261 -2.7615082 8.5
-1.2577014 0.61533093 -2.7195778 9
-3.2306669 0.8923021 -2.6233902 9
-2.9446247 0.85676533 -2.6563249 9.5
-1.8238151 0.92129302 -2.6362581 12
-1.5545011 0.83143842 -2.703619 11
-0.41675699 0.99556088 -2.7998986 14
-2.9388859 1.0592654 -2.6743708 11.333333
-1.8700662 1.0116667 -2.6125836 13.5
-1.7214236 1.108198 -2.6131406 15
-3.0930524 1.2612911 -2.646554 13
-2.9910626 1.3841962 -2.6711121 14
-1.6807724 1.2190793 -2.6320391 16.5
-1.4959035 1.3013465 -2.6092668 17.5
-1.3501418 1.3376447 -2.6833744 18
-1.0132682 1.3565675 -2.7573481 18
-0.90337211 1.2344477 -2.787734 17
-3.1564381 1.4223802 -2.6040783 15
-2.7053399 1.4948583 -2.7161989 16
-2.6240587 1.6078676 -2.7459836 17
-2.4472864 1.6593634 -2.7789116 18
-2.7732384 1.845445 -2.6302714 19
-2.5003102 1.8521003 -2.6817167 19.5
-2.7964776 2.1029603 -2.6057882 21
-2.2939446 2.124742 -2.7794361 22.25
-3.6469893 0.28281963 -2.4502926 3.5
-3.4165251 0.25952247 -2.5752106 3
-2.1395037 0.38740543 -2.5780406 5
-3.9228868 0.56240392 -2.4102683 6
-3.6441259 0.51363522 -2.4436121 5.5
-3.3891811 0.58375996 -2.4537768 6.5
-2.2988963 0.54504955 -2.5163465 7.25
-2.1789773 0.55851388 -2.5078216 8
-4.3395572 0.64253587 -2.4128261 6
-3.8885267 0.69445527 -2.4191575 7
-3.3915002 0.72553688 -2.5446897 8
-2.2291722 0.7275607 -2.5307407 9.5
-3.7093675 0.85354364 -2.4241679 8.666666
-3.3943863 0.9767347 -2.546196 10
-2.1687777 0.81832021 -2.5739794 11
-3.4052124 1.0288652 -2.5369492 11
-1.8483653 1.1646597 -2.5957046 15
-4.3059411 1.225432 -2.408623 11
-4.1076832 1.6554176 -2.4046025 14
-2.9383903 1.7125776 -2.4645298 17.5
-3.2480881 1.9598774 -2.4118347 19
-2.9133887 1.813809 -2.561893 19
-2.6808906 1.8709526 -2.5999427 19
-3.1501083 2.101135 -2.4337993 20.5
-2.9239998 2.1695192 -2.499867 22
-2.4945843 2.1270416 -2.584857 21
-2.7535088 2.2209299 -2.5174026 23
-4.6856594 0.27669114 -2.2653215 3
-4.5381045 0.21566322 -2.3278792 3
-3.9442973 0.3116475 -2.3865986 3.5
-4.7132826 0.48792005 -2.2891674 5
-3.9740686 0.48677012 -2.3828344 5
-4.5814648 0.79214412 -2.3372889 7
-3.7590299 0.6700992 -2.3669109 7
-4.7366776 0.99335623 -2.2595844 8
-3.6850948 0.80015188 -2.3197355 8.5
-3.4527841 0.80094177 -2.3711114 8
-4.4334459 1.0958798 -2.3450732 9.5
-4.2610383 1.1804352 -2.2562351 10
-3.6228571 1.0602627 -2.3301184 10.5
-3.3900213 1.0346456 -2.3229384 11
-4.4207463 1.2550592 -2.3220005 11
-3.5639443 1.3279384 -2.3258469 12.75
-3.3487592 1.2449327 -2.3343115 12.5
-4.4380741 1.4542122 -2.3033166 12
-4.2764983 1.4996928 -2.3997631 12.5
-3.5399635 1.4944119 -2.3755553 14.5
-3.2926831 1.4135689 -2.3356609 14.5
-3.1639228 1.5746257 -2.3302341 16
-4.425252 1.6177742 -2.3003631 13
-4.3529801 1.6454877 -2.3598037 14
-4.1085358 1.7704405 -2.3948679 15
-3.4969354 1.6641501 -2.3569393 16.5
-3.3418126 1.8957163 -2.3778682 18
-2.9671273 1.9997288 -2.3491764 20
-5.4131413 0.35445273 -2.027945 3.5
-5.2380486 0.33839422 -2.1184206 3
-5.3028011 0.49675739 -2.0909142 4.5
-5.3634887 0.92057925 -2.0343008 7
-5.342751 1.0890653 -2.0319111 8.5
-5.3678064 1.2602479 -2.0255723 10
-5.0368738 1.2438409 -2.1668291 10
-5.5476847 1.5874383 -2.0021019 11
-5.3595748 1.4864033 -2.01407 11
-5.0737019 1.507163 -2.1986632 11
-5.1478286 1.6665913 -2.048007 12
-5.640996 2.0734997 -2.154737 13
-5.6690178 2.221549 -2.1560712 14
-5.5698366 2.2579086 -2.1288371 15
-5.6489854 1.1254822 -1.9434688 8
-5.6316123 1.3913792 -1.974106 10
-5.5871868 1.2338009 -1.9507612 9
-5.4201159 1.7667396 -1.9697912 12
-2.2807899 0.19609655 -1.6044849 4
-4.7869368 2.3828795 -1.0841343 18
-4.7286029 2.4464309 -1.0556595 19
-4.792943 2.3956215 -0.97958398 18
1.012237 0.16985744 -0.6597628 7
1.0311428 0.28172901 -0.63973582 9.5
-5.054985 2.341208 -0.77182525 18
-4.9557605 2.3970287 -0.76528025 19
1.0598911 0.2506431 -0.53897756 9
1.1096499 0.082094081 -0.35718021 4.6666665
-4.9869924 2.3708398 -0.22691941 18
-4.8601303 2.4348669 -0.27674371 19.5
-2.3159187 0.18771079 -0.096438996 5.5
-2.1149769 0.095563918 -0.099180438 4
1.1580372 0.09934511 -0.12569426 5.2857141
-2.3092668 0.34280062 -0.086694352 8
-2.1093745 0.29821512 -0.1161761 7
1.1550875 0.36581355 -0.11437635 12
-2.3058758 0.49425536 -0.093706481 10
-2.0971129 0.52471107 -0.11593249 10.5
1.1145474 0.44718599 -0.16141278 13
-2.28021 0.70182467 -0.084615938 13.25
-2.0775046 0.73102248 -0.10148697 13.5
-2.239814 0.88055575 -0.042227648 15.75
-2.0149522 0.84714115 -0.068120673 15
-1.9750954 1.4728889 -0.073465712 23
-2.2888598 0.13428257 0.027900346 4
-1.6470149 0.17250636 0.00048106909 6.1999998
-2.2638845 0.32990369 0.12278724 7
-1.6486435 0.33014852 0.00367558 11.1
-1.5997876 0.29653507 0.17992294 10
-1.5961621 0.47782198 0.078541934 15
-1.9976838 0.88680202 0.13799675 16
-2.2529049 1.1292593 0.023890376 20.5
-2.0434222 1.1948839 0.017440973 20
-2.0924082 0.073268145 0.32456607 2.5
1.3331442 0.51024222 0.22409044 12.833333
-2.092911 1.0990174 0.38908046 19
-2.1572843 0.13491002 0.46255767 2.5
1.3082277 0.05472701 0.42003828 4
1.4496219 0.072316058 0.59234732 4
1.4584647 0.23939197 0.5705896 7
1.4097518 0.46497729 0.41711706 11.5
-1.9301239 0.67613661 0.42959145 15
1.4505113 0.6101554 0.47472626 14
-2.0978773 0.97426653 0.52033687 18
-1.9768584 1.3039929 0.57971597 22.5
-1.947204 0.0042978371 0.68072265 2
1.4839957 0.03980767 0.77299666 4
-2.1131413 0.76917636 0.65942651 14.5
1.522616 0.72209609 0.75108302 14.5
-2.0934057 0.91770291 0.63972223 17.166666
-2.0595727 1.0999436 0.60822916 20
1.4047016 1.062479 0.77321851 19.5
-2.0228043 0.27510396 0.90653163 7
1.5849947 0.3174977 0.93261206 8
1.6059544 0.21208185 0.97311509 6
1.5817362 0.50966454 0.8816992 11.5
-1.8499999 0.72849435 0.92593759 14
1.4472438 0.71422708 0.9827587 14
-1.8388796 0.88982505 0.87270498 16
1.4158865 0.9000892 0.93973356 16.5
-1.9167241 1.1999522 0.87661409 21
1.4870452 1.3151358 0.98643905 23
-1.7704664 1.4383546 0.82294655 23
-1.9435216 0.019655621 1.1752701 2
1.4530126 0.051966213 1.1379777 4
1.6086656 0.099615298 1.0979512 4
1.4521406 0.28196657 1.15965 7
1.6209074 0.20992759 1.1565849 6
-2.0016241 0.51136792 1.0388193 10
1.4764971 0.48009896 1.1689882 10
-1.7708161 0.72180068 1.1568722 13.5
1.4433675 0.62817198 1.0494999 12
1.6047254 0.6131801 1.0035843 13
-1.8435926 0.93888402 1.1594279 17
-1.5846894 0.88352096 1.1352191 17
-1.856288 1.1164703 1.0690103 19.25
-1.6055927 1.0662771 1.0368804 20.5
-1.5408943 1.1680151 1.1255723 21.25
1.5329105 1.1232293 1.031937 20.5
-1.8472352 1.3207991 1.0917318 21.75
-1.7389112 1.3045245 1.0996851 21
-1.5403783 1.2818499 1.0639054 23
1.512928 1.2290179 1.0228252 22
-1.7898762 1.4183012 1.1773082 23
-1.7152137 0.10953628 1.3602457 4
-1.5447741 0.16999333 1.2917659 5
1.4598964 0.02705518 1.32787 2
1.6006956 0.1176585 1.3695157 4
-1.7533729 0.27576542 1.2691319 7
-1.5501885 0.30686423 1.2882072 7.5
-1.5498829 0.46817985 1.2560112 10.5
1.5794947 0.53048354 1.3608425 11
-1.815538 0.75544715 1.3070695 13.5
-1.4980531 0.71874321 1.3439424 13.9
1.5679129 0.68325138 1.3435328 13
1.6031594 0.61718059 1.2037508 12
-1.8584408 0.85666424 1.2050508 15
-1.7559887 0.95685673 1.2430681 16.5
-1.4548931 0.91718996 1.3492179 17
1.5028535 0.86542112 1.278329 15.388888
-1.8062385 1.1023241 1.3072859 18
-1.7163807 1.0954309 1.2534369 18.5
-1.4462004 1.0344779 1.3221567 19
1.541467 1.1457043 1.317372 19.5
-1.7927622 1.2643865 1.257866 20
1.5286523 1.2545745 1.2833509 21
-1.7006041 1.4109234 1.356553 22
-1.7176795 0.11433452 1.4646811 3.25
-1.4267662 0.089601368 1.4969021 3.8
1.5457411 0.1221828 1.4358652 4.1666665
-1.8070775 0.35469076 1.4117723 7
-1.6919886 0.32751843 1.4866942 7.1666665
-1.4380791 0.28609082 1.4644979 7
1.5453749 0.30860966 1.4363971 7
-1.7273667 0.49846625 1.4646461 9.9375
-1.4100976 0.44070098 1.4950351 9
1.541738 0.46905446 1.430501 9.5
-1.709185 0.76063722 1.5491643 13
-1.5624843 0.78352147 1.48832 14
1.5928319 0.65642959 1.5876883 11.5
-1.6886401 0.94217479 1.5226681 15.5
-1.5591291 0.87034142 1.4876264 15.5
1.5870262 0.88786608 1.5110508 15
-1.6750369 1.103382 1.5322075 17.5
-1.4027331 1.0141444 1.5259176 17
1.5710582 1.0981953 1.5406617 17.5
-1.6783484 1.3285185 1.4750508 21
-1.6054218 0.020066088 1.7385591 3
-1.5906805 0.0037000696 1.7528672 2
1.6042967 0.13187607 1.6513397 4.5
1.5985926 0.2760061 1.6535232 6
1.6131951 0.3577002 1.6551909 7
-1.7155105 0.43199316 1.6851281 8
1.6099318 0.42244148 1.6557071 8
1.6048185 0.73146904 1.6079193 13
-1.50069 0.89546865 1.6731118 15
1.5912575 0.93807286 1.6468885 15
-1.6015902 1.1374071 1.7466661 17.5
1.5839844 1.0447457 1.6289215 16.5
-1.606286 1.3018124 1.7005975 19.75
-1.6352696 0.17595105 1.8452281 4.5
-1.5048678 0.072855055 1.9418645 3.5
-1.6342585 0.33105308 1.8225894 7
-1.5096138 0.30837464 1.8700883 6.5
-1.6163827 0.54342234 1.8283211 9.333333
-1.5102377 0.54579902 1.8284034 9.5
-1.4939727 0.70864153 1.9495827 12
-1.5151778 0.86363012 1.9261656 13.666667
-1.5500647 0.14867678 2.011292 4
-1.4865282 0.32662451 2.0657382 6.5
-1.4848633 0.53300166 2.0277255 9.25
-1.5358037 0.71718717 2.001091 11.5
1.8500545 1.1086369 2.1704822 14
1.6822778 1.230011 2.1928396 14.5
1.8241729 1.226724 2.1345019 14.5
1.7422305 1.434929 2.0929713 16.5
1.7537426 1.6585926 2.1078818 18.5
1.8485497 0.071941622 2.3235457 3
1.8602551 0.30524909 2.3310144 5.5
1.8565577 0.4937399 2.3402097 7.5
1.8622702 0.63858736 2.266804 9.5
1.8524002 0.86158985 2.2259214 11.5
1.6857187 1.1148689 2.3018446 13
1.8096768 1.2539504 2.3538511 14.5
1.7753575 1.5110149 2.2392721 17.5
1.8590354 1.4557211 2.35236 17
1.8483709 1.6546369 2.2829156 19.5
-1.630367 1.8692131 2.3989131 21.5
1.7915791 1.8914506 2.3174403 21.5
1.8213679 1.8033311 2.269278 21
1.7837743 0.079546221 2.5706408 2
1.8429972 0.23172607 2.5317938 5
1.8382579 0.65448725 2.5388525 9
1.8240694 0.81381679 2.5172319 10.5
1.794952 1.1486293 2.4889717 14
1.8504641 1.0676589 2.5066643 13
-1.6084304 1.3744249 2.5469608 16
-1.5600147 1.3658725 2.5804982 16
1.8778346 1.2672623 2.455869 15
-1.6242461 1.4941537 2.5337794 17.416668
1.8385053 1.5483787 2.519877 18
-1.6275702 1.7391466 2.4500456 19.75
-1.5695333 1.6949482 2.582468 19.5
1.8018399 1.7209392 2.4774778 19
-1.550929 1.849527 2.5688148 20
1.7966088 1.8246458 2.4061427 20
-1.5458611 2.1094275 2.410125 23
1.8311738 0.10049672 2.6202533 4
-1.7473847 0.31010777 2.6877322 4
-1.5824683 0.59701347 2.7737784 8
1.8229977 0.46912074 2.6012857 7
-1.5716544 0.68992972 2.7728848 9
1.9166225 0.63143164 2.7095718 9
-1.5523617 0.89772606 2.7781587 11.25
1.8963832 0.87859207 2.7184815 10.5
-1.6097475 1.190426 2.65974 14
-1.5477804 1.0559294 2.7292089 13.5
-1.3421774 1.1283574 2.7815895 13.5
1.881454 1.0781078 2.6875145 12.5
-1.6066817 1.213571 2.6578526 15
-1.5641644 1.3014578 2.6868417 15.5
-1.3188025 1.2982271 2.7476063 15
1.8499644 1.2692991 2.6903648 14.5
-1.5378653 1.5100787 2.665885 17.125
1.8301358 1.4565215 2.6382413 16.5
-1.4577894 1.6898175 2.7756574 18.666666
-1.4275315 1.9672529 2.6952131 21
-1.4285815 2.1038237 2.6521688 22.5
-1.161063 -0.01175604 2.8478169 3
-1.5011311 0.12341155 2.9419065 3.5
1.8880543 0.12196923 2.9169583 4
-1.5275825 0.33076105 2.8887208 5.7222219
-1.1637079 0.23046371 2.8535333 5
1.8874391 0.323856 2.9650986 5.5
-1.5398874 0.46460035 2.8569572 7.1666665
-1.5313463 0.65931869 2.8562047 8.833333
-1.495373 0.90354419 2.9168897 10.75
-1.3350039 0.86178756 2.9158416 11
-1.522212 1.1059378 2.8453493 13
-1.4475788 1.2710712 2.9610701 15
-1.4181352 1.5946276 2.8974042 18
-1.3403212 1.5864834 2.9765213 17
-1.3429513 1.7210667 2.9478538 18.5
-1.3826051 1.8948349 2.8298254 20
-1.4633155 0.041874688 3.0812268 1.25
-1.3983908 0.026481571 3.1404572 3
-1.4353229 0.23904233 3.1021597 4
-1.2257435 0.56742287 3.0651441 8
-1.4246055 0.69102985 3.0894969 9
-1.2738959 0.74432528 3.1336303 9.5
-1.2864753 1.0996722 3.1779726 12.5
-1.2906287 1.2663769 3.1816549 14.25
-1.3098123 1.4947683 3.1033123 16
-1.2693776 0.10736703 3.3251979 3
-1.263628 0.27747798 3.3440032 4.75
-1.2598952 0.54325342 3.3131695 7.1666665
-1.2419035 0.66055989 3.3588693 8.5
-1.2655143 0.89413488 3.282799 10.5
-1.2778947 1.0960842 3.2715716 12
-1.2902855 1.2055877 3.218924 13
2.1620531 1.4536102 3.3026438 13
2.0913987 1.7740028 3.3365693 15
2.0697422 1.910264 3.2864876 16
0.39855605 2.387522 3.3151517 21
-1.2536166 0.28327125 3.4065306 5
1.9942414 1.3676307 3.4976473 13
1.9877578 1.5928551 3.4765153 14
2.0426378 2.3323922 3.5668783 19.5
2.1003437 2.0881639 3.6514711 18
1.5523409 2.3458607 3.7880116 20
-1.1681799 2.2929299 3.9189775 18.75
0.38007054 2.3180172 3.9003527 19.5
1.6573883 2.2888155 3.8863759 18.5
-1.1009007 2.0256886 4.1439638 17
-0.99703723 2.2670834 4.1244898 18.5
-0.23991874 2.2549708 4.1203036 18
0.40484139 2.2601917 4.0810299 18
1.1635708 2.2550697 4.1145754 18.5
1.4028671 2.2809069 4.0107598 19
-1.1598606 0.85293585 4.2497973 9
-1.16838 1.0733609 4.2087989 10
-1.0685467 1.7253796 4.3132143 14.333333
-1.0505161 1.9591758 4.3363066 16
-1.0646418 2.1980278 4.3385897 17
0.69490528 2.2788432 4.2530947 18.5
-1.0062106 1.4923962 4.4054174 13
-1.0155338 1.7325407 4.5160084 14
-1.0326821 1.8909353 4.4704266 15
0.75429589 2.1984642 4.4135537 17
-1.0382956 0.38425356 4.613493 5
-0.97463053 0.22833481 4.7559237 4
-0.98989463 0.69280386 4.7175298 7
-0.99128717 0.9062084 4.6611781 8.5
-0.98112172 1.1038324 4.7177386 10
-0.97274977 1.2524493 4.673923 11
-0.97476298 1.5303807 4.6394758 12.5
1.3382547 2.1559098 5.3432627 14.5
2.6035435 0.13423245 5.5903406 2
2.4548454 0.17794833 5.7623158 2
2.6425898 0.33703995 5.6349521 4
2.6899214 0.6976549 5.699285 6
2.7094991 0.8809005 5.697875 7
2.6693852 1.1759657 5.7327986 8
2.6940861 1.3143525 5.7423468 9
2.671114 1.4691954 5.7656484 10
2.0299461 0.11568158 17.582949 1.5
2.449959 0.25377208 17.529144 2
1.8278807 0.70301253 17.667992 4
1.834556 1.1269262 17.775988 4.5
2.434531 1.1973214 17.698404 4
1.8657445 1.2869108 17.747776 5
1.1715412 -0.60960275 17.829222 3
1.154236 0.43413138 17.877924 2
1.5523629 0.49419647 17.923615 4
1.4740276 0.94995975 17.900682 5
1.2326313 1.2481377 17.89361 5
1.4276133 1.2260315 17.984819 6
1.0676417 0.4858923 18.081919 4
