# .PCD v0.7 - Point Cloud Data file format
VERSION 0.7
FIELDS x y z intensity
SIZE 4 4 4 4
TYPE F F F F
COUNT 1 1 1 1
WIDTH 591
HEIGHT 1
VIEWPOINT 0 0 0 1 0 0 0
POINTS 591
DATA ascii
5.3950562 1.8084635 -4.4563017 10.013
5.0723939 2.3248205 -4.4212165 13.1245
4.3403893 0.2315851 -4.2744122 3.5
3.9677694 0.63263321 -4.2339363 6
4.2980285 0.59143388 -4.2625723 5.25
4.449254 0.67451131 -4.2612867 6
3.6877544 1.0430989 -4.1213145 8.7568331
4.1611075 0.99431181 -4.2189212 7.8087502
4.4324465 0.92293948 -4.2717972 7.5
3.8495011 1.3344281 -4.1212053 10.071125
4.0573459 1.2867864 -4.2089529 10.1265
4.5896392 1.4190539 -4.2895899 9.6252499
3.3283894 1.8512404 -4.0436277 13.62825
3.8007629 1.8243976 -4.1705575 12.469375
4.119204 1.849844 -4.142323 12.6565
3.2663612 2.1838369 -4.0716243 15.6285
3.7757339 2.3150463 -4.0988941 15.625834
4.1481338 2.2143674 -4.0903573 14.364646
4.5926275 2.326844 -4.1113091 14.12475
4.8726549 2.3483269 -4.0853662 14.124
3.2210786 1.0752521 -3.9858067 9.1285
2.5963066 2.3520687 -3.9714489 17.630749
3.4259996 2.3853288 -3.7902443 17.127167
3.9088914 2.3639195 -3.9288826 16.062874
4.0776849 2.3767533 -3.8099644 15.62525
1.8909196 2.4759824 -3.6316721 20.132999
2.6526845 2.4000161 -3.6067698 19.129499
3.0295548 2.4027891 -3.9468641 17.129
-1.4300784 0.55951673 -3.2753756 8.0170002
0.60364854 0.78305012 -3.4682205 9.0270004
0.15205926 0.82844055 -3.4674404 10.03
0.99579239 1.0892069 -3.4152634 12.0245
-0.66889894 1.8089564 -3.2556365 19.512001
-0.39226511 1.8831817 -3.3083234 20.01
-0.18206587 2.2417021 -3.3410237 23.008499
2.6661732 2.3981767 -3.3175266 19.1285
4.0529876 2.3605485 -3.541656 16.1245
1.9725488 2.5039709 -3.4999566 21.13225
2.0720394 2.517504 -3.2421069 21.131001
-2.6330755 0.53867763 -2.8138466 6.6666665
-2.1342034 0.73110312 -2.8438547 9.0475006
-1.7063783 0.71939456 -2.8639352 9.0445004
-2.5195308 0.93834227 -2.8355737 10
-2.2146084 1.1482124 -2.8814144 13.014545
-1.7311372 1.187374 -2.9668934 14.04494
-1.3615136 1.1179537 -2.9832499 13.541625
-2.2963812 1.3501544 -2.841985 14.715767
-1.7921748 1.3992044 -2.9873829 15.696556
-1.3943015 1.4907769 -3.0436616 17.000103
-2.1262407 1.7674605 -2.8740616 18.700001
-1.7595679 1.7795314 -2.9489982 18.92275
-1.4193575 1.9264293 -3.0546591 20.645437
-2.0196202 2.1239371 -2.8077486 22
-1.7534192 2.1387529 -2.8912451 22.469707
-1.3611712 2.1242404 -2.9719107 22.523125
0.052244127 2.2359362 -3.1697929 23.0305
1.4892374 2.4636605 -3.0140994 23.133499
1.8043438 2.4929848 -2.959444 22.6315
2.1797175 2.5177784 -2.9649625 22.415213
2.6665912 2.436275 -3.0707786 20.460958
2.8766334 2.4676547 -2.814785 20.579525
-3.3080089 0.6269564 -2.4740963 6.9761906
-3.0013461 0.5901792 -2.6602285 6.695055
-2.6724072 0.66404063 -2.7657707 7.7252288
-1.3624424 0.65584171 -2.631048 9.5980558
-0.80009639 0.62254405 -2.7280619 9.5372496
-0.56145114 0.64792162 -2.7336802 10.035
-0.171772 0.58983088 -2.7729156 9.0314999
-3.2532182 1.1428512 -2.4161708 11.714286
-2.9603634 1.0784218 -2.6252046 11.272728
-2.6562667 1.0661967 -2.7751732 11.548477
-2.8783302 1.5136688 -2.5462623 15.535714
-2.5873623 1.445219 -2.7179213 15.408668
-2.3978739 1.5386671 -2.7816274 16.478001
-1.2666756 1.2404022 -2.5427225 17.042
-2.9651601 1.8323514 -2.44805 18.210766
-2.6239467 1.844156 -2.6150615 18.9277
-2.3756523 1.8722695 -2.7358985 19.1495
-3.7133489 2.1729085 -2.4360163 18.056999
-2.8321979 2.2969537 -2.489758 21.969833
-2.4657605 2.1608729 -2.5990963 21.525208
-2.1139476 2.2187016 -2.7147849 23.047998
3.1760118 2.3335674 -2.75892 19.132
3.3589962 2.3937316 -2.6176083 18.011499
-5.7526474 2.60709 -2.485517 16.061501
2.1361847 2.4524336 -2.5581834 23.131624
2.6093261 2.4719756 -2.5860245 21.991987
2.9385829 2.4502144 -2.580543 20.961624
3.2046373 2.4409988 -2.6853418 20.124001
-3.6903734 0.70639712 -2.3757355 7.4000001
-5.6019382 1.193133 -2.0458567 8.75
-5.039248 1.0374615 -2.1403725 8.2580662
-4.6072536 0.98528081 -2.2960253 8.7182503
-4.3153057 1.0590624 -2.291811 9.1399374
-3.7105052 0.9501766 -2.2973981 9.5347004
-3.4657047 1.009696 -2.3385344 10.222222
-5.6000271 1.3724277 -2.0361483 10
-5.5476952 1.587431 -2.0020821 11
-4.933712 1.3966554 -2.1353738 10.909333
-4.2197781 1.5287932 -2.2933328 12.850895
-3.6462996 1.5753069 -2.2858636 14.629
-3.3879714 1.3996882 -2.3127151 13.7
-3.1639335 1.5746181 -2.3302264 16
-5.4262271 1.7167258 -2.0764499 11.812625
-4.177702 1.9439876 -2.2077169 15.759501
-3.6285269 1.9041597 -2.3360481 16.557251
-3.3172166 1.9391381 -2.3744781 17.88925
-3.0377755 1.8047183 -2.363977 18.2775
-5.6438246 2.1489139 -2.1690879 13.583333
-5.5648761 2.2554388 -2.146034 14.708333
-3.9892497 2.3320601 -2.3413513 18.725
-4.241147 2.4703088 -2.065094 19.310375
-3.962455 2.5650196 -2.1021826 20.759449
-3.5438762 2.5534854 -2.2949798 21.723833
-3.0939808 2.4869785 -2.3470156 22.721832
2.3594577 2.4479785 -2.3980877 23.133499
2.6336164 2.4917452 -2.2550662 22.672625
-2.4332833 0.32035559 -1.8100942 5
-2.2767987 0.20535263 -1.603243 4.25
-5.3464174 0.79940224 -1.8600739 7
-5.6485982 1.1245306 -1.9614522 8
-5.5845151 0.80482423 -1.9411396 6
-6.5896955 1.2727782 -1.6874186 8.0655003
-6.1562409 1.3262933 -1.7193604 9.0649996
-5.6316218 1.3913717 -1.974085 10
-5.4688735 1.3999275 -1.9187571 10.021167
1.5096418 1.5296955 -1.6085197 22.132999
-6.9330735 1.6430398 -1.6186879 10.04
-6.4204965 1.6077214 -1.6898851 9.7320004
-6.1402326 1.8635199 -1.8153203 11.547
-5.420125 1.7667322 -1.9697726 12
-4.0028057 1.9560419 -1.990695 16.726831
-6.935987 2.3123577 -1.6140211 13.066
-6.2449465 2.3240898 -1.6558024 14.06525
-5.8371696 2.2076674 -1.8765475 14.055333
-5.5484915 2.3651164 -1.6563535 15.731166
-5.1880107 2.3559926 -1.8407031 16.31325
-4.7260089 2.3845251 -1.7942915 17.262701
-4.9947615 2.4200373 -1.6142894 17.038
-4.4027376 2.4721017 -1.8234692 19.14525
-3.7856643 2.5321069 -1.9958655 21.0595
-3.1380601 2.4370015 -1.9172956 23.057751
-8.2694798 2.2664323 -1.2022839 11.068
-6.9960079 2.2974348 -1.2828503 12.567125
-6.5665603 2.3555722 -1.2450391 14.041
-6.2291951 2.2876794 -1.325852 14.066501
-5.8480759 2.336776 -1.3742304 15.066
-5.5307441 2.3729694 -1.3635062 16.06575
-5.024003 2.3480015 -1.3547417 17.06525
-4.7079725 2.4026773 -1.4187534 18.439501
-4.232717 2.5105784 -1.4113975 20.397165
-3.695111 2.4758756 -1.4440302 22.0625
0.96080762 0.24584934 -0.84268045 8.62675
-0.38302302 0.52433699 -0.99049169 17.008499
0.72465515 0.54339623 -0.81691402 17.131001
1.0175123 0.63051212 -0.86928672 16.58498
1.1244476 0.96905792 -0.87460566 21.625748
-8.9086342 2.2082047 -0.89839268 10.069
-8.206295 2.2652216 -0.96199965 11.055625
-6.9959431 2.3203335 -0.95309818 12.80525
-6.2855139 2.2974606 -0.93755198 14.055
-5.7947407 2.3700471 -0.96399343 15.567667
-4.9648247 2.3580399 -1.0062084 17.266899
-4.7899446 2.3892469 -1.0318462 18
-4.6515603 2.4848797 -0.96744078 19.238935
-4.2609334 2.5226297 -1.0464419 20.899252
-3.6147578 2.4272008 -1.0562011 22.864901
1.0207875 0.24411066 -0.60859638 8.8921347
1.0438167 0.57842767 -0.61379945 16.421509
1.1504014 0.98035401 -0.55864841 21.721855
1.2196598 0.9548406 -0.46420512 23.116333
1.1298959 1.2492912 -0.7166208 22.880062
-10.049307 1.9358622 -0.76189131 8.0434999
-9.8100863 2.2450252 -0.75908226 9.5434999
-9.1966362 2.1924994 -0.44012603 10.07025
-8.7689457 2.2005734 -0.70316821 10.0695
-8.0819483 2.2805307 -0.63795727 11.0435
-7.9513173 2.2488418 -0.65289962 11.0695
-7.2836962 2.2857089 -0.47007284 12.181937
-6.9901438 2.3486431 -0.67101711 13.043125
-6.6679664 2.3307137 -0.42351598 14.044
-6.2042546 2.3321333 -0.58038306 14.223
-5.8357816 2.3406994 -0.62665051 15.218333
-5.5149455 2.3417497 -0.49720985 16.223167
-3.4070771 2.3827918 -0.4717474 23.0425
-4.6204605 2.4676225 -0.57395661 19.354021
-4.176228 2.5084414 -0.5293352 21.057001
-3.9635944 2.4837897 -0.6343106 22.401499
-3.5163651 2.4095824 -0.65002161 23.054501
-2.1910634 0.22354397 -0.090020381 6
1.1174499 0.21777193 -0.21027792 8.3380098
1.202886 0.35404235 -0.023838433 12.1085
-2.1914041 0.63051629 -0.096441031 12.127352
1.1276978 0.49095413 -0.19509478 14.390689
1.2178679 0.63989592 -0.051445093 18.108999
-2.1372387 0.89280325 -0.058805745 15.939305
1.1783301 0.84001982 -0.31400403 22.364
1.2477887 0.92063725 -0.15469852 21.951172
-2.061389 1.3358101 -0.046842486 21.860418
-1.9812248 1.4395751 -0.056844957 22.75
-11.465045 2.0374889 -0.16008148 8.0710001
-10.711976 2.1421151 -0.3579227 8.0705004
-10.230626 2.1154606 -0.3543435 9.0705004
-8.4466839 2.2167101 -0.18033385 11.071
-7.2432752 2.2122178 -0.11446255 12.07125
-6.8841043 2.2819633 -0.38185883 13.07025
-6.7433238 2.2634964 -0.11741503 13.07125
-6.3619447 2.3107162 -0.18466187 14.071
-5.7783003 2.3289013 -0.19379809 15.571001
-5.185051 2.3543828 -0.1951191 17.071001
-3.6525095 2.39624 -0.30091631 23.070333
-4.5205865 2.4383299 -0.24952082 19.439718
-4.1707897 2.5108764 -0.36333799 21.07
-3.9090819 2.4528687 -0.13280582 22.488167
-3.4436371 2.4659164 -0.37591028 23.033501
-2.1820445 0.19215894 0.21815118 4.7578578
-1.8939027 0.24973989 0.13149227 6.7157974
1.1809399 0.33564496 0.053822778 11.440333
1.2928219 0.28060129 0.25265881 9.1299696
-2.1825249 0.64074081 0.21616457 12.674255
-1.9442039 0.65362489 0.25100785 14.135776
1.1861533 0.42658845 0.029750498 13.774167
1.3236395 0.52187026 0.22215939 13.387437
-2.1393073 1.0510936 0.14019896 18.977098
-1.9813873 0.93389463 0.23435993 16.71158
1.3732018 1.0287849 0.24900025 21.557747
-2.0960555 1.286873 0.19588222 22.156847
-1.9730161 1.365857 0.14026524 22.140379
1.3355927 1.3059068 0.39184874 22.872562
-3.8736775 1.9015529 0.10778147 18.673199
-12.342208 2.064362 0.37142572 7
-10.864626 2.11641 0.066113144 8.0714998
-9.8501215 2.122457 0.13886282 9.0717497
-8.8371143 2.182554 0.019666165 10.0715
-8.7122669 2.1766071 0.18579769 10.072
-8.2715149 2.2492099 0.16436449 11.072
-7.2672205 2.2182603 0.22555712 12.072374
-6.5417743 2.2926528 0.2189405 13.772525
-5.7491279 2.3350425 0.15656051 15.772525
-4.9987297 2.2812843 0.14097872 17.07275
-3.6379762 2.3630772 0.061768681 23.073
-4.6316857 2.419055 0.040708333 19.405668
-4.3103352 2.494432 0.17801374 20.873249
-2.1009352 0.19181474 0.55317879 4.6805553
-1.9350649 0.19182368 0.70136803 5.4397569
1.4221573 0.16579223 0.58525562 5.9557767
-2.0799108 0.65549862 0.65192723 12.676692
-1.9283644 0.62484878 0.48769844 13.439809
1.4803816 0.60724014 0.63979709 13.302319
-2.0847847 1.0003551 0.60392421 18.373955
-1.9339528 1.0125391 0.54671544 18.548119
1.4289058 0.98690718 0.69214892 18.577135
-2.0595827 1.2795782 0.56105971 23.082001
-1.9168159 1.3128992 0.67716897 22.262608
1.4068499 1.2808368 0.69339323 22.427698
-15.947258 1.9378548 0.55549884 6
-11.070228 2.1110036 0.43348178 8.0722504
-9.6218462 2.1406832 0.43544188 9.0725002
-8.5088663 2.1968787 0.5218823 10.073
-7.8584771 2.2020097 0.45948073 11.073
-6.777884 2.287663 0.57234168 13.07375
-2.0524676 0.22528274 0.91334182 5.2222219
-1.8892075 0.20892328 1.1050824 5.4171968
1.5234137 0.25682867 1.0077674 7.0438194
1.6132902 0.22042981 1.096359 6.0686998
-2.0243928 0.52739984 0.94957906 10.385667
-1.8638748 0.64642215 1.0511839 12.415464
1.4976293 0.59096336 0.99680471 12.063421
1.6085315 0.59793419 1.058087 12.483714
-2.0066862 1.022843 0.83280551 18.333334
-1.8674873 1.0372595 1.0124083 18.228743
1.4670061 1.0423847 0.99279416 18.363976
1.6022375 0.85515368 1.0093241 16
-1.8208942 1.347567 1.0212383 21.9175
1.4823611 1.2941387 1.0173857 22.387005
1.7992446 1.9433397 1.1317823 23.130501
-11.494363 2.1203587 0.94197047 8.0732498
-10.259043 2.0735795 1.1209369 9.0740004
-1.7237872 0.26269585 1.4316701 6.1287146
1.5354574 0.22910558 1.3896139 5.7991662
1.6029944 0.16921526 1.3672881 4.9285717
-1.7222507 0.59561664 1.4387903 11.24473
-1.5624754 0.78352827 1.4883226 14
1.5468729 0.56975973 1.4001294 11.051385
1.6048235 0.59906757 1.2931439 11.571428
-1.7198526 1.0104165 1.3997658 16.851227
-1.5646125 0.94828385 1.551181 15.918
1.5335954 0.97983682 1.3492557 16.504351
1.9337649 0.81220925 1.5919994 11.128
-1.7040284 1.3597047 1.3550282 21.502941
-1.5761013 1.4918262 1.3831854 23.0525
1.5319633 1.2942545 1.3037027 21.363832
1.8421063 1.3750869 1.4763012 17.461668
1.7738252 1.8947761 1.4673753 22.03717
-1.6400622 0.23985699 1.7723684 5.7244897
-1.5470396 0.21407133 1.8766292 5.2263484
1.5985926 0.2760061 1.6535232 6
1.6102223 0.275168 1.6785583 6.2722502
-1.6695349 0.53692448 1.7129431 9.6299601
-1.5165082 0.58273554 1.8228332 10.326926
1.5960314 0.70874608 1.6635845 12.0895
1.6109011 0.53029037 1.649163 9.6473751
-1.6330819 1.0261256 1.7395173 15.935342
-1.5192308 0.90350944 1.832001 14.447217
1.5870913 1.004002 1.6317545 15.966667
1.7387774 0.91062689 1.742337 13.552444
-1.6182148 1.3461899 1.72146 19.952986
-1.592355 1.3225476 1.9827149 18.056499
1.7783022 1.452811 1.9299774 17.201897
-1.7141062 1.8505825 1.8711421 23.055
1.5887482 1.9583491 1.736196 22.1255
1.7527969 1.7651535 1.8092098 20.719839
1.565823 2.0457993 1.6715944 23.12575
1.7327052 2.0241427 1.8170543 22.612499
-1.5100081 0.27779731 2.031528 5.8000002
1.8544024 0.18859535 2.32728 4.25
-1.5003197 0.58866483 2.0484531 9.8498621
1.8360888 0.59878856 2.2774973 8.9110413
-1.5535357 1.0382838 2.2386515 14.313875
1.8031948 1.0332326 2.1934066 13.090367
-1.6934264 1.23251 2.0348036 17.096001
-1.5860729 1.2192291 2.1569312 16.069
1.7850088 1.3900157 2.2485399 16.251499
-1.6881075 1.854733 2.2083828 21.939257
-1.5747706 1.9311073 2.0929856 23.097
1.7890295 1.7444882 2.2120786 19.928051
-1.6761175 2.025095 2.2052927 23.073999
-1.3942161 2.0682089 2.3773577 23.099335
1.7316694 2.0357258 2.1777949 22.549
1.7720473 2.4422379 2.2902203 23.1236
-1.7473698 0.31011885 2.6877375 4
1.8312752 0.16413659 2.5417154 3.9642856
-1.5707483 0.61805272 2.7575676 8.539875
1.8673489 0.56671154 2.6257205 8.2403574
-1.6085447 1.0913117 2.6175277 13.565666
-1.5326315 1.0293388 2.7306767 12.736751
1.8537585 1.0126078 2.5933402 12.198389
-1.6209886 1.4110368 2.5460703 16.729792
-1.5274192 1.4012414 2.6671553 16.250191
1.8535675 1.3509912 2.6101124 15.625361
-1.6235133 1.7112894 2.4456859 19.639626
-1.4989122 1.7809533 2.6249051 19.831038
1.8029814 1.7764068 2.4742887 19.521563
-1.4493983 2.1312437 2.6051407 22.71455
0.66231596 2.2543623 2.7827022 23.087999
1.1372412 2.2905092 2.6617918 23.091625
1.547317 2.3159256 2.6471758 23.089188
1.7259611 2.3413558 2.5996957 22.8601
1.4827418 2.4341357 2.6584997 22.787252
1.8871529 2.4275064 2.7545593 21.62225
2.0690372 2.4446216 2.65344 21.123501
-1.4781255 0.20347424 3.0040367 3.9991388
1.888586 0.21339165 2.9357059 4.5833335
-1.4244642 0.63464338 2.9691501 8.6150045
1.8914084 0.60143173 2.8960125 8.0427494
-1.4209137 1.0096892 2.938349 12.050736
1.8863431 0.89189196 2.8175237 10.5855
-1.3620224 1.4382577 3.0241146 15.940949
2.0973947 1.5900847 3.0996854 14.622
-1.3686628 1.7660577 2.911092 18.905119
2.1002896 1.7575623 3.1988668 15.5
-1.2783331 2.1772227 2.9845388 21.56275
-0.94363719 2.3212278 2.9763231 23.081583
-0.44317356 2.3234708 3.0612392 22.829626
-0.15132493 2.3076568 3.0474834 23.085938
0.26935762 2.3126855 3.0868225 23.079357
0.55267113 2.30035 3.1146913 23.075998
0.94584703 2.3678398 2.9677253 22.959499
1.4217796 2.3626788 2.9413764 22.45018
1.793985 2.3373172 3.0117276 20.556444
-1.2588439 2.4352667 2.9702764 23.1015
0.99710149 2.4109755 2.9909966 22.641068
1.4757462 2.4430428 3.034771 21.619249
-1.2723022 0.20555466 3.332442 4.1125002
-1.2516015 0.60332024 3.3542745 7.7949286
-1.1874894 0.73393577 3.5972967 8.0754995
2.1127226 0.68365306 3.4440885 8.1210003
-1.2646362 0.93333006 3.269475 10.679084
2.137671 0.89958 3.4487391 9.6211252
-1.2556061 1.2595588 3.3213279 13.379582
1.9871715 1.5011997 3.4567173 13.448199
2.1620708 1.4536248 3.3026249 13
2.0839026 1.772553 3.3249238 15.202666
-1.2390653 2.3829427 3.3905802 21.569374
-0.91877627 2.374552 3.4054048 21.447557
-0.60077542 2.3301678 3.3788693 22.067999
-0.20951658 2.361794 3.4999452 21.589554
0.25858438 2.3697121 3.4314423 21.685368
0.66053486 2.3775845 3.4555616 21.467287
1.0620987 2.3623457 3.4206016 21.085304
1.4230264 2.3455336 3.4233608 20.395294
1.7709552 2.2984476 3.4501908 19.542833
2.0489588 2.2884817 3.4994824 19.0315
-1.2896625 2.4112186 3.2901261 22.101749
-0.98495644 2.4306688 3.3839931 21.859324
-0.50157464 2.4225345 3.3459737 22.142483
0.21962523 2.4363809 3.2303879 22.444834
0.65837002 2.4143133 3.2188356 22.11425
1.519959 2.4116678 3.4510937 21.081499
1.9999361 0.75043708 3.6276982 8.1199999
-1.2444898 1.3517159 3.9967391 13.103
2.1423352 1.3139902 3.6880925 12.094
2.1217756 1.8217891 3.8940346 15.0835
-1.2295136 2.2733786 3.781081 19.392094
-1.0837721 2.2802508 3.9012539 19.112341
-0.56417114 2.3440125 3.8623118 19.92135
-0.21039966 2.3411117 3.8177099 20.24568
0.21848528 2.3334672 3.8020904 19.912617
0.5988974 2.3368084 3.7556076 20.148687
0.97805071 2.3037736 3.8343167 19.424248
1.4810685 2.3065813 3.8290157 19.230156
1.6944745 2.2572217 3.8369689 18.49345
2.0769498 2.1594584 3.6775081 18.1945
-0.83696961 2.4082723 3.7852507 21.066999
-0.6661579 2.4072716 3.7931194 20.734667
-0.3274928 2.413101 3.7007957 21.07
0.31647065 2.4022317 3.6470912 22.073999
0.97265327 2.4003427 3.6310153 21.077999
-1.1032534 0.77630889 4.2835798 8.0714998
-1.1206797 0.94847888 4.2171645 9.526125
-1.0982629 1.4754374 4.2404313 13.121465
-1.0737983 1.806284 4.3027864 14.951778
-1.0263363 2.180203 4.1781626 17.691559
-0.60470748 2.2453527 4.282783 17.907333
-0.208693 2.2661643 4.1617818 18.455053
0.27462873 2.2664008 4.1982083 18.216862
0.60731614 2.2739453 4.2069092 18.411678
1.0114295 2.2626593 4.173666 18.189478
1.3550742 2.2452912 4.1439943 17.773493
1.7595912 2.1998436 4.1679273 17.081167
2.0951033 2.2105746 4.2372541 16.712437
-1.0092907 0.30145508 4.6859269 4.5
-0.98677194 0.68101513 4.6708622 7.0793753
-1.0004371 1.0089257 4.6240921 9.3333998
-0.99754363 1.3889275 4.5782523 11.8884
-1.0237269 1.818037 4.5018663 14.51675
1.9518954 1.647426 4.7203097 13.081
2.1749666 1.6975594 4.6674738 12.733767
-1.0012985 2.1448381 4.5107975 17.066999
-0.59376204 2.2245796 4.7223063 16.592876
0.082053475 2.2153461 4.6284542 17.091
0.69160724 2.1983855 4.5754762 16.781902
1.0457435 2.2001164 4.5740867 16.659433
1.4595664 2.2035494 4.5582271 16.516562
1.8553069 2.2075582 4.6071796 16.011478
2.2199156 2.1926885 4.58287 15.56123
-0.89414382 2.1690888 5.0748 15.568001
-0.53452975 2.2273214 4.9913454 16.065651
-0.11362969 2.2156563 5.0901623 15.875697
0.16336964 2.2081234 5.0795856 15.866166
0.52792859 2.1788678 4.9616437 15.9929
0.96151108 2.2336252 4.978797 16.081375
1.3403703 2.2373793 5.1369009 15.610832
1.7985634 2.2070849 4.93888 15.746666
2.1532099 2.1810787 4.9582033 14.810301
2.625541 0.13370614 5.5881948 2.5
-0.82146597 2.233496 5.3644934 15.0685
-0.61008966 2.1732635 5.3831749 14.729552
-0.16730706 2.1921482 5.3465004 14.933483
0.22418055 2.1967239 5.3133497 14.953
0.62973577 2.2227776 5.3481674 15.090249
1.0087706 2.2310321 5.4103026 14.813945
1.3891153 2.1760278 5.3640594 14.464111
1.7900763 2.1686616 5.3340015 14.270333
2.1055446 2.1687732 5.3329639 14.085501
2.5092278 2.1352484 5.5830803 13.11775
2.5316026 0.23925972 5.7183166 3
2.6329279 0.59872264 5.7102427 5.6666665
2.688514 1.0244032 5.7061191 7.5
2.6557331 1.4175117 5.767571 9.5203753
-0.67981964 2.2088995 5.6118774 15.06925
-0.26129213 2.1653368 5.6931634 14.081
0.25454578 2.1373403 5.9242682 13.837126
0.63175827 2.13764 5.8118434 13.889966
0.91035873 2.2057099 5.6793461 14.080626
1.4506851 2.1335611 5.8701053 13.546223
1.7886384 2.1120443 5.7966433 13.08375
2.1763723 2.1060216 5.8475318 13.024166
-0.40377465 2.1484189 6.2528467 13.0805
-0.14613405 2.1277192 6.1874518 13.088099
0.34415203 2.1196194 6.1776285 13.0965
0.64117312 2.1169395 6.35993 13.07925
0.97161025 2.1275427 6.2512112 13.082084
1.30335 2.0961819 6.1010823 13.094999
1.7461066 2.0727916 6.3714375 12.447667
2.1078422 2.0647049 6.324934 12.094666
2.4869335 2.1195824 6.125319 12.0905
-0.23067588 2.1043329 6.7196393 12.07125
0.20710912 2.1065059 6.5456553 13.07275
0.69542003 2.0566776 6.6330252 12.092625
1.0452331 2.1052043 6.5110726 12.0855
1.5266316 2.0616748 6.490581 12.1135
1.7824174 2.0306084 6.6385331 12.087749
2.2125282 2.0878301 6.7342482 12.07925
2.6633964 2.0444546 6.633913 11.774583
-0.4617444 2.1078858 6.8237295 12.0705
-0.22086252 2.1096327 6.9732833 12.09
0.1004086 2.0751297 6.9441433 11.965563
0.50795048 2.0780308 6.9276052 12.089084
1.0091383 2.0925255 7.0750179 12.07525
1.3487599 2.0527582 6.9180417 12.013645
1.6666195 2.0386434 6.9475164 11.33225
2.0033071 2.0438068 6.8554554 12.0785
2.5882142 2.0506077 7.0703831 11.098416
-0.21470994 1.7315273 7.503602 10.0895
0.50855851 1.9817401 7.5615482 11.10975
1.9813801 1.9934518 7.548492 10.0875
-0.2271405 2.0332289 7.4129124 11.0895
0.15227327 2.0501142 7.4228463 11.077375
0.72446108 2.0108125 7.4009295 11.1105
1.004289 2.0348024 7.3855634 11.348063
1.3812283 2.0411186 7.4528809 11.09425
1.9387512 2.051487 7.2263746 11.078
2.2131937 2.00788 7.3723912 11.1015
2.5134346 2.0446501 7.3612175 11.084375
2.8998365 2.0164685 7.5003901 10.09
0.19065034 1.9957328 7.9554868 11.108749
1.5879573 1.9791678 7.8444486 10.08625
1.83521 1.9926953 7.6874185 10.087
2.8719909 1.961719 7.9148459 10.0895
0.6989817 2.0244017 7.8953629 10.413834
0.92301613 2.027935 7.8956056 10.741333
1.3753495 2.0279832 7.7026377 11.080875
2.0168314 2.0044463 7.8177695 11.11375
0.25584194 1.9952955 8.139184 10.088
1.0224205 1.9986329 8.2638893 10.0845
1.2907146 1.9846489 8.1891651 10.08525
1.7204486 1.9825794 8.1732674 10.11275
2.5775349 1.9719521 8.2381086 10.0885
2.8162491 1.9478939 8.2167273 9.5974998
0.13304791 2.0320983 8.1831551 10.07725
0.57793605 2.0271442 8.0760584 10.407
0.56958699 1.9427254 8.7856922 10.1095
0.93756723 1.9567115 8.6524105 10.1105
1.3873372 1.9737871 8.405467 10.11175
2.033793 1.947111 8.4927855 9.0869999
3.2128134 1.9260464 8.5608444 9.0897503
0.22365965 1.9207077 9.1108074 9.0909996
1.1446377 1.8877237 9.1489077 9.0845003
1.4498957 1.9169867 9.0223017 9.0852499
1.8147534 1.9108162 9.1934576 9.0860004
2.4172573 1.8737061 8.9894152 9.0780001
3.5873427 1.7569623 8.8215446 9.1164999
1.053005 1.8908277 9.3058901 9.1105003
1.2859299 1.9532247 9.496645 9.1110001
1.8064418 1.8525321 9.3503819 9.1122503
2.0990047 1.8987234 9.3215303 9.0997505
2.5091956 1.8446772 9.4468975 9.1137505
2.9419856 1.8314939 9.3163624 9.0968752
3.6101465 1.8170775 9.5233679 9.1160002
-0.0091317464 1.8969158 9.6257439 9.0719995
0.59708166 1.8716397 9.9997253 9.1092501
1.5684345 1.9164653 9.7030134 9.1114998
2.135325 1.8324864 9.6297026 8.0769997
2.9816473 1.8370715 9.7943354 8.0882502
3.4165282 1.8092465 9.9764862 8.0889997
0.2784164 1.837775 10.133138 8.3453751
2.3824692 1.8357013 10.242757 8.1129999
2.4755623 1.7827226 10.166555 8.0775003
0.64939421 1.7806551 10.459393 8.1092501
1.0266986 1.8182311 10.58834 8.6099997
3.8276372 1.7614352 10.658916 8.1155005
1.4501044 1.7361857 11.01438 8.1107502
1.8186872 1.7950543 10.924086 8.1114998
2.2154062 1.7666551 11.02352 8.1122503
3.4596767 1.7332071 11.183413 8.1145
3.6588731 1.7472329 10.950459 8.1149998
3.0927429 1.723949 11.305076 8.1137505
2.3002908 1.7118951 12.749909 7
2.4885604 1.6659248 13.764464 6
4.3052421 1.4509978 15.577266 5
4.0622406 1.4401445 16.077766 5
3.7948625 1.4294506 16.442694 5
5.143362 1.34602 17.190001 5
2.1677811 0.17136127 17.557892 1.75
2.449959 0.25377208 17.529144 2
2.403827 1.4232273 17.565443 5
3.559262 1.3869635 17.279705 5
1.4460405 0.38135758 17.785231 2
1.83363 0.098109208 17.651405 1
1.154236 0.43413138 17.877924 2
1.2664034 0.41316578 17.852177 2
1.8582119 0.71006042 17.68021 4
2.1618035 0.74728686 17.648445 4
1.5729597 1.1514424 17.86701 4
1.7682235 1.142512 17.771091 4.5
2.434531 1.1973214 17.698404 4
1.3392876 1.2504005 17.86725 5
1.8196958 1.2575033 17.784025 5
2.2143536 1.2574143 17.648798 4.8333335
-0.018878479 2.9351003 18.669004 8.0719995
