# .PCD v0.7 - Point Cloud Data file format
VERSION 0.7
FIELDS x y z intensity
SIZE 4 4 4 4
TYPE F F F F
COUNT 1 1 1 1
WIDTH 645
HEIGHT 1
VIEWPOINT 0 0 0 1 0 0 0
POINTS 645
DATA ascii
0.2176211 2.5629132 -4.6353621 18.134001
-1.7481226 2.4799237 -3.7168386 20.01
-0.15636022 2.5122166 -3.7507083 23.135
0.089730784 2.5293212 -3.7809412 23.133499
-1.9707155 2.5016737 -3.3970916 21.011999
-1.3103676 2.5212572 -3.3438811 23.008499
-0.065554291 2.4745145 -3.3940282 23.13475
0.06673266 2.5121896 -3.3520217 22.384251
0.23959982 1.474896 -3.0787306 18.13175
0.27644864 1.7568954 -2.954963 20.215082
11.487148 1.9563601 -2.9812617 8.1137505
0.090353504 2.4683292 -3.0739012 23.134001
0.31414872 0.50886327 -2.4588945 10.13
0.38506663 1.52335 -2.6968431 18.1315
0.34171382 1.7532486 -2.7259521 19.965166
0.45633477 1.854327 -2.5778985 22.203999
11.563033 1.9624941 -2.5746701 8.1129999
0.4365578 2.0657325 -2.4743505 23.130751
8.5995188 2.1451592 -2.5348442 10.1145
9.3280773 2.0848842 -2.7240145 9.1145
10.171392 2.002733 -2.7461073 9.1140003
0.37643385 0.33215821 -2.264792 8.3788757
0.44313443 0.26844206 -2.1000652 7.5640001
0.35874236 0.57898247 -2.3343537 11.462667
0.43523383 0.5155611 -2.2002802 10.814
0.36828914 0.86767399 -2.2111392 15.629
0.43597203 0.96399987 -2.0871334 17.32795
0.4982819 1.3828549 -2.2285361 20.12875
0.52456361 1.8853457 -2.3223426 22.629749
-2.2242241 2.196178 -2.2163925 23.008625
7.1508427 2.2102437 -2.2511635 12.115
7.2284641 2.1714478 -2.1302891 12.1145
8.6890402 2.1027126 -2.3519518 10.114
8.9766741 2.0894737 -2.1168962 10.11325
9.6939573 2.0556116 -2.2857475 9.1132498
10.475949 2.0123322 -2.0790498 9.1125002
10.828658 2.0352845 -2.185431 8.1125002
0.64762372 0.28900641 -1.732969 8.4447041
-2.0895576 0.53251928 -1.6253096 9.0109997
0.39887959 0.47487655 -1.9874762 9.1300001
0.58180594 0.60291928 -1.8043333 12.759279
0.58213019 0.96030837 -1.7709652 18.177015
0.57641292 1.2883798 -1.7233673 22.287899
-2.2995491 1.9555874 -1.8846 22.260876
11.273776 1.9709435 -1.9879372 8.1120005
-2.1974075 2.0706234 -1.8255091 23.009834
5.0416489 2.31951 -1.6601703 16.11525
5.5225339 2.2020352 -1.7249882 14.714899
6.2812457 2.2097166 -1.838367 13.114499
7.4818277 2.1412849 -1.9230906 11.11375
7.8062406 2.1565104 -1.7584866 11.113
9.075181 2.13027 -1.8201658 10.1125
10.494097 2.0425494 -1.8762085 9.1120005
4.9499283 2.4283209 -1.6789254 17.115499
-2.1252513 0.20425963 -1.4932232 4.75
-1.9753947 0.0993466 -1.2204181 3.75
0.66481018 0.27427569 -1.4658762 9.1640663
-2.0634255 0.59017426 -1.3950444 10.302999
-1.9540762 0.60836726 -1.2528667 10.75444
0.32749206 0.78578573 -1.5352973 16.129499
0.72091746 0.62044096 -1.434426 14.287324
0.82601964 0.62876076 -1.285791 13.1225
-2.0375881 0.95542556 -1.2951716 15.581072
-1.9633768 0.98380715 -1.408345 16.012001
0.74472874 1.004037 -1.4417087 20.462648
0.81954002 1.06624 -1.2644882 21.693573
19.436085 1.075272 -1.4765844 4
-1.9250698 1.4137993 -1.3227111 21.512665
0.7067011 1.2714531 -1.3672359 22.785067
-2.1897986 1.9440924 -1.557634 23.011
19.53138 1.6280737 -1.4016018 5
19.633757 1.6662824 -1.3463327 5
2.4902067 2.0041423 -1.2345623 23.1185
3.9207275 2.3523123 -1.4646101 19.449499
4.168963 2.3142135 -1.3230366 18.615
4.6714683 2.3258533 -1.2680229 17.114
4.9960523 2.358546 -1.5112095 16.781334
5.2976179 2.2976465 -1.3061116 15.6135
5.622086 2.2429802 -1.5210217 14.114
6.1473212 2.2667725 -1.3695799 14.113
6.5662308 2.1801658 -1.3919683 13.11275
6.9614286 2.193264 -1.3213674 12.11225
7.9023323 2.1194363 -1.5966399 11.1125
8.1601944 2.1157999 -1.3662305 11.11175
8.7149324 2.1325345 -1.3474362 10.1115
8.92103 2.1378877 -1.5834674 10.112
9.9215574 2.0973086 -1.3220093 9.1110001
10.165255 2.0635698 -1.5851419 9.1114998
3.1207182 2.4360771 -1.2930709 23.117001
3.2899349 2.4543648 -1.2451317 22.116249
3.7703562 2.4330409 -1.3337989 20.490749
5.0325732 2.4238079 -1.2484649 17.113501
-2.0933979 0.18990207 -1.0953363 4.5999999
-1.9749672 0.284942 -1.025032 6.743269
0.6879037 0.26972312 -0.97737581 10.164451
0.82056224 0.30759081 -1.1352361 9.1215
-2.0716658 0.60232121 -0.97968811 11.022408
-1.9591541 0.6130681 -1.017102 11.25912
-0.3289983 0.54446769 -0.96459311 19.0075
0.19402523 0.56328034 -0.97134078 16.129
0.72202104 0.6010887 -0.95820683 17.755724
0.84280962 0.63786119 -0.98515099 15.59055
1.7330945 0.57863355 -1.0853599 11.8967
-2.034327 0.93625998 -1.0553336 15.890626
-1.9383767 1.0218079 -0.94642794 17.250582
0.78213519 0.87435657 -1.0898485 21.796333
0.86731076 0.95007336 -1.0001947 21.182636
1.5070065 1.0849358 -1.0444994 20.121876
1.6555396 0.93896955 -1.0457326 17.09075
-1.8937889 1.3367839 -0.9915176 21.284819
0.81452441 1.2344702 -1.1227406 23.1215
1.3786333 1.2260466 -1.0135672 23.122499
10.639156 1.9381505 -1.0602621 8.1102505
3.1448789 2.3968742 -1.0015768 23.115
4.1951537 2.3152325 -0.98736495 18.613251
4.7664099 2.291966 -1.0688014 17.113001
4.9026766 2.3062205 -0.92656779 16.862249
5.3739944 2.2738805 -1.0251753 15.5123
5.94384 2.2566223 -0.92480928 14.1115
6.0302472 2.275419 -1.0761265 14.112
6.8709831 2.2001288 -1.0681075 12.1115
8.5878277 2.1357126 -1.0500991 10.11075
10.12723 2.0181384 -1.0217421 9.1102505
3.0672364 2.417871 -1.1599164 23.116249
3.3865161 2.4417534 -0.98499024 22.558889
3.7643943 2.4479761 -0.97417593 20.86375
-2.0983555 0.37703353 -0.77712518 8.0185003
-1.9322218 0.30366042 -0.52544188 7.1213336
-0.99439466 0.28373888 -0.50304627 11.0105
0.74661165 0.26324132 -0.59589136 10.985057
0.81618577 0.35022822 -0.50575566 12.363083
-2.0292237 0.59690779 -0.61059016 11.779765
-1.9576244 0.63009232 -0.60618603 12.442639
0.75727499 0.55034333 -0.64274007 18.366566
0.84208721 0.5752424 -0.5743317 16.746824
-2.003191 0.81202859 -0.45568472 15.022
-1.9224573 1.0384895 -0.62805849 18.514256
0.77610141 0.81357932 -0.6883316 23.112
0.92585683 0.94334853 -0.65649694 22.205479
-1.872296 1.3188907 -0.64413553 22.261099
11.296489 1.9033346 -0.53012246 8.1090002
3.1493201 2.3774767 -0.56079751 23.112
3.4134305 2.3974524 -0.67614985 22.112499
3.923965 2.3979414 -0.43723273 20.1105
4.207067 2.3164425 -0.6540423 18.825787
4.5244837 2.2772822 -0.54990339 17.61075
4.9899278 2.3245289 -0.66678429 16.861
5.2315741 2.2995975 -0.58921665 16.1105
5.8043618 2.2411263 -0.64572179 14.6105
6.5098958 2.1906285 -0.57863003 13.110001
7.2463522 2.1254501 -0.49581563 12.1095
8.6776104 2.1286747 -0.76856607 10.11
8.9333811 2.1207242 -0.60279006 10.1095
9.9671488 2.011106 -0.43134105 9.1090002
10.084324 2.0204308 -0.67770678 9.1094999
3.1806755 2.4046485 -0.70681101 23.113001
3.4292669 2.4264615 -0.57415634 22.445084
3.8352227 2.4304581 -0.58850873 20.911449
-1.8574935 0.33307317 -0.19320011 8.4807692
-1.3021901 0.29170138 -0.33899003 10.0165
-1.0359392 0.19132614 -0.29881284 8.6811666
0.79033715 0.12773815 -0.30061826 8.1044998
0.85980451 0.24933986 -0.19212557 10.565633
-1.8707126 0.59316516 -0.1721843 12.807062
-1.3321286 0.43094471 -0.29301187 13.0175
0.89094502 0.56253457 -0.22128567 17.799944
-1.8772913 0.97567892 -0.19796014 18.790218
0.98113441 0.84911442 -0.14612702 22.730751
-1.8368064 1.2552915 -0.20799024 22.670921
9.7193508 1.9920442 -0.018492218 9.1079998
10.382912 1.9753054 -0.26383522 9.1084995
11.612479 1.889153 -0.28577757 8.1084995
3.2346606 2.3573089 -0.36475077 23.1105
3.9384661 2.3877606 -0.15982895 20.358875
4.2274475 2.3128495 -0.20098838 18.80905
4.5047503 2.2512367 -0.16023678 17.608749
4.9875731 2.2749527 -0.13977452 16.708599
5.3952131 2.2630229 -0.15274008 15.5086
5.7467141 2.2125158 -0.32602584 14.60925
6.2617979 2.211796 -0.15276188 13.6085
7.6802363 2.1423476 -0.10012943 11.10825
8.7849321 2.1186166 -0.2047165 10.1085
8.8197155 2.1262224 -0.20559715 10.1085
3.4385607 2.4380383 -0.16948907 22.775749
3.8203924 2.4666712 -0.20351899 21.109167
-1.7298269 0.33178011 0.15641408 8.7312517
-1.5425773 0.27871931 0.30535159 8.4350452
0.95748109 0.26307508 0.19769444 10.504439
-1.7187974 0.60586965 0.19257864 14.082375
-1.5199175 0.44548035 0.32267788 12.036834
1.0042148 0.57279539 0.18669091 17.433548
-1.7793823 1.0015901 0.21673557 20.021702
1.1017294 0.86907297 0.1845296 22.348021
1.2243665 0.9317292 0.37475324 21.592251
-1.7875453 1.241648 0.14897729 22.6968
10.565658 1.9332463 0.20286396 8.1075001
3.1537044 2.3651006 0.34381208 23.105499
3.9521515 2.3762176 0.080820829 20.1075
4.1019115 2.3385892 0.23605359 19.535215
4.4447651 2.2652578 0.18835922 18.107
5.0510411 2.2805517 0.2129478 16.607
5.5589161 2.2371483 0.2280003 15.106999
5.9171133 2.2086015 0.31770629 14.10675
6.177639 2.1984558 0.20019022 13.60725
7.7804966 2.1379471 0.23842439 11.10725
8.7824144 2.103214 0.18538643 10.1075
8.832428 2.101831 0.36874816 10.107
9.7355061 2.0033944 0.19823965 9.1075001
3.4744651 2.4840016 0.21975386 22.9065
-1.6624453 0.29748169 0.58665216 7.7911086
-1.4902859 0.30047259 0.61563468 8.5661974
-1.0622143 0.30416387 0.59382558 10.6421
1.0860031 0.27253753 0.56029385 9.6485996
1.2111374 0.29905534 0.77170354 9.2568331
-1.6669115 0.60032731 0.56378073 13.468521
-1.5303702 0.55573362 0.58577484 14.153057
-0.80380988 0.40627384 0.69756138 15.048
-0.74050039 0.40472433 0.72894323 15.049749
1.1415932 0.57439482 0.51467913 15.913028
1.2522415 0.62087947 0.68456596 15.375803
-1.6896591 1.0114144 0.59042084 20.187193
-1.5761721 0.88410109 0.75588024 20.160625
1.2940692 1.0086281 0.64645803 21.457205
-1.6794968 1.264863 0.59729248 22.843952
-1.5927904 1.2449213 0.79058719 22.546499
1.2599846 1.2026712 0.77526283 23.087
3.4715238 2.3920901 0.64075273 22.10375
3.9208302 2.3827868 0.73360074 20.10375
4.15628 2.2872341 0.59742278 19.180944
4.5613012 2.2476606 0.58860165 17.105
5.1739898 2.2587745 0.77893883 16.1045
5.2479024 2.2546401 0.56914592 16.105499
5.7058401 2.2211137 0.58019686 14.855624
6.1910591 2.1850824 0.62006372 13.772332
6.433157 2.1560907 0.62061727 13.10575
7.4810872 2.1604342 0.48238778 12.1065
8.0838642 2.1024768 0.50317913 11.1065
3.4022789 2.4029658 0.59970343 22.604
-1.632754 0.30785942 0.91211683 7.8646255
-1.442278 0.30595791 0.99586773 8.6904221
-0.93111545 0.23099171 0.96030968 7.3656669
-0.62577718 0.29995427 1.0971532 9.5554371
1.3371832 0.33585691 1.0284891 9.0981503
-1.6301559 0.62923002 0.91145819 13.007245
-1.5148287 0.58363634 1.0102122 13.642324
1.3694347 0.60944945 1.0073854 13.589588
-1.6386367 1.0390488 0.88545108 19.827354
-1.5557945 0.99314815 1.056056 19.843834
1.3723179 0.9879387 0.99702042 19.387472
-1.6342045 1.2742647 0.88449138 22.526917
-1.5152957 1.2882701 1.0618199 22.445808
1.2829266 1.26007 1.0408708 22.83568
3.0515974 2.3272448 0.88113976 23.1015
3.7940109 2.3918464 0.82879514 21.103001
4.1702399 2.2577345 0.9454236 18.402851
4.6801624 2.2704587 0.86764216 17.10375
4.9839272 2.2676997 1.049493 16.503201
5.408844 2.2387094 1.001799 15.10375
5.7092533 2.2006855 1.0565703 14.10375
6.2185569 2.1983368 0.99788213 13.437667
6.5690794 2.1489449 0.84371579 13.105
6.8941779 2.1826663 0.90880334 12.105
3.5171542 2.4401636 1.1030462 21.601
3.6909733 2.4149363 1.0105892 21.101831
-1.4458867 0.28934789 1.3771654 7.5609818
-1.0662591 0.18041524 1.2806059 5
-0.59759462 0.32852393 1.390501 9.0574369
1.3841056 0.3073568 1.3392837 7.8236847
4.4816408 0.20153587 1.5603147 4
-1.4872909 0.62227589 1.364627 12.802741
1.4044976 0.60034424 1.4185132 12.175071
-1.4641432 1.0078911 1.399237 18.322435
1.3804985 1.003167 1.3876451 18.084177
4.4834571 0.95100504 1.5654492 9.1002502
5.3475289 0.97531003 1.4134105 8.1020002
-1.3813157 1.3255173 1.4282413 22.294353
1.3508688 1.3332951 1.4041613 22.072285
4.3928351 1.2076179 1.585597 11.1
4.4706874 1.4126239 1.5837793 12.100166
5.1161008 1.2772377 1.4865814 10.1015
5.4748783 1.2416558 1.396596 9.6022501
4.7563295 1.9812185 1.596282 15.1005
5.0188603 1.7012514 1.5288149 12.767833
5.4447694 1.8030262 1.4201319 12.801001
5.6282845 1.6603593 1.3557242 12.1025
2.6673491 2.2631128 1.4511729 23.0965
3.0505304 2.3705854 1.4374735 22.597874
3.7307446 2.3679569 1.4084579 20.099701
4.1783152 2.235163 1.4301735 17.767084
4.6014242 2.280457 1.3358454 17.1015
4.9576111 2.2683811 1.3608733 16.3018
5.4288297 2.1577504 1.4112135 14.529527
5.6994357 2.2116735 1.2558157 14.103
3.1529431 2.4142904 1.2944014 23.099001
3.2307103 2.4187624 1.2546643 22.099501
-1.3342366 0.2837413 1.8366146 6.7354436
-1.098814 0.1331107 1.6082746 4
-0.62827241 0.31752792 1.9230571 7
1.4174912 0.30541295 1.8277352 7.1826072
2.981087 0.20759323 1.9017684 4.4000001
3.3708427 0.21266778 1.7981617 4
4.2612219 0.22940035 1.6888388 4.1666665
4.4071755 0.22665714 1.6102818 3.5
-1.3311083 0.5986836 1.7924179 11.631412
-1.191713 0.70808494 1.9816682 12
1.4254916 0.61374646 1.7367586 11.545265
2.8734767 0.63293445 1.960561 8.25
3.2261324 0.69731456 1.8630434 8.0959997
3.9577489 0.66221583 1.8013945 7.5489998
4.1349421 0.75531566 1.7644523 8.0494995
-1.2854167 1.0212319 1.795097 17.42915
-1.1733093 1.0470465 1.9469526 16.242199
1.4399705 0.94057065 1.737983 15.9828
2.7753632 0.98537135 1.9746319 11.5
2.9843953 0.97220057 1.9065527 11.230166
3.3573472 0.80494469 1.8325067 9.0965004
4.118772 0.86117119 1.7728763 8.6213884
-1.2872351 1.3504208 1.7065353 21.318579
-1.1833264 1.3710316 1.8229568 21.303375
1.3963677 1.3494068 1.6074679 22.0835
2.7323222 1.3296585 1.9724153 14.666667
2.9505861 1.4075296 1.9374759 14.770374
3.8607616 1.4846454 1.8661178 13.25
4.1450105 1.379492 1.7335558 12
2.7288795 1.8953172 1.9952366 19.0935
3.5125101 1.9002478 1.9749334 17.048
3.8563142 1.8079575 1.8387866 15.545455
4.1486163 1.7939438 1.6773196 14.833333
2.6078398 2.2895818 1.6981311 23.094749
3.1919985 2.3910499 1.74382 22.0965
3.5113807 2.2567418 1.9452338 19.048
3.7684259 2.3097956 1.705111 19.407085
4.1367388 2.2052786 1.6759653 17.566252
4.7740073 2.2497303 1.6040395 16.1005
3.3827517 2.422215 1.9540185 20.897167
-1.2275515 0.29360363 2.1261656 6.0952377
-1.1147952 0.30269229 2.2268057 6.8537979
-0.60541219 0.096781857 2.2031243 3.6666667
1.9104576 0.16734891 2.2541161 3.8
2.2213862 0.15953842 2.2599189 3.8
2.5824828 0.19238037 2.147609 4
2.8145483 0.16809063 2.0099158 4
-1.2309194 0.5380162 2.041995 10.23364
-1.1251171 0.56085867 2.2121453 10.2075
1.5341283 0.48812443 2.0895612 9.0810003
1.7466655 0.68294877 2.3304331 10.111821
2.219461 0.61670554 2.2929683 8.5555553
2.6040583 0.59777135 2.1323233 8.1538458
2.8174412 0.57982409 2.005415 7.6666665
-1.2204131 0.94331777 2.0257928 17.0515
-1.1289351 1.0107888 2.1607401 16.306376
1.4689918 0.83906728 2.0173116 14.081
1.8230569 0.93773472 2.3763564 12.667799
2.2271078 1.0336711 2.2846646 12.6
2.550539 0.98962682 2.1249945 11.866667
-1.2791092 1.3766483 2.2305748 18.252899
-1.0779709 1.2721659 2.2132585 20.128292
1.8819846 1.4361694 2.3775172 17
2.2241464 1.3701963 2.2391458 15.833333
2.6591544 1.4385455 2.0354891 15.618179
-1.3029931 1.8838184 2.224757 23.057999
1.6845754 1.8057255 2.2420747 21.104666
2.2564373 1.8082858 2.130573 19.983072
2.5197217 1.8402053 2.0465879 19.425667
3.0162063 1.9461721 2.0129147 19.0945
1.5838424 2.0454342 2.3772173 23
1.7198576 2.0679195 2.3026505 22.924166
2.2064555 2.2345452 2.117651 22.8904
2.5226538 2.2472684 2.0682347 22.258875
2.9976387 2.1614361 2.0470138 20.294199
3.1451976 2.4452221 2.0023029 22.094999
3.2262671 2.448657 2.0403731 21.094999
-1.0404195 0.26428238 2.4906206 6.25
0.0045205075 0.021545418 2.4772627 3
-1.0096234 0.60114723 2.4930377 10.555593
1.7393796 0.69827861 2.6378977 9.6624002
-0.96227932 0.88910323 2.4095523 13.556
1.7279894 1.0617929 2.6017814 13.073333
-1.2330568 1.4503107 2.5628519 17.390167
-1.1651607 1.4102184 2.6848507 16.793251
1.7160088 1.3863872 2.5754745 16.420504
-1.220335 1.8338084 2.5611658 21.56175
-1.1397328 1.8948426 2.7150264 21.170376
1.5940129 1.9979653 2.4051447 22
1.6965157 1.7919225 2.5280886 20.399296
-1.219645 2.0197899 2.4923639 23.061501
-1.1535546 2.0956419 2.5911696 23.041498
1.0693756 2.2457886 2.6878204 23.072624
1.4749527 2.2894826 2.7009411 23.079313
1.6609999 2.2811258 2.5198605 23.077
-1.1601404 0.34995818 2.8767779 5
-0.30763856 0.24941614 2.8857837 5
1.8312949 0.25496083 2.9907727 5
-1.0807467 0.71073693 3.0001304 9.6230707
1.810499 0.61237329 3.0001876 8.6268005
-1.0881435 1.0079968 2.983748 12.3495
1.7595532 1.0021991 2.9088633 12.428613
-1.0243689 1.4443669 3.0511243 16.080437
1.7412764 1.3133025 2.8863626 14.57725
-1.0072035 1.7729146 2.9927475 19.535215
-0.78992391 1.9194064 3.1764717 21.059
-0.89811254 2.1721764 3.0248032 22.609564
-0.67103612 2.2474017 3.0995445 22.991358
-0.33577847 2.3629258 3.0096953 23.06175
0.16194186 2.2776921 3.0773051 22.8685
0.73630381 2.2672682 3.053694 22.736582
1.0663315 2.2689779 3.0997202 22.823719
1.3573321 2.2741368 2.964988 22.910957
1.7029924 2.2585814 2.9801128 21.580084
-0.99415618 2.4875817 3.043344 23.056999
-0.53879982 2.4047019 3.0385039 23.060249
-0.92143083 0.26509544 3.4172592 4.4940476
1.7772614 0.25865027 3.2229657 5
-0.92081439 0.66825533 3.4004419 8.3642139
1.8487198 0.69020784 3.5484312 8.0830002
-0.90757 1.0409734 3.3342087 12.261562
-0.78533942 0.99023867 3.5593703 11.392833
1.8594143 0.90741992 3.3268108 9.9318752
-0.89114672 1.3722802 3.3313959 15.516077
-0.77756935 1.264919 3.5214577 13.726166
1.8536359 1.3387043 3.3804722 13.042
-0.84821212 1.7101796 3.330857 18.2236
-0.73689586 1.8171872 3.3765309 19.726334
-0.8585465 2.132616 3.5753863 19.05875
-0.57742101 2.3369291 3.4599628 22.231085
-0.13234149 2.276263 3.4435828 22.565165
0.14816603 2.2723527 3.4179869 22.755281
0.5656082 2.2915151 3.3300369 22.569813
1.0816249 2.2973847 3.4207911 21.873699
1.4745299 2.3589489 3.4055979 21.078583
1.778746 2.3179388 3.4227762 20.242542
-1.3105481 2.6886151 3.3119287 23.0555
-0.47833735 2.4692047 3.5277178 22.061001
-0.73726523 0.27661619 3.7464263 5
-0.82136405 0.65181029 3.6673522 8.5594997
-0.7393415 0.69652289 3.6718235 9.0300007
1.8889537 0.78230304 3.613157 9
-0.70653027 1.017662 3.6766615 11.863584
-0.72904873 1.3022379 3.6121461 14.06
2.0265102 1.4308333 3.9100449 12.5
1.9934222 1.9564155 3.6892569 16.075001
2.028013 1.6195489 3.8744533 14
-0.8179639 2.3719401 3.7212801 21.066999
-0.61069775 2.3372521 3.8059528 21.064222
-0.22205424 2.3533728 3.8098845 21.157547
0.062920295 2.3199987 3.6874006 21.567667
0.53767753 2.3693266 3.9602497 20.406084
1.0343368 2.3353689 3.8349462 19.997616
1.4130393 2.2948668 3.8201141 19.124601
1.8025448 2.2853167 3.7821455 19.211235
2.0622005 2.221638 3.8738015 18.078165
-0.63449085 2.4217353 3.8271928 20.185249
-0.27506146 2.4268017 3.7860742 20.4639
0.75819373 2.4080133 3.8200421 21.073
2.0151684 1.0749588 4.0045328 10.0745
-0.74851 1.5251716 4.2472281 14.0605
1.9983398 1.582242 4.0596576 13
-0.6078136 1.8085395 4.291481 15.546
-0.37298959 1.8500508 4.2574387 16.07
1.5779449 1.6763406 4.290925 14.08
1.8278918 1.7091584 4.1746259 14.317666
-0.57301718 2.2998428 4.2134013 19.1583
-0.23682041 2.3195615 4.1958919 19.517
0.2192623 2.2997446 4.2143164 19.013105
0.58912599 2.2877352 4.1470647 18.820786
0.99284214 2.255815 4.1713686 18.496346
1.3699574 2.2432365 4.1895819 18.343655
1.8239077 2.204077 4.1861329 17.441135
2.1154165 2.1644132 4.1101646 17.331125
0.10391055 2.4050651 4.019392 19.564501
0.55123252 2.4007647 4.1556187 20.068001
-0.52541512 1.0278682 4.7138057 9.0614996
2.2173679 1.4986439 4.5801048 11.574
-0.51700079 1.6270934 4.6437469 14.062
-0.517456 2.2477655 4.5337534 17.397501
-0.21584137 2.2590175 4.5221057 17.863949
0.20309797 2.2242992 4.6253037 17.567116
0.59964818 2.2368689 4.584136 17.62561
0.97563487 2.2241066 4.5528049 17.445312
1.4378483 2.2043769 4.6429605 16.673399
1.8082997 2.1806004 4.6824021 15.740083
2.1595745 2.1112032 4.65276 15.073499
-0.81256473 2.4055386 4.7634616 18.060499
-0.43799746 1.1090237 5.1494641 10.0625
-0.49318725 1.3471696 5.0607748 11.066
2.3582928 1.5718809 5.108284 11.0735
1.8973361 1.6469667 4.970283 12.072
2.1429594 1.6526215 4.919014 12.073
-0.50548333 2.1644957 4.9671183 16.2635
-0.21526013 2.2202332 4.8768353 16.636858
0.16553757 2.2412915 4.9482822 16.272701
0.62396318 2.2260134 4.9811058 16.405582
0.9713465 2.2375174 5.0081816 16.173252
1.3756331 2.210418 4.9623337 15.738083
1.8361815 2.1809907 5.0695138 14.645356
2.1927259 2.1497436 5.1332769 14.07275
2.1509418 1.5619026 5.406714 11.07225
2.4381723 1.3598335 5.5830293 9.073
-0.34538412 1.7342834 5.5051765 12.732166
2.3580964 1.6175776 5.3863449 11.073
2.4322841 1.8483313 5.4170289 13.0745
-0.57434952 2.1389394 5.4163713 15.062
-0.12424922 2.199393 5.3232484 15.398168
0.17513786 2.1860716 5.3893957 15.193687
0.6358816 2.1922152 5.3665061 15.159045
1.062458 2.1673226 5.4390359 14.6694
1.4092497 2.1463211 5.4662023 14.500822
1.7513201 2.1825209 5.4974618 14.519333
2.1777818 2.1598048 5.4313922 14.448375
2.4353011 2.1154106 5.4033909 14.0745
-0.72764581 2.4096117 5.3280611 17.061251
-0.13093065 0.22059977 5.9771056 4
-0.23627685 1.9459245 5.7851543 14.0635
-0.63795316 2.1439242 5.8821888 14.0695
-0.16352393 2.1573615 5.8315945 14.234084
0.19730361 2.1483018 5.7671585 14.333767
0.60823506 2.145494 5.7054629 14.235291
0.98217022 2.1231177 5.7268705 14.071
1.2713341 2.1589341 5.6328974 14.077
1.8608449 2.1124644 5.6638041 14.072001
2.2245307 2.0961676 5.7142053 13.07625
-0.12378684 2.1121821 6.0469537 13.0715
0.17880397 2.1795599 6.2161222 13.066375
0.56105036 2.1719177 6.0095854 13.06575
1.0479075 2.0843644 6.349411 13.06825
1.4171305 2.0795567 6.2424393 12.73725
1.7974349 2.0770793 6.2882395 12.629444
2.1433587 2.0436251 6.1392531 12.407333
2.572999 2.0426311 6.1317062 12.57375
-0.037642553 2.1758237 6.4888716 12.0635
0.18951645 2.1122766 6.6071362 12.568624
0.58399403 2.0851846 6.6464148 12.513111
1.0162928 2.0684965 6.6119385 12.236667
1.351306 2.0380199 6.5195384 12.073833
1.849141 2.0898411 6.5065022 12.409167
2.2020776 2.0659413 6.5848775 11.907584
2.503057 2.0658045 6.6754093 11.8265
0.011876849 1.4174221 7.129509 9.0719995
2.7345743 1.5477976 7.0985847 9.073
2.4995418 1.9873928 6.8270245 11.0715
0.16280001 2.1243386 6.8521419 12.4005
0.95137787 2.0701504 7.0629525 12.07
1.4885051 2.0428977 7.1092315 11.56875
1.8219298 2.0215867 6.811708 11.0695
2.0922558 2.0252936 7.0031981 11.324625
2.5961223 2.0057256 7.1572237 11.0725
0.012034394 0.46133867 7.2291451 4
0.01221877 1.1569211 7.3457446 8.0719995
0.012135405 1.8525603 7.2930226 11.072
2.5475495 1.9956744 7.4031219 10.071
2.9449494 1.7227912 7.5000176 9.0719995
0.3574152 2.0872154 7.3087535 12.0655
0.63206756 2.0844376 7.3939781 11.568
0.95628214 2.0600197 7.4705687 11.213285
1.3805654 2.0306668 7.3552637 11.06775
1.7811377 2.0282216 7.3640532 11.2744
2.3554778 2.0126901 7.4095211 11.071
2.5006483 2.0066714 7.3726859 11.072
3.0623784 1.4987807 7.806859 8.0719995
1.5559931 1.9994065 7.7123008 11.0765
1.9834181 1.9879373 7.9838691 10.07
2.098418 1.972326 7.7494345 11.0705
3.0569491 1.9156674 7.8004723 10.0725
0.35517764 2.0280273 7.6945825 11.073
0.61535811 2.0492716 7.8452969 10.5695
1.066995 2.0681388 7.7810354 10.6668
1.3968517 2.0289831 7.7741165 10.404
1.8777024 2.012033 7.9293265 10.56925
2.184396 2.0057781 7.8376637 10.072499
2.4179175 2.0135796 7.6093001 10.0705
0.62684691 1.9712564 8.3822498 10.066
1.0033115 1.9721143 8.1420641 10.07475
1.5265812 1.9494463 8.3463669 10.0685
1.7579858 1.9677002 8.1903439 10.06925
2.2286372 1.9918213 8.1369743 10.0705
0.3830407 2.0327673 8.2971516 10.073
0.57045853 2.0641527 8.1382885 10.5655
1.768176 2.0287089 8.172472 10.56875
0.74418229 1.519766 8.5092506 8.0655003
0.93480104 1.4908181 8.5984907 8.066
1.1498257 1.9973254 8.5065098 9.0664997
1.2923354 1.9450728 8.6078587 10.06775
2.7574072 1.9205769 8.600893 9.5710001
2.9136844 1.9318706 8.6220903 9.3253756
3.2398803 1.894948 8.7623348 9.0725002
0.58790064 2.020102 8.5854654 10.0735
0.87667531 2.0171123 8.7435436 9.0657501
1.3261718 2.0255144 8.5070629 10.067
0.972278 1.9426818 8.9567537 10.06675
2.2424927 1.9198858 8.9886589 9.0721664
2.5599148 1.8977121 8.9414253 9.0734005
2.9688785 1.8918629 9.0121202 8.7379999
1.850515 1.8987151 9.388629 8.9043341
2.1223154 1.9002678 9.3821774 8.5727501
2.5570285 1.8796601 9.2997704 8.0695
0.97401166 1.8797795 9.7964735 9.0742502
1.4296331 1.8545146 9.6651316 8.7419996
1.7538171 1.8824861 9.67836 8.0675001
3.0902731 1.8722881 9.6959581 8.0790005
1.017953 1.8492973 10.183228 8.0742502
1.3920622 1.8847468 10.20535 8.0707493
1.7030358 1.8726563 10.153301 8.0715008
2.0594997 1.8552839 10.298255 8.0764999
2.53404 1.8302066 10.197889 8.0732498
3.0083125 1.7915453 10.108144 8.0731668
3.4789929 1.7667335 10.040142 8.0710001
1.4255459 1.8379691 10.627936 8.0672503
2.3197718 1.840872 10.409467 8.0769997
2.5932734 1.7593968 10.611526 8.0697498
2.9069068 1.8119432 10.736736 8.0780001
3.3346221 1.7883929 10.672738 7.5357499
3.7289922 1.7566426 10.648183 8.0719995
3.8574524 1.4367355 10.995761 7
1.7444855 1.7824881 10.819032 7
2.180675 1.7674801 10.913067 8.0687504
3.3917823 1.6884946 11.529829 7
2.1244173 1.8696626 11.617246 7
2.6513801 1.7823756 11.768793 7
3.5387683 1.7360342 11.657462 7
3.8269811 1.7193669 11.732933 7
3.4472866 1.7740375 12.381052 7
2.8686528 1.5982004 12.771731 6
4.5065355 1.5027677 12.723213 6
4.3461061 1.5112299 13.159426 6
2.1426706 1.7811283 13.127296 6
3.9719512 1.5411875 13.531416 6
4.1084614 1.573597 13.414409 6
2.4678445 1.7395701 13.243578 6
3.1450655 1.6874057 13.480511 6
4.1489654 1.600565 13.733441 6
3.9570961 1.543413 14.239818 6
3.5580041 1.5487612 15.405818 5
5.015501 1.3469387 17.049643 5
4.8420162 1.1846582 17.97456 4
4.3657851 1.2609749 17.969017 5
4.55369 1.4061623 17.939198 5
5.2203779 1.2349063 17.883892 4
4.7849693 0.51362002 18.021727 3
4.1969137 1.1298165 18.097361 4
4.4701347 1.1514184 18.025221 4
3.9780974 1.2939115 18.098932 5
5.1250629 1.3438455 18.104435 5
4.9236932 0.90764266 20.260206 4
5.3876157 1.0035025 20.2148 4
4.1163354 0.74199271 20.561859 4
