# .PCD v0.7 - Point Cloud Data file format
VERSION 0.7
FIELDS x y z intensity
SIZE 4 4 4 4
TYPE F F F F
COUNT 1 1 1 1
WIDTH 1335
HEIGHT 1
VIEWPOINT 0 0 0 1 0 0 0
POINTS 1335
DATA ascii
3.2050614 2.0981917 -1.5748918 19
-0.92551124 2.3435235 -1.5760669 15.5
3.1714046 2.3121929 -1.5536554 20
-0.93291414 2.5469069 -1.5298244 16.5
3.1582489 2.4739521 -1.4862971 21
-1.0195403 2.6255202 -1.4512227 17
-0.90710926 2.7111444 -1.4422102 18
3.1399674 2.6404173 -1.4883451 22.5
2.8747611 0.071165606 -1.2087423 3.5
3.0078349 0.17240655 -1.3380054 4
2.9686196 0.35760772 -1.3447591 5.75
3.0100012 0.21085738 -1.2561824 5
2.9256129 0.52590519 -1.3812604 7.5
3.0689082 0.4457708 -1.2832532 6.5
2.9222159 0.68917286 -1.3801055 9
3.1062617 0.73759341 -1.3342738 8.25
-1.2294869 0.89920026 -1.2935069 7.5
2.926646 0.82389671 -1.3485293 10.5
3.0508416 0.93295336 -1.2915199 11
-1.2035391 1.1622502 -1.362736 9
2.9318223 1.0767767 -1.2721446 12.5
3.0754597 1.1145068 -1.364199 11.666667
2.9690228 1.3636799 -1.3751982 15
3.0724356 1.3168852 -1.2532711 12.5
2.9824576 1.4901149 -1.3574584 16.5
3.0919189 1.5327173 -1.2401539 14.5
2.9192002 1.6892138 -1.2822349 18.5
3.0773523 1.6301455 -1.278091 15
3.1244209 1.8648766 -1.3122269 16.333334
3.186682 2.0457594 -1.3841479 18
-1.1343408 2.2637491 -1.3173411 16
3.1652861 2.2669132 -1.3435187 19.5
3.1293318 2.4549594 -1.3313472 21
3.1119232 2.6497052 -1.2739213 22
-1.0005131 2.8295631 -1.3072827 18
2.8684394 0.11737005 -1.1074311 4
2.9420643 0.22584727 -1.1205188 5.25
2.9039106 0.5440855 -1.1017035 7
2.9009898 0.61995083 -1.1463826 9
3.0443215 0.60062867 -1.1737422 7.5
2.8993905 0.82928306 -1.1474712 11
3.0248232 0.83120704 -1.1022764 10.25
2.9396629 1.0822425 -1.0831935 12
2.9169619 1.2864295 -1.0679168 13.833333
3.0522776 1.360755 -1.066584 13
2.8704224 1.5034235 -1.0360427 17.25
3.1153817 1.7281239 -1.120543 16
-1.2602577 1.9012648 -1.1694567 14
2.9066677 1.8447058 -1.1413796 18.25
3.0698383 1.9225861 -1.0982488 17.333334
-1.2551351 2.0132163 -1.1369503 15
3.0782113 2.0712712 -1.1155629 18.5
-1.2540054 2.2277052 -1.1133158 16
3.0692506 2.3335814 -1.0398147 20.5
3.0441806 2.5187733 -1.0381417 21
3.0084589 2.7303376 -1.0943754 22.5
-1.2917609 2.823806 -1.0067647 19
-1.0985678 0.18568316 -0.82018757 4
2.9098577 0.12833382 -0.93142033 3.75
2.8671768 0.33487558 -0.88929433 6
2.875489 0.53433818 -0.86726779 7.3333335
3.0459678 0.59709024 -0.9109084 8
2.925988 0.71229285 -0.88820922 8.5
3.0151224 0.69430804 -0.88235241 10
2.9046049 0.89541018 -0.85636282 10
2.8684094 1.1068274 -0.89344341 13.166667
-1.3349006 1.3580244 -0.80236125 11
2.9106076 1.3237423 -0.87929589 13.666667
2.8926044 1.4940075 -0.88571411 15.75
3.0316863 1.5797695 -0.94356143 15
2.9077001 1.7297761 -0.83151388 17.75
2.8307858 1.8666587 -0.94099081 20.75
2.8352196 2.0621667 -0.93487805 22.5
-1.3933845 2.4295232 -0.88021255 17
-1.384964 2.6292202 -0.8303268 18.5
-1.1181087 2.8479376 -0.95513034 19
-1.156819 0.11358342 -0.70904779 3
2.905724 0.12686561 -0.7089138 3.75
2.7498243 0.28558159 -0.70589709 5
2.9209435 0.30332172 -0.72396165 5.1666665
-1.3155272 0.45568985 -0.78208709 6
-1.1227812 0.49267101 -0.7750864 6
2.7475917 0.53157008 -0.66457117 7.5
2.9193759 0.47363904 -0.72910643 6.5
-1.3195543 0.7217831 -0.7986877 7
-1.1254494 0.66347241 -0.77347255 7.5
2.7864316 0.72592306 -0.69852126 9.5
-1.3032191 0.91710132 -0.77018857 8.5
-1.0797766 0.95744199 -0.77078629 9
2.7669601 0.93004727 -0.65122557 11.5
2.9786174 0.86757457 -0.72616845 11.5
-1.3180265 1.1560515 -0.78698945 10
2.7567189 1.1019329 -0.61997116 13
2.913353 1.1394238 -0.69915092 13.25
-1.3607941 1.3337175 -0.60056329 12
2.7997131 1.3384397 -0.71595061 15
2.7952139 1.4471916 -0.70832598 16.5
2.9474421 1.4595728 -0.65117139 14.833333
2.7832994 1.7608023 -0.78792429 20
2.8571937 1.708559 -0.75681674 19.333334
2.7713554 1.9224868 -0.75874025 21
2.9072196 2.1021063 -0.72733092 18.333334
2.9637167 2.5050983 -0.66451406 22.25
2.7243133 0.097266391 -0.41610402 3.5
2.9044905 0.074524656 -0.5641669 3.5
2.7096877 0.26719576 -0.45136929 5.25
2.9052396 0.31364262 -0.5633508 6.25
2.6697569 0.47115514 -0.46713686 7.5
2.8824611 0.47412947 -0.49250385 7.5
2.8888292 0.65340972 -0.50731951 9.5
2.6667249 0.84492511 -0.43421733 11
2.8793254 0.92503005 -0.4501698 12.5
2.7283959 1.0314217 -0.40962851 12.5
2.88661 1.0744059 -0.50715506 13.5
2.7354174 1.2957857 -0.52314967 15
2.8749752 1.2383618 -0.52725732 15.25
-1.3844447 1.4976296 -0.56186652 13
2.7069051 1.5460535 -0.46388781 17
2.8419542 1.5224816 -0.50254899 18.5
2.7453978 1.6891838 -0.47892633 18.833334
2.8478451 1.7367053 -0.52638549 18.25
-1.4150467 1.8775982 -0.52594447 15
2.7056186 1.942829 -0.40313876 21.5
2.879971 1.8719637 -0.53173125 17
-1.408849 2.086695 -0.4790132 16
2.729728 2.03916 -0.46413651 22.833334
2.8418205 2.1642377 -0.5551765 19
2.8651373 2.229964 -0.40744257 19.5
2.7687786 0.063992575 -0.21145761 3
2.8373544 0.10594523 -0.34306836 3.5
2.706176 0.25993934 -0.32166955 5.5
2.7056625 0.50239652 -0.23401864 8.166667
2.8223293 0.47969365 -0.28819069 8
2.7010734 0.672948 -0.23906326 9.25
2.8350248 0.69235933 -0.25290614 10.5
2.6690452 0.90371704 -0.2493062 11.5
2.8567257 0.84743971 -0.36214602 11.5
-1.5099826 1.1187046 -0.37054873 11
2.8415279 1.1037424 -0.27163768 14.6
2.7008255 1.2284567 -0.26219049 15.333333
2.8729143 1.2714695 -0.35679227 15.833334
2.8338029 1.429571 -0.2851055 17.5
2.672271 1.7036164 -0.34699953 19
-1.515682 1.8079985 -0.21646214 15
2.7290738 1.8775296 -0.29338497 21.166666
2.8129673 1.8648174 -0.31767881 21
-1.5013678 2.1797357 -0.20127082 18
2.7168126 2.0766683 -0.23377772 23
2.7984135 2.4479954 -0.32849264 21
2.6273963 0.11644977 -0.11583176 4
2.8164277 0.12640575 -0.18480659 4
-1.7685688 0.23075356 -0.13028121 4.5
2.4892681 0.32800305 -0.035090789 7.25
2.7164664 0.31434515 -0.068790883 6.5
2.8382206 0.2546367 -0.18716145 5.5
2.7021308 0.45154768 -0.056357831 8
2.5408878 0.61184859 -0.025008917 8.5
2.731246 0.68714929 -0.03128472 10.25
2.7368245 0.91565955 -0.089965686 12.75
2.8510072 0.90053833 -0.13304341 12
2.5858288 1.0276518 -0.13322043 13.5
2.7206042 1.1056633 -0.085162699 14.875
2.5827494 1.3847594 -0.10162234 16.5
2.7570961 1.2477405 -0.068972826 16.5
-1.747561 1.5083228 -0.014936209 14
2.5540967 1.5619539 -0.049534678 18
2.6932704 1.5076901 -0.16736732 17.777779
2.7763097 1.689032 -0.09760493 20.25
2.7112963 1.8883711 -0.023958981 22
2.8164186 1.9024167 -0.18681073 22
-1.5467391 2.0294988 -0.069383144 17
-1.3164388 2.5482359 -0.11477804 21
-1.2887992 2.7030518 -0.040436745 22
2.4180701 0.18536854 0.12584305 5
2.6561003 0.11142377 0.12072134 4.3333335
2.3866222 0.28426176 0.14956036 6
2.5203545 0.32284468 0.10292535 6.375
2.683255 0.26737568 0.072917461 5.5
-0.74632812 0.45350215 0.10402602 19
2.448601 0.48618051 0.11487538 9
2.6693394 0.41343698 0.047749162 7
2.4509826 0.71861005 0.14964022 12
2.6572471 0.68521261 0.16209474 10.5
2.5219512 0.86022234 0.032805443 11
2.7011409 0.86087692 0.079288527 12.125
2.5195618 1.0169554 0.10070133 13
2.6839106 1.1023217 0.10459185 14.785714
2.5632544 1.3315123 0.15911193 18.5
2.6822531 1.2827909 0.10459095 16.75
2.7221117 1.4313877 0.079560608 18
-1.6164389 1.6879607 0.064879894 15
2.5119157 1.6249286 0.069013238 19
2.6671772 1.711657 0.0851354 20.25
2.6445222 1.8582602 0.087287225 21.5
2.5578067 2.0319011 0.054360867 22
2.6461987 2.0546482 0.0075597763 23
-1.6042564 2.3493633 0.046447277 19
-1.2464358 2.7435594 0.062638283 23
2.3793843 0.19687916 0.38176554 6
2.4472113 0.12003712 0.26658058 4.5
2.6404624 0.054194074 0.30040801 4
-0.78547084 0.29001999 0.33530575 13
2.4970191 0.26396784 0.29608327 6
2.6384268 0.30436432 0.27515635 6.375
2.3799231 0.40412027 0.36110431 8
2.5061641 0.48899221 0.32483059 8.5
2.627455 0.45326862 0.22406209 8
2.3118825 0.70032531 0.33971366 11.25
2.474987 0.65544116 0.30165279 11
2.617137 0.60337019 0.38073421 10
2.2024024 0.99348009 0.27672124 13
2.4635229 0.88249999 0.3099035 13.375
2.6154778 0.915676 0.24724978 13.5
2.5761256 1.0999972 0.31028384 14.5
2.6512723 1.1001666 0.25513026 14.6
2.539696 1.3268895 0.31642669 17.583334
2.6678116 1.3704815 0.27182484 17
2.5041983 1.4410244 0.35265955 18
2.6488919 1.4894601 0.3030068 18.5
2.516562 1.7032045 0.31618264 20.166666
2.64412 1.6272844 0.37648654 20.5
2.4628768 1.9789981 0.36591434 22.5
2.5182588 2.0728469 0.26761639 23
-1.6794858 2.3730419 0.20410228 20
2.3604507 0.11155622 0.47648278 4.1666665
-0.84390086 0.33304229 0.50712943 13.625
2.3465462 0.30829534 0.47402534 7.3333335
2.4026918 0.31553182 0.4478468 6.5
2.6217136 0.30173743 0.44701207 7
-1.0366296 0.54030323 0.48834789 12
-0.84944439 0.51671118 0.50892377 18.5
2.348376 0.52330428 0.4679369 9.833333
2.5930934 0.4480561 0.44519114 7.5
2.6070185 0.42220408 0.46509993 8
-1.0144432 0.62854302 0.52749097 13
2.542877 0.62878406 0.4961009 9.833333
2.1955748 0.86787868 0.41069627 12
2.3716197 0.86239201 0.53110296 14.333333
2.4919498 0.87987214 0.47484502 13.357142
2.3518121 1.0281942 0.53666711 15.75
2.5540798 1.0627074 0.53426391 14.333333
2.6247568 1.192324 0.56620431 16
2.5053675 1.2896914 0.52894825 17.666666
2.5147653 1.4908105 0.55054909 19.5
2.6119587 1.4737327 0.50364745 18.75
2.5381145 1.6933932 0.43139875 19.5
2.468183 2.0197639 0.57451391 23
-1.839016 2.6861303 0.50294852 22
2.2878218 0.11188304 0.69420171 4
2.6134982 0.16085985 0.65581751 5
-0.93520576 0.30288741 0.74231869 13.5
2.3272655 0.31663039 0.61305135 6.8333335
2.4940071 0.36153382 0.69968253 7.5
2.6628098 0.3816916 0.64194131 7
-0.9033531 0.45296314 0.64994848 17.625
2.3017089 0.47931448 0.68622386 9.208333
2.5176456 0.50939965 0.66243768 8.5
2.2856762 0.7019493 0.72137022 12.666667
2.5694637 0.70661306 0.70823836 11
2.3629665 0.85477906 0.64248109 13
2.5422726 0.8879348 0.7303195 12.5
2.3194103 1.0808376 0.71695477 16.833334
2.6068051 1.1360563 0.69769824 15
2.2971525 1.2520659 0.73431635 19.25
2.5561619 1.2683781 0.69488299 16.25
2.3164463 1.4732683 0.74866676 18.5
2.5062428 1.444284 0.68809497 18.375
2.5177734 1.6906496 0.71495008 21.333334
-1.0060089 0.18065025 0.98208356 9
-0.95747793 0.1808656 0.84748977 9
2.1874049 0.15430984 0.98646575 4
2.2278402 0.14771856 0.8719551 5
-1.0088124 0.36299309 0.99204499 15
-0.97613704 0.31723773 0.94891566 13.32857
2.1841872 0.29998001 0.96393883 7
2.2402682 0.28016555 0.81308085 7
-0.96129489 0.47110659 0.89929956 18.333332
2.1779215 0.46805662 0.96476007 10
2.2415621 0.59988946 0.85058641 11.5
2.283422 0.66501153 0.88081473 11.8
2.2465365 0.88952684 0.89415306 15.055556
2.2431228 1.055632 0.88515985 16.875
2.2564576 1.2802694 0.95233697 19.5
2.41435 1.2712852 0.97746634 18
2.479939 1.4969789 0.84443694 18.75
2.5201099 1.7417254 0.95992589 21
2.4074538 1.8462956 0.96900654 23
2.1771562 -0.00026187487 1.1222277 3
-1.0582443 0.17884631 1.1605605 8.5
2.1931167 0.048953369 1.1398063 4.5
2.2263508 0.11541076 1.0539724 4.5
-1.0327281 0.28200313 1.1109563 12.083333
2.1642992 0.28148049 1.0640199 7.1999998
-1.0361403 0.46875858 1.1546388 17.5
2.182826 0.40461054 1.125908 8.5
-1.0878984 0.61180204 1.1909864 20.5
2.1300063 0.64988494 1.1395769 12.25
2.2250884 0.77235478 1.0307426 13.333333
2.1547475 0.86973774 1.0947995 14.5
2.1976867 1.0917734 1.0611856 18
2.2629793 1.0992775 1.0826778 17.75
2.170923 1.2040738 1.1743066 19.5
2.2911308 1.3309641 1.1026988 18.833334
2.418071 1.2777276 1.03581 17
2.3034515 1.4991555 1.10515 21
2.4084771 1.4735875 1.0399914 21
2.4418337 1.7713873 1.0104336 22
2.1350091 0.086753964 1.3246008 4.5
-1.0963869 0.25201699 1.2916903 10.481481
2.126704 0.25487748 1.2778432 6.75
-1.0959344 0.51868641 1.2970449 18.166668
1.8641162 0.45452419 1.3953923 11
2.1170475 0.48231199 1.307621 10.314816
-1.1079752 0.65198874 1.3450158 20.75
2.1270933 0.72559053 1.3250967 13.416667
2.141264 0.90973234 1.3344506 15.125
2.1281924 1.0803218 1.3358136 17.5
2.2687564 1.1385221 1.3358639 16
2.122417 1.2976097 1.3299222 20.125
2.2876258 1.5207597 1.3158078 21
2.2563334 1.6467704 1.2623121 22.5
-1.1346227 0.15635642 1.4377015 7.75
1.9068927 0.064151004 1.5554017 5.1666665
2.042798 0.10831712 1.4802392 5.125
-1.1207614 0.25773957 1.4325273 11.416666
1.9049132 0.38569114 1.4634504 10
2.0529444 0.28877866 1.517537 7.3958335
-1.1570426 0.55146432 1.5073695 17.944445
1.8478158 0.53943944 1.4607368 12
2.0583465 0.48377261 1.5397002 10.285714
-1.1600422 0.67664456 1.5043101 21.5
1.8262444 0.61430097 1.4313635 13
2.0777669 0.69278973 1.5071548 13.428572
2.0822399 0.91433907 1.4473987 16
-1.2350655 1.1388824 1.5872015 19.5
2.05634 1.1172825 1.5365887 18.5
2.0788615 1.3140503 1.5077429 20.799999
2.2443447 1.2407565 1.5502332 16
2.1944523 1.4156522 1.4608057 19
1.9865068 -0.026014879 1.7843919 3
1.9342242 0.10156584 1.7694334 4.75
2.0159533 0.071168393 1.6366081 4.5
-1.2426085 0.31837347 1.7099398 9.25
-1.1710622 0.26672974 1.6636031 11.55
2.0850325 0.29865539 1.6856314 7.5
-1.2492087 0.4982183 1.7041087 13.1
1.9302553 0.4991256 1.7236696 12
2.0255566 0.50335771 1.7309099 10.666667
-1.2689165 0.68107593 1.7034818 13
1.9640297 0.74985635 1.6913872 14.666666
2.0587811 0.64969969 1.6785342 12.541667
-1.2527691 0.94419038 1.6490504 16
1.9672174 0.87167448 1.7670773 16.833334
2.0672574 0.90086901 1.6999506 15.233335
-1.2773911 1.039363 1.6286682 18
1.9864362 1.1564728 1.7600962 19
2.0876245 1.0268934 1.6996825 16
-1.2965915 1.2425253 1.7943459 21.4
2.0489726 1.3176446 1.7492036 19.875
2.238765 1.3564205 1.7171736 17
2.0085201 1.4036344 1.6740346 23
2.2692058 1.7887058 1.7022543 21
2.2680328 1.8923798 1.6882982 22
2.249429 2.0028651 1.7180603 23
1.970934 -0.0033807762 1.9297953 4.1666665
-1.3345029 0.085494928 1.9528134 4.5
1.9472131 0.086513668 1.9065859 5
2.1044929 0.075309753 1.8510798 3
-1.2936457 0.28616813 1.9086922 10.0625
1.9341321 0.27412775 1.8679518 8
2.1287291 0.36104059 1.8427596 9.5
-1.4019694 0.53534651 1.90413 12.5
-1.3937286 0.53876996 1.8863627 11
1.950942 0.48367858 1.9455537 11.666667
2.0700576 0.45414189 1.9288012 11.071428
-1.378754 0.68713665 1.908276 14
1.9583105 0.64864892 1.8871331 13.666667
2.0327022 0.70021528 1.8667278 15
-1.5898932 0.9649272 1.8849874 18.75
-1.3519779 0.83910638 1.9133239 15.5
1.9416578 0.91300505 1.8999982 17.25
2.0558794 0.84624141 1.8991299 16.125
-1.5104276 1.0736755 1.9203075 20.666666
-1.3394715 1.0581479 1.8701961 18.416668
1.9615951 1.0626318 1.9263263 18.958334
2.0381265 1.1088719 1.9132056 19
-1.4046619 1.2212315 1.9033312 22
-1.3765461 1.3518937 1.9744443 23
1.951769 1.2628397 1.9671611 21
1.9564874 1.4322858 1.8969114 22.25
2.1767344 1.5419431 1.9002923 20
2.1215711 2.0372007 1.8741223 23
1.9146427 -0.015208943 2.0940888 3.5
2.0249884 -0.012284502 2.1287708 5
-1.455313 0.13835761 2.062319 6
1.9398561 0.07416001 2.0448124 6
2.0543447 0.12643434 2.1766927 5.8333335
-1.4660584 0.22985464 2.153223 7.25
-1.3039672 0.2251696 2.0423551 8.5
1.9013357 0.29278079 2.0919037 8.166667
2.0616379 0.28827262 2.1916513 6
-1.4746474 0.48628217 2.1150086 11.3125
2.0300333 0.46453819 2.1456127 10.833333
-1.459932 0.68701273 2.1266074 14.25
1.9104489 0.75066447 2.12464 16
2.0914774 0.64858651 2.1508639 9.5
-1.4407521 0.84126228 2.0975242 16.25
1.9090666 0.93539476 2.06722 17.375
2.0636091 0.89121795 2.1159363 12.5
-1.4517384 1.0754834 2.0857863 20
-1.395871 1.1667024 2.0829108 21
1.9028691 1.1000465 2.0942967 19.738094
2.0506525 1.0574164 2.1159692 14.25
-1.4549272 1.2130136 2.0483022 22.666666
-1.3818558 1.2590554 2.034955 22
1.8866862 1.3085041 2.0924237 21.583334
2.0880332 1.2400248 2.0363793 18
1.9428164 1.4199545 2.0136118 23
2.0791583 1.5289264 2.112946 19
2.1295793 1.6706303 2.0144293 19.5
2.0467172 1.810011 2.108279 22
1.7737466 0.071983308 2.3023348 4.5
1.8912494 0.081575155 2.2237577 4
2.0069361 0.099514514 2.3118994 3
-1.4545197 0.33214781 2.2748072 9.833333
1.7722687 0.28285503 2.3492312 7.5
1.9115254 0.31319231 2.2362297 7.6999998
2.0571868 0.28322884 2.2078354 5
-1.4453313 0.5588727 2.3774819 13.5
1.7813104 0.5389837 2.3146698 11
1.8279665 0.4488551 2.3006735 11
-1.4715079 0.63207662 2.328994 14.25
-1.394926 0.69920051 2.2968013 15
1.8339372 0.69458222 2.2791603 12.666667
2.0384951 0.6093421 2.3356459 9
-1.4606671 0.9184581 2.2432363 17.791666
1.8615971 0.8910796 2.2542312 16.466667
2.0078769 0.8380816 2.2540021 14.166667
-1.494235 1.0801883 2.2381599 20
-1.383914 1.0838163 2.2200418 21
1.9936919 1.035675 2.2813416 15
-1.4002841 1.2025566 2.2783768 21
1.8246802 1.3016047 2.3356392 21.833334
2.011122 1.3995392 2.2672048 17
1.809689 1.4308732 2.3548281 22
2.0637987 1.7117379 2.2814786 20.75
2.0010829 1.902458 2.2390451 23
1.8676759 2.0573764 2.3289409 22.5
1.8995193 -0.088765144 2.5711665 2
1.7372367 0.15697064 2.5183868 9.5
1.8766577 0.027448053 2.5660172 3.75
2.0457826 0.15075703 2.4113641 7
1.7467703 0.28402236 2.4350326 7.3333335
1.8767989 0.25142407 2.515219 7.25
0.63928193 0.51646644 2.5288835 20
1.886003 0.51138705 2.4698877 10.333333
1.7919556 0.75830698 2.4619849 14
1.8325042 0.73806679 2.5938563 16
2.0021381 0.72192872 2.4865146 11
1.7580781 0.8046068 2.5991004 21.5
1.9448961 0.8747676 2.5195539 12.666667
1.7560816 1.1202826 2.5246336 19
1.9166931 1.0746956 2.4487793 17.666666
2.0121794 1.0766299 2.498445 17.75
1.7524109 1.2747434 2.5228207 21.25
1.9206742 1.2573299 2.529943 16.166666
1.7388449 1.4088012 2.5315356 22
1.9630743 1.4293617 2.4539142 18
1.9881971 1.7611797 2.4790239 22
2.0537395 1.6736997 2.4477744 21
1.7873324 1.9133275 2.5138543 21
1.8642536 1.9466282 2.4993217 22
1.7374272 -0.065644912 2.6779413 2.5
1.70539 0.088648975 2.6626461 4.625
0.78737891 0.29240072 2.7227368 17
1.6739826 0.32831663 2.7222242 8.25
1.8817803 0.2528165 2.6677122 5.75
0.81870091 0.47679102 2.7392197 21.5
1.6809793 0.47782746 2.6973033 10.5
1.8658121 0.44650933 2.6516619 8
1.7085377 0.69995242 2.6431205 13.5
1.8933166 0.69579017 2.6801033 10.75
1.7479032 0.89332563 2.7068207 15
1.8429331 0.97149622 2.6574717 14
1.7244761 1.081221 2.6564145 18.541666
1.9562137 1.0345865 2.6404147 14
1.7167975 1.3240801 2.7707138 22
1.8827465 1.3881068 2.6239386 17
1.681638 1.4709413 2.7950122 16
1.8364109 1.4968156 2.7509708 19.666666
1.7104377 1.690148 2.7770755 18.5
1.6974444 1.8836386 2.6853833 20
1.302658 0.094007306 2.8937328 10.25
1.6674398 0.16778988 2.902539 6.2000003
1.859064 0.027724821 2.8854198 3.5
1.0743518 0.28970349 2.8972874 16.291666
1.2754033 0.28965861 2.8964248 16.222221
1.5813016 0.25676477 2.9767821 10.5
1.6491817 0.24387868 2.9135144 7
1.9060563 0.30698392 2.841217 9
1.0769924 0.50366694 2.937048 21.666666
1.7439919 0.53828734 2.9189918 11
1.7060634 0.68525106 2.9330182 15.125
1.8664598 0.6877324 2.924427 10.333333
1.6575956 0.87191874 2.9110243 15.916667
1.8966774 0.8452993 2.9552639 12
1.6952934 1.1272215 2.967994 15.666667
1.8146209 1.0003979 2.9320569 13
1.6827168 1.2933682 2.918664 18.375
1.8727762 1.2823741 2.8367202 16.5
1.8724246 1.4954236 2.8986883 18.5
1.7139926 1.6030779 2.8070319 17
1.8298274 1.6260875 2.929981 20
1.5961401 1.9462974 2.9256783 22
1.6986742 1.833801 2.9711051 21
1.593846 -0.030537389 3.0941248 3.5
1.6987193 -0.039293032 3.0013127 2.5
1.9348266 -0.14097676 3.0523512 2.5
2.019758 -0.19029367 3.1895738 2
2.3427482 -0.060351774 3.1291308 4
1.5689611 0.11777968 3.0412419 5.1666665
1.6242374 0.16969498 3.0880201 6.7777781
1.8129005 0.015616957 3.0907133 3.5
2.0749061 0.14132908 3.1094668 7.5
2.3685083 0.1535406 3.1508303 7.5
1.6340878 0.36734706 3.0851402 8.75
1.8192941 0.29538253 3.0687194 6.25
2.1540029 0.36167943 3.1735427 11
2.2480114 0.3764388 3.0883391 12.5
1.2003789 0.5279848 3.0033729 21
1.5682077 0.47238693 3.031358 9.5
1.6775798 0.52752638 3.1074321 10.214286
1.9214619 0.47694111 3.0579488 11.833333
3.3994899 0.51262712 3.0378366 9
1.5767266 0.66852361 3.0403388 10.666667
1.6911975 0.7701211 3.0701091 16
1.9179578 0.68677926 3.0649354 14
2.2164145 0.6736716 3.0636096 17
1.5694523 0.88077509 3.0313752 11
1.6239265 0.87979645 3.10899 16.5
1.9444255 0.91145736 3.1339784 20.5
2.2756724 0.92347366 3.1716115 20
1.5932159 1.1222265 3.0836525 17
1.6632955 1.0953519 3.123219 17.333334
2.0297303 1.0437999 3.1710029 22
2.2344568 1.0632213 3.1847808 23
1.5778583 1.2378364 3.1788054 14.5
1.714746 1.310527 3.1209612 18.666666
1.557385 1.4230273 3.1584759 16.5
1.7429913 1.4252745 3.1258752 18
1.5669384 1.6396801 3.0972855 18.5
1.8172675 1.6734761 3.164259 20
1.6717907 1.8971897 3.129627 21.833334
1.7153639 -0.13086259 3.3222008 1
2.4540191 -0.11963183 3.2506194 3.25
1.6459373 0.06843257 3.2445357 6
2.199127 0.0014866143 3.2395473 5
2.300935 0.15448613 3.2918453 7.5
2.4974027 0.12389107 3.3069515 7.333333
1.554755 0.26462215 3.2860489 5.5
1.6592071 0.26089966 3.2640629 10.25
1.828287 0.37821233 3.3019845 11
2.2929602 0.32689494 3.3024395 9.75
2.4279721 0.33913824 3.2441802 10.75
1.5681098 0.52516806 3.3204401 8.25
1.6734774 0.43463957 3.2876306 12.75
1.8009346 0.52527052 3.2953279 13.5
2.2207098 0.55172038 3.2721667 13.5
2.4105346 0.53455788 3.2178876 14
3.3674707 0.57416081 3.3315485 9.5
1.5750214 0.79377776 3.2662144 10.5
1.6643139 0.68073481 3.29304 9.5
2.1584027 0.70404977 3.2374995 16.333334
2.369086 0.75308871 3.2095091 17
2.4125707 0.67331988 3.2161975 16
1.5836129 0.95202774 3.2269378 12
1.7364765 0.85300738 3.3058732 11.5
2.1312923 0.94548035 3.2964537 19.75
2.3961692 0.94838756 3.2631085 20
2.4568796 0.84648854 3.2727988 18
1.7425536 1.0190604 3.2785692 13.5
2.3259227 1.0982709 3.2834203 22.5
1.7311791 1.3320205 3.2697484 16
1.7212989 1.4960759 3.3604679 18.25
1.6821548 1.6711311 3.2478859 19.583334
1.6949761 1.9374413 3.2365088 22.5
-4.055789 2.5349467 3.389739 20
1.6633337 2.7632489 3.3904805 23
2.6526084 -0.022789039 3.4374495 4.333333
2.6908679 0.12294067 3.4755368 6.75
2.7443562 0.39492172 3.4858248 10.75
2.687892 0.55761015 3.4871757 12.5
2.6896782 0.74146509 3.49475 15
2.6682959 0.87079138 3.4969835 16.75
2.5289226 1.1393473 3.4449635 22
-5.6369791 2.1350806 3.5839024 14.5
-5.473279 2.4921663 3.5724211 16.5
1.6697663 2.495014 3.4709802 21
1.6374532 2.6694129 3.4566479 22
3.5357451 -0.097854733 3.671114 2.75
-5.6405621 0.16375983 3.6824622 4
3.6048582 0.17613679 3.7183528 5.5
3.5486207 0.29681954 3.6678531 7
-5.665978 0.57642841 3.693013 6
-5.4869943 0.44571784 3.7551222 5
3.570122 0.57689619 3.6834795 9.5
3.6030502 0.44150746 3.7327218 8
3.5322554 0.77514875 3.6809986 11.5
3.6603343 0.62473512 3.7630482 10
-5.6183195 0.84464335 3.6924634 7
3.5543861 0.9530533 3.7287593 13.25
3.6160614 0.80149138 3.7639904 11.5
3.5133564 1.1338549 3.7381673 15
3.2642653 1.315262 3.6605558 17.333334
3.2209046 1.7544787 3.6527319 21
-5.7734814 1.988297 3.6750872 13
-5.6417084 2.0075376 3.6808515 13
-5.5727711 2.0643337 3.661376 14
-5.4701319 2.2488792 3.7415838 15
-5.4114814 2.4396827 3.783452 16
-5.2893143 2.582763 3.6197701 18
-5.3509631 2.6430583 3.7536216 17
-2.1278536 2.6600692 3.6686068 22.5
0.71746647 2.7515354 3.7407625 23
4.0173492 0.18360536 3.9717343 6
-5.4243288 0.39948955 3.8903389 5
-4.7114491 0.29193711 3.9658732 5
3.9054379 0.36835492 3.9136081 7.5
-5.5676079 0.52111065 3.9291792 6
-5.3559613 0.51609516 3.864253 6
-4.6801281 0.42450061 3.9498281 6
3.8312316 0.55864501 3.918437 9.5
-5.5550919 0.74538374 3.9452424 7
-5.3315105 0.72324723 3.864316 7
3.8450224 0.66901183 3.9346247 11
-5.2093291 1.1609437 3.9125822 10
3.732712 1.1586503 3.9183879 16
3.6931512 1.3324074 3.927454 17
-5.1333208 1.5066806 3.8272369 12.5
-4.6890502 1.5565041 3.9954376 13
3.6653795 1.4906726 3.9277422 18.5
-5.1798506 1.7675182 3.8761292 13
-5.4203615 2.0495973 3.8021605 14.5
-5.1727629 2.0260596 3.8885121 14
-5.223557 2.3468988 3.9433391 16
-5.1168222 2.3573837 3.9548383 16
-5.1441483 2.5689278 3.9347389 17.25
-3.4226358 2.5964544 3.9644623 21
-2.2043705 2.5681274 3.8213043 21
-3.2770991 2.6778169 3.8746276 22.5
-3.1002598 2.6422064 3.9894891 21.5
-2.6312985 2.6389823 3.9170418 22.5
-2.1767972 2.6845994 3.8481002 23
1.1816698 2.6501446 3.8361323 22
1.2330383 2.6117275 3.9893243 21
1.5226341 2.6599357 3.8929257 23
-4.4490581 -0.024306118 4.0178523 3
-4.2768865 -0.012439504 4.0911179 3
3.9646053 -0.055609897 4.01759 3.5
-4.4117408 0.14815146 4.0124454 4
-4.2639856 0.19308206 4.0967803 4
3.9760664 0.10160805 4.0164952 5
-4.2792754 0.32096052 4.1109219 5.25
-4.0934048 0.26783952 4.183526 4.5
-4.5548935 0.58249891 4.1438727 6
3.9517941 0.55927938 4.0339804 9.5
-4.6175032 0.64979696 4.1231022 7
-4.0818553 0.68955952 4.1912594 7
3.9423761 0.68654656 4.0451365 11
-4.6495962 0.95455503 4.0645962 8
-4.3193812 0.90705699 4.1228662 9
-1.7153047 0.93495828 4.1897349 20
-4.7301579 1.0546297 4.07936 9
-4.4077849 1.0063217 4.1499767 9
-4.7393103 1.2421434 4.069416 10.5
-4.3254366 1.2088513 4.1187048 11.5
-4.1296306 1.3884783 4.1927099 13
-4.698998 1.4079088 4.0707803 11
-4.6663418 1.7372626 4.1992445 13
-4.5147281 1.9218299 4.1029701 15
-3.6142781 2.5488834 4.10289 21.5
-2.6785412 2.5568976 4.0821476 21
-2.2705746 2.5790515 4.0237598 21.5
-1.2593877 2.5804884 4.1801739 21
1.1678479 2.5713222 4.0504704 20
1.5969545 2.5770497 4.0108743 22
1.6232032 2.5507152 4.127965 21
-3.2449656 2.6257317 4.1092215 21
-1.8626804 2.6549582 4.086143 23
-1.19546 2.662111 4.0448432 22
0.11060321 2.7129784 4.107389 23
0.47644964 2.6188691 4.0687227 21
-2.7058764 -0.20225273 4.3923044 2
-3.5513473 -0.14122872 4.3052063 2
-4.0579238 0.0045350045 4.2265358 3
-3.9277432 0.11374329 4.2838316 3.7
-3.6937888 0.088074625 4.2368488 3
-3.3025846 0.15549922 4.3521376 4
-3.0730636 0.12997212 4.312429 4.5
-2.7024961 0.065541685 4.3778143 5.5
-3.9731541 0.22769165 4.2135983 5
-3.7045259 0.27585518 4.3542056 5
-3.2063949 0.33854878 4.396872 5.5
-2.7106116 0.34699333 4.3872223 7.5
-2.5694528 0.2981987 4.242476 8
-1.6511304 0.36355871 4.3957767 11
-4.0131245 0.47716841 4.2336178 6
-3.6817706 0.482366 4.3565774 6.3333335
-3.1384242 0.59552675 4.3716817 7
-2.7288723 0.44804025 4.3662176 8.75
-4.0705895 0.68029624 4.2241154 8
-3.982389 0.73884082 4.2780304 8
-3.7005618 0.69241887 4.2634568 7.5
-3.4428277 0.761168 4.3007846 8.5
-3.2087359 0.67906523 4.3284464 9
-3.190659 0.76469851 4.3203731 10
-2.7147036 0.65369552 4.3662672 11
-4.023509 0.93102252 4.2471771 10
-3.9739854 0.90725869 4.2563891 9.333333
-3.7025189 0.95651293 4.3536673 9.5
-3.3959062 0.96384478 4.2616167 10
-3.190021 0.96423256 4.3364363 11.5
-2.7084 0.84418654 4.3261681 13.5
-1.5967827 0.88937742 4.3321071 19
-4.0457911 1.0334365 4.2492437 10
-3.8823681 1.108494 4.3054285 10.5
-3.6894469 1.0698824 4.3660746 10
-4.6922112 1.2576951 4.2765479 11
-4.0341244 1.2123173 4.2432365 11
-3.9529638 1.2731639 4.2966962 12
-3.5172617 1.2633555 4.3652782 11
-3.194376 1.232705 4.3864775 12
-4.6485629 1.5051192 4.3251452 13
-3.9184432 1.5194483 4.3572912 12.5
-3.7368884 1.4040985 4.3523183 12.333333
-2.3297377 1.5387425 4.3708105 20
-4.3346353 1.6915959 4.3300557 13
-3.6911197 1.6540021 4.3850389 13.5
-3.3012438 1.6928718 4.3854733 14.5
-2.297838 1.6216344 4.3649254 21
-4.2739348 1.8866664 4.2433791 14
-3.8674932 1.8375337 4.3402514 15
-3.2509875 1.9782681 4.3830247 16.5
-2.2754297 1.8265711 4.3471975 22.5
-4.2334776 2.0329616 4.2300735 15.5
-3.2075284 2.2055762 4.3864551 18
-3.0808527 2.5901759 4.2808046 20.5
-2.1574092 2.5131509 4.3148513 20
0.49950013 2.598454 4.3249226 22
0.7588504 2.560334 4.3884921 21
4.3976965 2.5373933 4.3442812 23
4.5645123 2.4477601 4.3654141 21.5
-1.5466838 2.6579177 4.2383704 23
-2.6433525 -0.1430293 4.451581 3
-2.4900527 -0.13018873 4.5296335 3.5
-3.231549 0.13825981 4.5749793 4
-3.1061933 0.19569367 4.5583315 4.5
-2.9120255 0.075288132 4.5584888 4.8333335
-2.7020001 0.075059853 4.4605026 4.5999999
-2.5443215 0.10984397 4.562746 5.5
-1.4269867 0.014533877 4.5428896 6.5
-3.5138719 0.29275912 4.4983616 5
-3.2851775 0.24849251 4.5057096 5
-3.1761622 0.22619656 4.5789542 5
-2.9015474 0.29523745 4.5115008 7.1666665
-2.7136295 0.31624892 4.513773 5.7777781
-2.4923577 0.36654127 4.4580083 7
-1.6499822 0.30685222 4.4132504 9.5
-3.4505801 0.50485206 4.4373159 6.5
-3.3934855 0.41281977 4.4475722 6
-3.1538129 0.44586125 4.5663757 6
-2.9370403 0.44621533 4.5369754 8
-2.6296306 0.56366313 4.5662575 8.5
-2.5085955 0.45719206 4.569355 8.25
-1.4910386 0.50267059 4.5319281 13
-3.8692348 0.62072754 4.5711737 9
-3.7181802 0.62620693 4.4004502 7.5
-3.4153607 0.76201695 4.4677567 8
-3.0269237 0.6217404 4.5892525 8
-2.9516242 0.6678189 4.4941378 9
-2.6773853 0.66663849 4.4610519 10.4
-2.4991946 0.6414994 4.4942346 9
-1.4369333 0.63959813 4.5569634 15
-3.8450758 0.91412568 4.5558081 10.5
-3.7100239 0.82894099 4.410686 9
-3.3488488 0.94157362 4.5585833 9.5
-3.067872 0.867697 4.4588151 9.5
-2.9119134 0.91430759 4.4826946 11
-2.6818135 0.88138008 4.4997454 10.8
-2.4841802 0.89519805 4.5485263 10.833333
-2.3186278 0.81018221 4.5435848 11
-1.4142566 0.81593555 4.563633 17
-3.4972181 1.1061077 4.4684067 11
-2.8160148 1.1169293 4.5869875 11
-2.7643406 1.1654682 4.5982585 16
-2.4921687 1.0672059 4.5502481 13.5
-2.3976383 1.1266003 4.5209575 13
-1.3376806 1.0464798 4.5974631 20.5
-3.8814704 1.3601245 4.5244031 13
-3.3363535 1.2981194 4.4692373 11.5
-3.1474869 1.2130973 4.4230108 11
-2.5058751 1.2464505 4.5276632 15.833333
-2.3587806 1.2375715 4.5842967 17
-3.8790212 1.5434885 4.5165758 14
-3.3636081 1.5111732 4.4850311 13.75
-3.1111267 1.4700152 4.4817247 12.5
-2.8233731 1.4497408 4.5701838 12.5
-2.4478567 1.512884 4.5387168 18.666666
-3.8641155 1.7031481 4.4990988 15
-3.5456667 1.6429571 4.4261913 14.5
-3.3634703 1.7146201 4.5091009 15.25
-3.0964391 1.7943404 4.5206871 14
-2.6809616 1.6616105 4.5751219 14.5
-3.3490787 1.9399395 4.5047064 16.5
-2.9444201 1.947701 4.5769134 15
-3.2674093 2.0378141 4.4444289 17.5
-3.1327639 2.0261576 4.5537491 17
-2.6912794 2.0046966 4.5604153 16.5
-3.3889453 2.3207247 4.4654007 21
-3.195554 2.3832753 4.401042 19
-3.3424559 2.4350934 4.4851551 22
-2.9756479 2.5007546 4.4669042 19.5
-2.665982 2.5020897 4.5601683 20
-1.5327556 2.5650208 4.5056753 21
0.30296054 2.4910073 4.5099292 20
0.80724823 2.4975226 4.481019 20
4.4142771 2.4985797 4.5332613 22
-3.0581398 2.6024792 4.4685364 20
-2.5431323 2.66278 4.4330564 22
0.051319979 2.6577616 4.56108 23
-1.9822644 -0.24055493 4.7942886 1
-2.9159858 -0.033128235 4.6168981 3
-2.6194434 -0.15505217 4.6052957 3
-2.4751449 -0.13534208 4.7235131 2
-2.1070683 -0.1520194 4.782486 3.5
-1.88916 -0.088355564 4.6784916 3.1666667
-1.7258648 -0.066069558 4.734077 5
-1.5374361 -0.068096675 4.7052469 5
-1.2353628 -0.11844502 4.6652613 4.3333335
-2.5085278 0.13761295 4.7259202 5.3333335
-2.2230141 0.059822571 4.7379398 4.6666665
-2.1241028 0.010968037 4.6776042 3
-1.8506027 0.10437977 4.7149854 6.3333335
-1.6543494 0.1319585 4.7886524 7.8333335
-1.5188601 0.0081867725 4.7115803 6.5
-1.2476929 0.10746542 4.7572646 7.3333335
-1.1498697 0.19885939 4.7616558 10
-2.6443594 0.34114301 4.7042394 5.5
-2.4736016 0.29575571 4.6830983 7.5
-2.3934653 0.36693391 4.7082205 6
-2.1685603 0.2193383 4.7399712 5
-1.8603721 0.21883476 4.7799525 5.5
-1.3335674 0.2364525 4.6126041 9.5
-1.1591051 0.26156557 4.7306514 10
-0.81370634 0.27203193 4.7885151 9.5
-2.9603362 0.55846781 4.6990352 7
-2.7028263 0.50792986 4.6708198 7
-2.5126901 0.42764044 4.6767035 8.5
-2.2803805 0.42183924 4.6762624 9
-2.1510291 0.5914318 4.6523638 8.5
-1.9308293 0.41224879 4.7029667 9.25
-1.7999171 0.59684873 4.737134 14
-1.3302445 0.4418394 4.6200199 12.5
-1.0675074 0.49572119 4.7227917 12.75
-2.9363289 0.76774895 4.6735792 8
-2.6739421 0.71543801 4.6736012 7.75
-2.5338252 0.67195672 4.6713448 10.333333
-2.3128014 0.73704225 4.7239871 9
-2.0639615 0.62333697 4.765666 11
-1.6472188 0.70684797 4.7736807 10
-1.3569235 0.7070592 4.7252092 11.2
-1.136984 0.66401464 4.7304373 16.25
-2.9919031 0.97829604 4.7166953 10
-2.6400597 0.8660593 4.7454967 8
-2.4331803 0.89613092 4.7566628 8
-2.3694954 0.88479877 4.695797 13.25
-2.1557231 0.90287918 4.6677175 11
-1.6613951 0.86929482 4.7607427 17.666666
-1.3256407 0.87462902 4.6242242 18.916668
-1.0960181 0.86520392 4.7354836 19.5
-3.2192807 1.0210965 4.7187662 10
-2.933327 1.14688 4.7244883 11
-2.6251016 1.1017947 4.7158446 9
-2.4236307 1.0521846 4.6975117 9.5
-2.2907431 1.115262 4.7007256 15
-2.1402407 1.0232877 4.6503177 12.5
-1.2036383 1.0250607 4.6909866 20.5
-0.97891229 1.0145241 4.7732439 22
-2.6466582 1.3327603 4.7141824 13
-2.4619691 1.2839887 4.7450719 11.333333
-2.2419078 1.2909962 4.6646233 17
-2.9425714 1.4569684 4.7273712 13.5
-2.514848 1.4575527 4.7588882 13
-2.2819426 1.5251628 4.6644282 17.666666
-2.0985651 1.4872742 4.7641945 17.5
-1.9667459 1.5900296 4.7510681 19.25
-3.0825961 1.7704268 4.7387371 14
-2.4019475 1.621752 4.640449 13
-2.3602197 1.739689 4.6553392 17.75
-2.1162441 1.7446394 4.7040544 21.5
-1.9243934 1.748986 4.7664437 19
-2.9488659 1.8651584 4.6494503 14.5
-2.7426829 1.9536512 4.774271 17.5
-2.4611716 1.8809 4.6401653 15
-2.9236755 2.1432457 4.6542878 17.25
-2.4727058 2.1886516 4.7230501 17
-2.2446907 2.0463929 4.7115955 18
-2.0576181 2.0551038 4.7708273 17
-3.0549591 2.2434833 4.6073265 18
-2.9673398 2.3969443 4.6525559 16
-2.6972334 2.2903845 4.7136407 17.333334
-2.8596852 2.496995 4.6628723 17.5
-2.7135475 2.4419062 4.6238856 19
-2.1386776 2.5045335 4.68894 20.5
0.034275834 2.5730805 4.7055349 21.5
-2.2101827 2.643069 4.7845707 18
-1.7225063 2.738133 4.6923513 23
-1.2365996 -0.2177072 4.9728661 3
-1.0228876 -0.26120678 4.9277992 2
-0.80972332 -0.21155465 4.9775114 3.3333333
-0.7761243 -0.20115304 4.9743433 3
-1.9036455 -0.060316455 4.9282026 3.5
-1.5044791 -0.10695528 4.8661366 3.1666667
-1.3997101 -0.10181545 4.8119612 5
-1.1131687 -0.11579649 4.9370232 3
-2.2221441 0.10327204 4.8715076 4.75
-2.1620767 0.081347108 4.8819284 5.5
-1.9060688 0.10363311 4.9065304 4.875
-1.6676906 0.13009775 4.8838506 4.5
-1.4322269 0.088297457 4.8822222 5.75
-1.3128303 0.075586334 4.9037533 4.6666665
-1.0377266 0.16079909 4.9575081 9
-0.89327288 0.11474211 4.9670863 8.666667
-0.6129452 0.10478293 4.9812737 8.25
-0.5984875 0.16457286 4.9832916 10
-2.4533885 0.32180843 4.839756 8
-2.2945299 0.3252371 4.8984723 8
-2.1470027 0.28054062 4.8844671 7
-1.6046611 0.21217275 4.978301 4
-1.4824916 0.31582481 4.8796515 6.8000002
-1.0914364 0.29596752 4.8694019 9.625
-0.89863384 0.33283004 4.9538412 11.25
-0.63043261 0.25019473 4.8511782 9
-2.4598725 0.48199096 4.8192577 9.5
-2.3226886 0.48023814 4.8906126 7.75
-2.1633947 0.49687141 4.889194 9.5
-1.9619551 0.4780713 4.9322643 8.166666
-1.6642143 0.49321091 4.8989773 8.666667
-1.4978274 0.50952119 4.9391088 8.3125
-1.3605541 0.48538625 4.9346623 10.5
-1.104071 0.47356248 4.8780904 10.5
-0.84281218 0.45406783 4.8797402 13
-0.77943164 0.54947793 4.875247 12.5
-2.2642677 0.69746506 4.8507853 11.75
-1.8548317 0.65678364 4.928091 8.333333
-1.6935817 0.7144143 4.9233623 9
-1.5125239 0.71062541 4.9215298 9.625
-1.303063 0.68967742 4.9342155 12.666667
-1.1040652 0.63970017 4.8771572 14
-0.93690979 0.66702104 4.9237528 15.8
-0.72302842 0.65912718 4.9169278 14.5
-0.1161768 0.72651649 4.9990931 15
-2.6241541 0.89484239 4.8692999 9
-2.2980385 0.92445701 4.8919778 11
-2.1180735 0.90936011 4.8501906 12.333333
-1.8833756 0.88116831 4.8806763 8.75
-1.6458381 0.98892367 4.9194975 9
-1.4241947 0.853854 4.8910899 12.833333
-1.2562921 0.95407194 4.9538789 20.5
-1.1576658 0.80069977 4.9278359 18
-0.96520412 0.85003859 4.954731 19.25
-0.12369968 0.85090971 4.978385 17
-2.6591299 1.0997789 4.847436 11.5
-2.2163661 1.0206162 4.8213987 15
-2.0742743 1.0252391 4.9483099 10.5
-1.8412845 1.0026935 4.8861747 9
-1.6716599 1.0298909 4.8746967 13
-1.4744819 1.028028 4.860157 20
-1.0681716 1.1316251 4.990644 11
-0.96320158 1.05242 4.9346161 18.5
-2.8614967 1.377457 4.9080367 10
-2.2995193 1.2947036 4.9650207 17.5
-2.0945013 1.2705442 4.9068565 13.214286
-1.9127002 1.2302271 4.940074 17.5
-1.7046208 1.2951765 4.9282598 12.375
-1.2833747 1.2978501 4.9747515 15
-2.8340857 1.5005851 4.8526835 11
-2.539382 1.4873142 4.9348888 12
-2.3453219 1.4659913 4.8908606 17
-2.0697715 1.4582694 4.8936601 15.5
-1.7371767 1.5219005 4.9475913 18.25
-2.8246307 1.7641785 4.824667 12
-2.0267544 1.6795754 4.8469644 19
-1.9433132 1.7356625 4.8110785 17.416668
-1.3986754 1.672532 4.9865494 15
-2.9611516 1.8158054 4.8503389 16
-2.2073293 1.8476754 4.9760017 17
-1.719651 1.9879409 4.9515457 16
-1.5467534 1.9058185 4.9861898 22.5
-1.3455142 1.9334793 4.9942675 22
-3.0329168 2.1671476 4.927496 20
-2.8969898 2.1691592 4.9858475 19
-2.7618761 2.0533385 4.8959379 14.5
-2.2363648 2.1576078 4.9443936 19
-1.8786733 2.0319357 4.8346548 17
-1.3081267 2.0700326 4.9874592 23
-2.942466 2.3685379 4.8615532 19.5
-2.6743095 2.2646313 4.8485022 15.75
-2.307687 2.313174 4.8147802 19
-2.0602708 2.3035541 4.9386268 18
-1.7415818 2.2743552 4.9253426 18
4.6201334 2.3749037 4.9294739 20
-2.9684701 2.5341923 4.8035917 21
-2.5994923 2.5083015 4.8009973 18
-2.2909832 2.4710238 4.8397655 20
-1.8939288 2.5269647 4.883482 19.25
-1.0302666 2.5455096 4.9067798 21
0.016248487 2.5030715 4.874382 20
0.35442051 2.5431652 4.9861531 21
0.60606211 2.5324662 4.9908566 21
0.5709132 2.6276326 4.8439045 22.5
-1.0383011 -0.24722208 5.160984 1.5
-0.34354168 -0.23327965 5.0849409 2
-0.0011370182 -0.24884793 5.1781445 2
-1.6795106 -0.051406361 5.0328045 3
-1.228395 -0.074158251 5.1572123 2.5
-1.0812147 -0.13690315 5.1148696 3.5
-0.98959798 -0.083724566 5.054606 2
-0.69867539 -0.1913909 5.0732422 2
-0.58839548 -0.043344256 5.184104 3
-1.6254776 0.17517224 5.1131916 5.5
-1.2171993 0.091854423 5.1406121 6
-1.198176 0.1900526 5.1307411 5.5
-0.90457392 0.067682646 5.1066852 4
-0.48229751 0.09403608 5.0745425 6.8333335
-0.28774753 0.098343849 5.1340771 8.5
-2.1513243 0.33249557 5.1019335 8
-1.6102965 0.36433327 5.0800447 7.5
-1.5968831 0.27968305 5.0572677 7
-1.2165897 0.28499222 5.0995445 6.5
-0.92040682 0.2132701 5.1213737 5.5
-0.7407378 0.26520282 5.0786066 7.875
-0.50647229 0.30980587 5.1383715 11.375
-0.16952389 0.25669974 5.1550555 10
-2.0681677 0.58454001 5.032485 11
-1.9305658 0.44659629 5.0672736 9
-1.6747562 0.500521 5.0547843 8
-1.408572 0.49118069 5.0019703 6
-1.3239675 0.5764488 5.1441255 6.5
-1.0624645 0.4779748 5.1601038 8
-0.92902005 0.50557756 5.1810417 11
-0.70150429 0.52244288 5.1216693 8
-0.23320712 0.42313036 5.0475359 11.5
-0.043560997 0.40757737 5.073534 11.5
0.08806853 0.56382453 5.1373224 13
0.3049258 0.5214591 5.0885983 13
-1.8548841 0.67626405 5.0717568 11
-1.6588277 0.71479219 5.0172219 9
-1.5071628 0.62797916 5.076488 9
-1.2597768 0.68234199 5.0838237 8.5
-1.0889645 0.68712151 5.1062951 8
-0.89072436 0.69605255 5.1508889 11.6
-0.70303327 0.67149514 5.1353264 14.333333
-0.53790742 0.68113202 5.0683117 15
-0.17692792 0.72269601 5.1737876 16
0.13036777 0.75251591 5.0457277 15.5
0.23980169 0.62858415 5.1270571 14
-2.2317467 0.81986284 5.0325751 12
-2.1020069 0.87825614 5.0347066 11.833333
-1.8246908 0.85838038 5.0666547 12.5
-1.311801 0.90596396 5.0638862 10.5
-1.0943922 0.91537899 5.1249747 8.75
-0.91913152 0.9289391 5.1653948 11
-0.64060116 0.84777027 5.1841755 8.5
-0.50978512 0.88472235 5.1267481 13.25
-2.1665859 1.1608696 5.0841026 9
-1.8918108 1.1362085 5.1046591 15.5
-1.7928672 1.13436 5.0909977 16
-1.4968581 1.0895466 5.0521502 12.5
-1.2738738 1.1156876 5.1107044 11.666666
-1.0928251 1.0943891 5.1052113 14.625
-0.8335821 1.1360373 5.1542149 10
-0.66545361 1.0775179 5.1236525 10
-0.53970051 1.0963567 5.0580416 20.25
-0.32046831 1.1683738 5.1237726 21
-1.9675169 1.3869532 5.0360603 11
-1.6795107 1.2489905 5.0354438 15.5
-1.2429173 1.3407364 5.1120176 18.5
-1.1696099 1.3342131 5.1785512 14
-0.85378414 1.3961322 5.1877303 16
-0.48160061 1.2960141 5.1762047 16
-2.1158967 1.572525 5.0459247 12
-1.8440824 1.4198271 5.1904278 18
-1.7413374 1.4966795 5.0115881 13
-1.0912336 1.480474 5.1627293 17.5
-0.83693409 1.5514541 5.1205578 16.333334
-0.61609739 1.5244509 5.1258783 18
-1.8800958 1.6188334 5.1507969 14.5
-1.6586258 1.681704 5.086493 18
-1.2860765 1.6805481 5.111743 19.166666
-0.88639867 1.764129 5.1623421 18
-2.2140925 1.9383464 5.0011225 18
-2.1028383 1.8184313 5.0356531 16
-1.4878509 1.8358738 5.1514845 13
-1.2367191 1.8994901 5.1645145 22
-1.0395844 1.9864557 5.1744442 23
-0.91477507 1.9380407 5.1625156 16
-2.7291765 2.1792724 5.0660148 19
-1.8855014 2.1872342 5.0918436 19.5
-1.3492446 2.0329108 5.0858421 17
-0.95716244 2.0309844 5.181529 17
-2.5724258 2.3781507 5.0258346 20
-1.765606 2.2966418 5.0811672 20.5
-1.3447785 2.3699441 5.1688352 16
-2.1646516 2.4441085 5.0610142 16
-1.5263345 2.5796297 5.1009665 18.5
-1.2875715 2.4696872 5.0884242 20
-1.1552083 2.5465705 5.0658193 19.5
-0.9408133 2.4628499 5.1536374 20.5
0.12658224 2.511868 5.0596929 21
0.75667673 2.5896723 5.1747007 22
0.85115606 2.5739985 5.1722164 22
-0.60308552 -0.2269562 5.3289142 3.5
-0.5278995 -0.28554505 5.3598976 2
0.22474471 -0.20478556 5.3294759 3.5
0.96168733 -0.30449787 5.2315168 1.5
1.5508888 -0.30136603 5.397058 2
-0.90770227 -0.040402941 5.2110958 4
-0.6192742 -0.17286313 5.2862616 2
-0.35327825 -0.049942717 5.3605051 3
-0.032835305 -0.10348952 5.2895117 5
0.27816075 -0.046337873 5.2750826 5.5
0.59622645 -0.16934863 5.3145986 3
0.75677168 -0.076225817 5.3511958 5
0.93283081 -0.12329884 5.3451819 4
-0.50217795 0.16339251 5.2994695 4.5
-0.33501154 0.19513895 5.2925167 5
-0.04782287 0.034971435 5.2569227 3.25
0.75326246 0.056643263 5.3570623 6.5
-1.8748462 0.35269269 5.2309618 8
-1.1774324 0.28100967 5.2079544 8
-0.91577321 0.30330369 5.2503505 5
-0.66836619 0.2176832 5.3304992 4.3333335
-0.523103 0.33621964 5.243753 9.1999998
-0.38779473 0.3202464 5.2988014 5.5
-0.081929281 0.31845552 5.3223443 8.5
0.38436604 0.29854816 5.3077497 10
-1.8874276 0.43445215 5.251935 9
-1.0736095 0.50333315 5.3079705 9
-0.67101121 0.42381382 5.3164587 11.5
-0.5154109 0.50897682 5.3078451 11
-0.27810767 0.46846387 5.3350716 9.166667
-0.10600629 0.46865645 5.3363209 7
0.42618287 0.49533319 5.3203144 12
-0.70892143 0.71117222 5.2713842 12.25
-0.53474033 0.67510211 5.3409204 8
-0.31674948 0.69358981 5.2528362 9.5
0.031511366 0.65152669 5.3506751 9.5
0.46712106 0.66730583 5.3665733 14.5
1.0640701 0.76608658 5.249166 17
-1.7595369 0.9443332 5.2624779 14
-1.1290902 0.9412111 5.2082253 13
-0.63812566 0.93341875 5.216507 11
-0.48620743 0.82192487 5.3199663 10
-0.29918 0.88721132 5.2849317 13.5
-0.022319447 0.84950209 5.2871242 11.5
0.11400701 0.94335777 5.3504725 20.799999
0.24683639 0.98590183 5.2796741 21.5
0.42484844 0.87887013 5.3375106 18.5
1.0638263 0.88136905 5.2402706 18.5
-1.7557082 1.0985208 5.2660971 15
-1.15939 1.1387961 5.2673607 15.5
-0.88814795 1.1271646 5.2898731 13
-0.72826552 1.0911808 5.2220201 23
-0.50147718 1.1090299 5.344583 13.5
-0.27734765 1.0565991 5.2637968 12
-0.12282809 1.0612466 5.2748523 13.5
0.083446115 1.0153189 5.2499456 22
0.2557714 1.0813999 5.2632098 20
0.49829337 1.032527 5.3086553 20.25
-1.5689087 1.21851 5.3683205 16.5
-0.90609109 1.2849479 5.2989426 11
-0.75869107 1.3054957 5.3185549 13.75
-0.586824 1.3942791 5.2440863 13
-0.30212152 1.2263815 5.2971539 13
-0.07748279 1.3287157 5.3603458 12
-1.2967166 1.4118128 5.2451949 11
-1.1581082 1.5822161 5.3066282 14
-0.68589163 1.5008751 5.3083854 16.9
-0.58739251 1.5890342 5.2104025 14
-0.2238922 1.4538777 5.2884226 17
-0.1046184 1.4355817 5.3205328 16
-0.89214981 1.7232637 5.2740288 15.25
-0.77116239 1.6979194 5.3077822 18
-0.49154565 1.6043005 5.3310089 19
0.11659209 1.673721 5.3956633 20
-0.89390421 1.8854463 5.3484516 19.75
-0.644584 1.8344272 5.2282505 15
-0.53565818 1.9426146 5.2852058 20.333334
-0.28957391 1.8837641 5.2971802 21.5
-1.679173 2.1783059 5.2063665 15
-1.293224 2.1185563 5.3782086 14
-1.0000046 2.0328541 5.3702412 15
-0.7339676 2.190572 5.2062092 19
0.056722678 2.177865 5.3936944 18
-1.2732811 2.207397 5.2893171 18
-1.081975 2.3036728 5.283772 17.666666
-0.99907422 2.3744826 5.3132734 20
-0.59697914 2.2706294 5.327394 17
-1.0054619 2.5362952 5.3500819 18
-0.98634684 2.4205723 5.3158231 17
-0.58589977 2.5347424 5.2421203 18
-0.23892336 2.5676622 5.359025 20
2.8463209 2.5362041 5.2912397 22.666666
-0.45824611 2.6242087 5.210422 22
-0.20288974 2.6798048 5.3557487 23
0.27347627 -0.31258667 5.599617 0
0.40313977 -0.23984206 5.4942036 3
-0.25413197 -0.17456107 5.4167109 2
-0.043498948 -0.16005355 5.5621567 3
0.55141199 -0.10544091 5.4592476 4
0.91429698 -0.08460661 5.5711956 3
1.3682489 -0.1527918 5.4572287 4
-0.29870757 0.055606239 5.4023752 3.5
-0.067537621 0.06022042 5.4796333 5
0.18248586 0.066375226 5.5115213 4
0.29131374 0.10140212 5.4537411 7
0.48532024 0.12096641 5.4898777 6.4000001
0.68837905 0.14552762 5.5731597 4.6666665
0.94180185 0.094778202 5.554709 4.3333335
-0.51514953 0.32020906 5.4522476 7.8333335
-0.27174419 0.31659627 5.4681878 8.75
-0.16460954 0.38706791 5.4221535 6
0.13380577 0.2616927 5.4968991 5.5
0.38975003 0.35617623 5.5258818 7
0.50076789 0.2834546 5.4684248 6.5
0.7609992 0.27511036 5.5415282 6
0.91845113 0.31301519 5.4355035 9.333333
-0.55914259 0.40568733 5.4196353 5
-0.24644348 0.46120319 5.4230232 5
-0.085318901 0.47653341 5.5232244 9.083333
0.14899543 0.51824462 5.4983292 9.7142859
0.30149722 0.47923619 5.4944334 7.25
0.49995747 0.54952592 5.5466881 9.25
0.64250278 0.43824381 5.5270538 8.5
-0.46641573 0.60294002 5.4939413 7
-0.33504406 0.68999934 5.5115013 8.75
-0.022639716 0.72074306 5.4735389 7.5
0.16373986 0.63944554 5.5933375 14
0.31430566 0.68582439 5.5189438 8.5
0.48105893 0.69877791 5.485899 8.75
0.61399227 0.68687916 5.5361786 10.5
-0.85533828 0.94121242 5.4995899 8
-0.48380995 0.95432484 5.5031977 10
-0.21590637 0.97636259 5.4420986 14
-0.093935065 0.99481976 5.551322 10.5
0.16685551 0.99483001 5.5053892 14
0.25046611 0.90930063 5.4670854 13.5
0.50253165 0.89814049 5.5167899 9.75
0.76519686 0.93503368 5.5328445 9.5
0.92755675 0.91668069 5.5961952 12.5
-0.8144086 1.1140294 5.4371018 9
-0.52072179 1.1241364 5.4609556 12
-0.37786943 1.0462484 5.5678391 8
-0.016693272 1.0524597 5.5009708 10
0.020954806 1.073261 5.4269876 10
0.33490628 1.0710293 5.4825454 11.5
0.53783584 1.1091938 5.5150709 19
0.69438124 1.143159 5.5776515 16.666666
0.92501777 1.1273694 5.5964594 23
-0.78409541 1.3774391 5.4144697 14
-0.49360132 1.3741595 5.485918 10
-0.24176295 1.3359678 5.4820261 10
-0.12864991 1.3513753 5.5828285 13
0.31731316 1.2919431 5.520843 12.833333
0.53273636 1.2622859 5.4740276 16
0.73765582 1.3665771 5.5230999 12
1.158837 1.243693 5.5511894 16
-0.8586517 1.5134237 5.5064645 12
-0.43084264 1.4036862 5.4371872 11
-0.11542853 1.5165342 5.5303092 14.333333
0.19931172 1.4187387 5.5121641 12
0.28999344 1.5069531 5.4561901 16
-0.7118811 1.7155023 5.5064111 16.333334
-0.40489411 1.7209015 5.4767184 15
-0.39361244 1.6390078 5.4280624 21
-0.081885353 1.7927244 5.4180136 14.5
0.16193239 1.7655385 5.4862704 22
0.52153921 1.6804006 5.5348411 20.5
-1.1244923 1.9141927 5.4768372 13
-0.44947833 1.806002 5.5822606 13.5
-0.070830896 1.861624 5.4255214 23
0.43530178 1.9192337 5.5610714 16
-1.0079085 2.1708379 5.4148302 16
-0.77487737 2.0985198 5.4679546 15.5
0.15258349 2.007714 5.5623727 14
0.055478558 2.2263904 5.5488715 15
0.32103881 2.3291366 5.5260687 19.5
3.9806542 2.3754802 5.5913386 17
-0.77991271 2.4602864 5.4424067 16
-0.49177268 2.4556026 5.4592586 18.25
-0.37227997 2.4698758 5.5512347 21.5
0.33213356 2.5953748 5.5175567 22.5
0.49138099 2.4773784 5.5336952 18
0.60926753 2.574563 5.5914249 20
2.9356272 2.4515867 5.4532585 21.5
3.9148722 2.4727952 5.4146824 18.5
4.0437751 2.5047154 5.5598302 22.5
0.7649225 -0.25752449 5.6428471 2
0.85324228 -0.23816508 5.6366796 3.25
1.2172837 -0.35960725 5.6544247 0
0.35975844 -0.025993116 5.6065331 4
0.97546339 -0.00049744546 5.7155471 5
1.1173534 -0.11197094 5.6510959 4.8333335
1.2811326 -0.13402073 5.657248 3.6666667
1.4659587 -0.090380646 5.7244859 4.6666665
0.34185457 0.1483883 5.7721963 3
0.79101229 0.042197466 5.6489973 4
0.88373601 0.10575203 5.6991167 7.0999999
1.1210636 0.063000306 5.7321396 5.5
1.3178922 0.038615614 5.718935 6.5
1.479352 0.13046429 5.7405553 6
1.784626 0.094244793 5.7479868 6
0.2485428 0.29550824 5.7407937 6.3333335
0.72391206 0.33047745 5.7047591 7.3333335
1.1030747 0.27909732 5.7127905 7.375
1.354596 0.22394581 5.7218361 9
1.5030048 0.27646703 5.7640271 9.5
1.8195382 0.26264727 5.7282934 7
0.097640142 0.4988552 5.6840105 8
0.27243331 0.48429695 5.6369457 6
0.4520672 0.48473531 5.6938281 12
0.7774986 0.55712283 5.7020378 6.5
0.82075155 0.49288744 5.7174768 12.5
1.1270192 0.52054191 5.6803188 12.75
