# .PCD v0.7 - Point Cloud Data file format
VERSION 0.7
FIELDS x y z intensity
SIZE 4 4 4 4
TYPE F F F F
COUNT 1 1 1 1
WIDTH 276
HEIGHT 1
VIEWPOINT 0 0 0 1 0 0 0
POINTS 276
DATA ascii
9.4488382 0.99042356 -12.133755 4
9.3872147 1.3210826 -12.171896 5
4.5437951 0.49180827 -3.2107167 5
4.4829259 0.31120223 -3.0618055 4
4.5191116 0.72251958 -3.1256452 6.5
4.4870896 1.5668211 -3.0037458 12
4.4621172 1.8470618 -2.9683681 13.5
4.4421692 2.1748841 -2.8680344 15
4.4085855 2.4505854 -2.9262588 17
4.3795853 2.7171085 -2.8762724 18
4.3673453 2.3252132 -2.7098768 16
4.3278422 2.44858 -2.5846629 17
4.2664638 2.6771834 -2.4693394 18.5
3.9565363 0.186701 -2.2621086 4
3.9824224 0.3045859 -2.3049092 5
3.9763713 0.56202239 -2.293016 6
3.9850008 0.70309269 -2.2755253 7
3.9545286 0.81798506 -2.2003059 8
3.9364507 0.1281524 -2.1574633 3
3.9474535 0.96823245 -2.1414607 9
3.913403 1.4692736 -2.0723352 12.5
3.9064906 1.6840795 -2.0646245 14
3.8922453 1.9052463 -2.0044796 15.5
3.9059684 0.46807021 -1.8498731 6
3.8652623 1.9924148 -1.9954681 17
3.8620343 2.1582906 -1.9907486 18
3.8439054 0.12142587 -1.7540021 3.5
3.8077123 0.30301943 -1.7416369 5
3.8358023 0.67930973 -1.684129 7.5
3.8396935 0.91023886 -1.6962105 9
3.7621434 2.3798053 -1.7721666 19
3.7885282 1.2865313 -1.5662446 12
3.7981832 1.523898 -1.5566208 14
3.8015742 1.4433025 -1.583573 13
3.7455337 1.6903846 -1.4591398 15.5
3.7673793 1.8809159 -1.4304368 17
3.7216132 2.3063664 -1.4716015 20
3.6984379 1.9551613 -1.3305825 18
3.6746721 2.144763 -1.2691438 19
3.6278565 2.2696342 -1.2557061 20
3.6555104 2.4373274 -1.275364 21
3.6243131 2.6672006 -1.2718745 22
3.3606093 0.26566145 -1.1037585 5
3.3150039 0.43517774 -1.0684121 6.5
3.2372472 0.10963528 -0.9451558 3.5
3.229032 0.5934341 -0.90353721 8
3.2442002 0.64361787 -0.91690058 9
3.2150381 1.0469253 -0.73887908 12.5
3.2078836 1.2525043 -0.7444787 14.5
3.1601062 1.4778376 -0.6847567 16.5
3.1715963 0.91282403 -0.50756615 11
3.1366675 1.7099092 -0.5768261 18.5
3.0178359 1.8667526 -0.32161015 20.666666
3.0970008 0.78261399 -0.1939397 11
2.9252234 0.080663599 0.063397951 3.5
2.7657921 0.22238234 0.15734233 5
2.9020007 0.44668311 0.075650148 7
2.9666643 0.71576297 0.032758392 10
2.943562 0.9064188 0.10135968 12.5
2.9404361 1.1340762 0.14489512 14.5
2.9308214 1.8041803 0.01737622 21
2.873862 2.0022542 0.036374576 22
2.6887696 0.11374762 0.32740346 4
2.7272713 0.30683297 0.27949488 6
2.7101414 0.52594119 0.28480795 8.333333
2.7383919 0.69113809 0.29137129 10.333333
2.7417715 0.88319689 0.33384734 12.5
2.8941693 1.3280289 0.23006247 16.5
2.8131208 2.0844972 0.20515616 23
2.4198425 0.14163901 0.57126588 4
-0.95714921 0.27937829 0.40691695 11
2.441406 0.23542328 0.56066543 5.5
2.5990009 1.1942539 0.57325143 16
2.6120317 1.0471513 0.57710099 14.5
2.7584376 1.5900031 0.53018779 19
2.805985 1.4794545 0.43358359 18
2.7493534 1.7156907 0.51813412 20
2.3422501 0.32256043 0.70626646 6.3333335
2.3690691 0.46491155 0.66710591 8.5
2.3854589 0.7012592 0.67622906 11.5
2.4035103 0.62125784 0.69046187 10
2.3765771 0.81578994 0.73721141 13
2.563386 1.2728717 0.68138593 17.5
2.6346376 1.8735522 0.78089297 22
2.6775038 2.0113883 0.60019153 23
2.326431 0.91046947 0.8548587 14
2.3303144 1.0880226 0.86118573 16
-1.5203501 0.50361729 1.1977887 11
2.188236 0.91691881 1.0381912 14.5
-1.4798622 1.0814503 1.1661781 19.5
2.1739156 1.0712938 1.1331594 16
-1.5297222 0.13406296 1.3207531 4.5
2.0286274 0.0096187508 1.3134609 3
-1.5467799 0.31033522 1.3347955 7
-1.557024 0.46606877 1.3298801 9.5
-1.5475947 0.79491812 1.3731624 14
-1.5211242 0.9613477 1.2881869 17
2.0380969 0.99610853 1.3825457 15
-1.5070391 1.1548157 1.3818811 19.5
2.0925033 1.0564876 1.2865483 16
-1.4617102 1.3045915 1.2859674 22
2.270606 1.3654664 1.2297361 18.5
-1.5357759 0.10462701 1.4431686 4
1.9425814 0.1150514 1.4238074 4
-1.5611327 0.28287536 1.4644681 6.5
1.8787251 0.39580634 1.5106729 8
-1.5633148 0.54300606 1.4316819 10.5
1.8763635 0.5911634 1.5356349 10
-1.55782 0.7200675 1.4733764 13
2.044997 0.77225912 1.4092242 12
-1.5590023 0.8511591 1.4373443 15
1.9647989 0.92432964 1.5200937 14
-1.5216529 1.0278749 1.4066613 17.5
1.8058884 0.55801678 1.7929404 9
1.8668529 0.72774065 1.7104585 11.666667
1.8802266 0.84375113 1.6888611 13
1.7743958 0.11890364 1.8033532 4
1.7820184 0.3512218 1.8175077 6.5
1.7679942 0.43487868 1.804105 8
1.8264079 0.61852312 1.8053447 10
1.8792101 0.90951616 1.8985199 13
1.9174033 1.0908446 1.9049268 15
1.8806819 1.2477524 1.9458139 17
2.0425756 1.5858068 1.8070474 20
1.9816315 1.7092944 1.9790754 20
1.74754 0.13512141 2.1171143 4
1.7688661 0.39180642 2.0315528 7
1.7610136 0.5344432 2.1074262 8.666667
1.8232455 0.73832721 2.0685496 11
1.8199595 0.9450357 2.0883648 13.5
1.8553076 1.0650802 2.0209644 15
1.9798125 1.5239837 2.0201621 18.5
1.9239533 1.7831076 2.0741119 21
1.691324 0.14378397 2.2395146 4
1.6913524 0.28795919 2.2296221 5.5
1.6763852 0.46438688 2.2408156 7.5
1.695035 0.69151115 2.2768843 10
1.7357429 0.9442398 2.3757451 12.5
1.8210425 1.2752725 2.2586958 16
-2.0466886 1.5433133 2.3368764 18
-2.0139678 1.7373239 2.3014171 19
1.828684 1.6363277 2.2939429 19
-2.0100944 1.8292297 2.3524225 20
-1.9907115 1.9092865 2.3270125 21
-1.9424518 2.0006373 2.2723408 22
1.6471347 0.1291654 2.4785936 3.5
1.6822728 0.65231079 2.4057298 10
1.753796 1.1363485 2.4072537 14
-2.0784914 1.3782899 2.4445255 16
-2.0518889 1.5385963 2.4158461 17
1.7375524 1.4369485 2.4138026 17
1.6138049 1.7343683 2.5595174 20
1.5631552 0.014449485 2.7239475 3
1.4306872 0.819713 2.9424567 10
1.402542 1.336875 2.8599966 15
1.2005591 1.7244182 2.9930773 19
1.2170534 0.63336003 3.0982854 9
1.2174861 1.451672 3.046268 16
1.1979197 1.7118061 3.0619504 18
1.2006267 1.6161294 3.0672998 17
-2.3658988 2.7896988 3.1233115 23
1.0161148 0.13037394 3.3116353 4
1.0338522 0.30202341 3.2671008 5.5
1.032822 0.53565425 3.3256638 7
1.0731788 0.96889955 3.2506614 11.5
1.032066 1.2369976 3.3616767 13.5
-2.5118985 2.6894295 3.2928472 21.5
0.87877315 0.25237885 3.5979276 5
0.90677232 0.50083578 3.5427358 7
0.93747622 0.72361016 3.5308337 9
0.95024306 0.83931166 3.473114 10
0.93711519 1.0182326 3.5599732 11
1.0045689 1.5281972 3.5028691 15
1.0227771 1.6548871 3.470114 16.5
0.88906473 0.17732134 3.6094878 4
0.9072957 0.56003535 3.6083586 7
0.97428805 2.5975947 3.7740588 22
0.98511767 2.290992 3.8200669 20
0.90234035 2.430064 3.8987346 20.5
-0.24831961 2.7447205 3.8964574 23
0.81564623 1.8729348 4.1114669 16.5
0.81134522 2.0838101 4.0771151 18
0.80054814 2.2462316 4.0385623 19
-0.27103513 2.6117926 4.0825863 21
0.00013472341 2.6835046 4.0742502 22
0.010214875 2.5950375 4.2306128 20.5
-3.565515 -0.20920342 4.555191 1
-3.7209599 0.26077458 4.563827 4
-3.7221353 0.46407446 4.5542612 5
-3.7221711 0.74024916 4.5696383 6.5
-3.734194 1.0875798 4.5742278 8.5
-3.7013857 1.4954107 4.5551825 10.5
-3.7053244 1.687905 4.5417085 12
-3.644949 1.8579888 4.5389524 13
-3.6688554 2.187252 4.5735173 14
-3.4535284 1.2754308 4.6642761 10
-3.3386867 2.0409241 4.7760954 13
-3.0867333 2.593518 4.7652879 16
-3.2373633 2.6299648 4.7173772 16.5
-2.5330868 0.39750025 5.0914941 5
-3.0186703 0.55387336 5.0221982 5
-2.9827359 0.56268281 5.0341005 6
-2.5787408 0.63023394 5.114028 6
-2.8077698 0.90889299 5.126812 7
-2.6640434 0.92609817 5.1324544 8
-2.5333862 0.83579969 5.0438576 7
-2.3403668 2.3691707 5.323359 15
-1.9039028 2.6985891 5.3749833 17
-2.0229239 1.6428952 5.5114107 11
-1.7315156 2.1649923 5.5409513 14
-1.7249024 2.3630741 5.5654526 15
-2.0218554 2.5466421 5.5039673 16
-1.689446 2.5231228 5.6204071 16
-0.71280324 0.46491417 5.9885492 5
-0.98159271 0.99354327 5.8952484 8
-0.75576538 0.9767341 5.9988346 8
-1.0708086 1.3247155 5.9165983 10
-0.91920578 1.5807488 5.9658127 11
-1.1712265 1.6949456 5.8449988 12
-1.2929922 2.2116566 5.8365693 14
-1.279889 2.4618931 5.8167167 15
-0.66050154 0.89991224 6.0438066 7
-0.71428847 1.3524005 6.1248069 9
-0.52894074 1.3149605 6.1521373 9
-0.72833097 1.5520365 6.1521735 10
-0.72712731 1.8347028 6.1766114 12
-0.79996043 2.1620989 6.1769881 13
-0.55553907 2.5655205 6.1415553 15
-0.30082488 0.14680336 6.303401 3
-0.38502824 0.30360553 6.2147274 4
-0.51287788 0.78177524 6.2068453 6
-0.29894674 0.69773811 6.2721019 6
-0.34622768 0.96829104 6.2653222 7
-0.16228327 0.9640739 6.3966208 7
-0.40397078 1.1998938 6.366837 8
-0.49661681 1.4045472 6.2326798 10
-0.34546012 1.4026345 6.3921313 9
-0.62657899 1.7398478 6.2361183 11
-0.55326426 1.8814427 6.2229967 12
-0.38250101 1.8002043 6.3259439 11
-0.59509492 2.095355 6.2193799 13
-0.33569062 2.0422499 6.3936696 12.5
-0.82690996 2.3133061 6.2470269 14
0.020851789 0.23260495 6.5189085 4
-0.13290606 0.50212097 6.4621606 5
-0.10261021 0.63236201 6.5029721 6
-0.030976769 1.0549875 6.5742183 8
0.00014967119 1.3927242 6.5738111 9
-0.031328879 1.4775838 6.588089 10
0.28919914 0.45871085 6.7466764 5
0.052780159 0.87172472 6.6430521 7
0.27873722 1.1416389 6.7628856 8
0.35216531 1.3216629 6.7269654 9
0.18216768 1.6103833 6.7206316 10
0.053104445 1.9515948 6.6652532 12
0.20270324 1.9079384 6.7080631 11
0.084973745 2.285815 6.6928883 13
0.031904124 2.4323809 6.6812558 14
0.46530548 2.5108564 6.6651855 14
0.44693106 0.35387406 6.8479438 4
0.71565521 0.48888326 6.9097714 4.5
0.52425557 0.94175857 6.8770218 7
0.74718201 0.89208031 6.9112649 6.5
0.77154404 1.2819699 6.9272289 8
0.7291283 1.4222332 6.9232945 9
0.69549042 1.727652 6.9169874 10
0.74348611 2.0924649 6.8748193 12
0.52365649 2.3878374 6.8566971 13
0.72803539 2.3769019 6.9215765 13
1.1676216 1.093855 7.1854868 7
1.0245421 1.8374531 7.189168 11
1.212925 0.5518232 7.2714686 5
1.1966345 0.89757031 7.2763944 6
1.1754709 1.181571 7.2152867 8
1.1665099 1.4111494 7.2759953 9
1.162236 1.7370775 7.2530293 10
