# .PCD v0.7 - Point Cloud Data file format
VERSION 0.7
FIELDS x y z intensity
SIZE 4 4 4 4
TYPE F F F F
COUNT 1 1 1 1
WIDTH 868
HEIGHT 1
VIEWPOINT 0 0 0 1 0 0 0
POINTS 868
DATA ascii
2.358037 1.7703018 -1.1032692 3
2.4169896 1.725482 -1.1020211 3
2.3704798 2.0051842 -1.0181946 5.5
2.4363017 2.1042228 -1.1206719 9
6.2607927 3.0532737 -1.0421783 8.5
1.7134639 1.3349736 -0.85491562 12
2.1033273 1.7018268 -0.92147064 4
2.097815 1.8856294 -0.89071417 5
2.3614991 2.1505616 -0.94909632 7.5
2.3296773 2.3460958 -0.85718024 9
2.1265032 2.7918484 -0.85775363 13
6.2638617 3.3034253 -0.93607795 10
1.7333331 1.1765976 -0.61877477 11
1.8994849 1.3294427 -0.6491859 11.5
1.2434878 1.5621564 -0.69204628 21
2.36444 1.9663036 -0.68036151 6.5
2.327774 2.4818854 -0.79963672 10.5
2.3300281 2.6984472 -0.67574489 12.5
2.4422121 2.762028 -0.66402495 17
2.0569961 2.9147413 -0.76678884 14.5
2.2287412 2.8320496 -0.66473877 14.333333
2.1449842 3.2539811 -0.63596094 17
2.0164857 0.94588417 -0.46289921 7
1.3738364 1.2746689 -0.56161761 17
1.3679289 1.4092083 -0.5261271 19.25
2.3102331 2.3590012 -0.51421356 11
2.2878032 3.1218083 -0.5176419 17
2.2714589 3.2040832 -0.47234118 18
2.2387419 0.87881845 -0.35314584 4.5
1.9969089 1.1541423 -0.30501473 10
1.8534639 1.2795043 -0.32149452 10.833334
2.1306195 1.2490964 -0.34747624 10
2.2185798 1.2757014 -0.20577586 11
1.9013147 1.5045402 -0.33311546 13.5
2.0456636 1.509981 -0.28076196 11
2.3474731 2.5748851 -0.37761378 13
2.3215864 2.6958077 -0.32809258 14
2.2904196 2.8495433 -0.273458 15
-1.7072632 -0.11741897 -0.057660103 7.25
-1.7266743 0.0031382702 -0.124735 8.5
2.1201611 1.0692466 -0.18849361 8.25
-2.7652783 1.3450236 -0.18887152 20
2.3659351 1.2127314 -0.010041952 9
-2.7604015 1.5239316 -0.14883024 21
1.6854477 1.4950223 -0.025390625 20
2.0139642 1.5393708 -0.027270436 16
1.6388769 1.6427372 -0.021578312 22
-1.6203084 -0.3127552 0.056374788 5
-1.6839294 -0.13868861 0.048572958 7
-2.4648554 0.15641694 0.16512482 4.5
-1.7005004 0.15192913 0.11478704 11
-2.4568162 0.24499232 0.15660305 6
-2.4483118 0.41218525 0.18492697 8
2.2056584 0.61221373 0.18485904 3.5
2.4805331 1.0722113 0.12665492 7.5
2.1888967 1.3783206 0.10928655 13.5
2.5945697 1.2445548 0.13333178 4
2.123899 1.5012145 0.14448568 16
4.0970674 3.8718071 0.10849887 19.5
4.2055087 3.8515918 0.15083694 19
-1.5145042 -0.33807188 0.29432231 4
-2.1422653 -0.10715704 0.29884058 5.5
-1.5700455 -0.12788078 0.2772916 7
-2.3938484 0.022601753 0.37188828 3
-1.5971529 0.023407776 0.2806251 9.5
-2.4401729 0.49118748 0.25596866 9
-2.401664 0.63433754 0.3063302 11
2.4590759 0.94948339 0.29387695 5.5
2.5451241 1.0680807 0.21210879 7
2.4318647 1.4617331 0.32354152 11
1.8585503 1.6641998 0.38689691 21.5
-2.0915785 -0.21524358 0.43339303 3.5
-1.2323707 -0.20436943 0.46767795 3
-1.552968 -0.17385261 0.42949224 7
-1.5907178 0.12285095 0.4689813 11.5
-1.3455977 0.30623853 0.58113551 11
-2.1027219 0.53387374 0.5225389 13
-1.9472816 0.56047285 0.52532208 14.5
-1.3501134 0.43445718 0.59565502 13
-2.3351753 0.74005932 0.46776479 12
-2.078048 0.71004897 0.50980633 15.833333
-1.9592685 0.70684028 0.55186975 16.5
2.5538182 0.77586293 0.45743209 3
-2.3346386 0.89258587 0.45468304 14.5
-2.0284975 0.8559221 0.59446037 18
2.3289409 0.83751577 0.53182459 7
2.1465061 1.0839219 0.4374125 12
2.5149584 1.1259927 0.57413065 9
2.6521866 1.1554312 0.44556248 6.916667
2.0602391 1.3150043 0.51095569 16
2.4942503 1.2069049 0.585998 10
2.7025344 1.5751481 0.48978901 9.5
2.8162544 1.4221873 0.58162844 8
2.1942303 1.7643682 0.54903054 19
2.2585957 1.6604896 0.53863263 18
4.9253044 3.0207953 0.51353967 14
-1.3955274 -0.21857709 0.68893492 6
-2.0620716 -0.015316527 0.66428125 6
-1.7513785 -0.096286088 0.62280899 9
-1.4489043 -0.12697305 0.6840902 7.5
-1.5286067 0.11037246 0.64000273 11
-2.042093 0.29202545 0.74778819 10.75
-1.5221868 0.33757731 0.76596653 15
-1.5419273 0.414675 0.76539797 16
-1.9784784 0.67039204 0.71223354 15
2.4404266 0.67707056 0.75397974 4
-2.2373042 0.98006451 0.60951918 16
-2.1980038 1.1008875 0.70500642 17
2.2432048 1.0592508 0.67326701 11
2.5901718 1.0746257 0.6922105 8
2.6988113 1.0933595 0.71001059 5.8333335
2.1605146 1.2851933 0.7373668 15
2.5620606 1.27174 0.76843065 10.6
2.9192426 1.3672036 0.6972754 6.75
2.0141881 1.5862625 0.66816652 19.5
2.7832432 1.581822 0.66046965 10
2.4057574 1.8299924 0.70450217 18.5
4.8705597 3.1440382 0.61180604 15.5
-1.9973192 0.53247148 0.8552168 14
2.4963157 0.66783434 0.95388073 3
2.3143563 0.9849208 0.81195176 10
2.4234924 0.87669486 0.91373962 7
2.7268915 0.87087333 0.9153021 4
-2.0815423 1.0752009 0.99613637 17
2.3676553 1.0319197 0.88665569 10
2.7128615 1.0772402 0.88619196 6.75
-2.10062 1.2094041 0.91535187 18
2.0904608 1.3547828 0.81446207 16
2.3129535 1.2597232 0.98320413 13
2.5443182 1.3981788 0.80877179 12
2.1126826 1.4498529 0.84917259 17
2.4937468 1.4838548 0.9875052 14.25
2.9421523 1.4491301 0.81171244 9
4.2472162 1.6411304 0.95727038 7.6666665
-1.804781 -0.20804609 1.1091372 3
-1.1632421 0.10811432 1.071329 11.5
-1.9281292 0.59227228 1.0442079 14.333333
-1.864508 0.92668003 1.1194174 18.333334
1.4824362 0.88653588 1.1914327 15.5
2.9066641 0.9740262 1.1555858 4
2.9086564 1.0848422 1.1620884 6
2.2410836 1.3371511 1.0644283 15
2.6074142 1.294667 1.0079967 11
2.1445453 1.4352872 1.0526223 16.5
2.4422052 1.6315995 1.0021831 16
4.227819 1.7694705 1.0201167 9
4.1367445 1.9376206 1.1511712 11
-1.8179929 -0.1638329 1.2823131 4.25
-0.97219765 0.12232485 1.2626266 12
-1.786244 0.38133034 1.30583 11.25
-0.93971449 0.23966937 1.3627483 14.5
-1.7382245 0.86351222 1.3815914 17
1.4863796 0.86299223 1.3079637 15
1.4531159 1.0406688 1.272665 17.5
4.1137486 1.9686518 1.3018982 12
4.1026654 2.1434016 1.2151575 13
4.0643578 2.3534601 1.3048321 15
4.0131636 2.5164649 1.3876867 17
-0.78639978 0.11981048 1.5159938 11.5
-1.6326928 0.33725357 1.5988079 10
-0.81342107 0.24232352 1.5327284 14
1.5540235 0.29075405 1.4387376 6
-1.7540749 0.54597437 1.4615223 13.5
1.5439066 0.49594125 1.4542156 9
-1.689052 0.75736994 1.474063 16.25
-1.8267368 0.92633009 1.5498242 15
-1.7097468 0.89235175 1.5183995 16.25
0.13423878 0.90094572 1.4424665 7.75
1.6797168 0.99249727 1.4350404 15.5
3.4212878 0.92856634 1.5830127 3.25
-1.8095458 1.0077951 1.5276053 16
1.6356702 1.1127881 1.4294159 17.5
4.0603375 1.5377252 1.5615399 8
4.0627503 1.6363714 1.5741329 9.5
4.023747 1.858964 1.5914073 11.5
4.0347557 2.0779974 1.4499764 13.5
4.0260067 2.2686155 1.4686087 15.5
3.9871733 2.4815898 1.5338433 17.5
3.9211237 2.6926806 1.5944688 20
-0.68130094 0.22999179 1.7369211 13.5
-1.6132417 0.52017772 1.6288395 12.333333
-1.4921778 0.50138152 1.7673986 13
1.775147 0.51458007 1.6442416 7.75
-1.6718642 0.68548101 1.6755875 12.75
-0.10861716 0.7357887 1.7152129 6.5
-1.737735 0.80672473 1.7295674 13
3.2964094 0.89266658 1.7487903 4
3.4270418 1.1030211 1.6353624 6.5
3.4317875 1.2427204 1.6626452 8
4.0102048 1.7640746 1.6621699 11
6.3155193 1.8530793 1.6614395 4
3.9999082 2.0456042 1.7011596 13
3.9364524 2.2264068 1.7642188 15
3.8539891 2.6674263 1.7581234 20.5
3.838614 2.8056679 1.7391322 21.5
6.1842766 3.409462 1.6888015 12
5.8717933 3.7002978 1.6673884 13.5
-1.4535234 -0.22502165 1.8148046 2
-1.4146724 -0.11942601 1.9671791 4
-1.387675 -0.092694342 1.9176207 4
-1.6715876 0.0062956288 1.8296084 2
-1.5072461 0.12222436 1.9782799 6.1666665
-1.5285423 0.31521159 1.894088 8.625
-1.3260638 0.24961022 1.9179373 13
-0.2859714 0.22567739 1.9383203 9.5
-1.6728872 0.55754292 1.843643 9.5
-1.5675619 0.40859917 1.9007243 9.75
-0.18402874 0.79672968 1.8085799 7.5
3.2282922 0.7407043 1.8273704 1
3.310308 0.90769237 1.9509772 4.6666665
-1.4041846 1.0188032 1.8783838 19
3.2504449 1.1556427 1.8935629 9
3.2179999 1.2641389 1.9665365 11
3.3453155 1.4734485 1.8482776 12
3.3368502 1.6770781 1.8947147 15.25
6.2907147 1.7279205 1.8016605 2
6.1589222 2.0638885 1.8191214 5
3.8293183 2.2077205 1.9892786 16
3.7367389 2.8723037 1.8941615 23
-1.2033373 -0.20751891 2.0572603 5
-1.6060492 0.17012459 2.0231397 5
-1.585632 0.061148435 2.0149622 3
-0.21339691 0.17224595 2.0494599 8
-0.16622384 0.10861409 2.107918 6.3333335
-1.1880341 0.41895714 2.0686045 14.5
-0.80665445 0.5241347 2.1700981 4.5
-0.72701508 0.70146704 2.1212964 6.75
3.1896772 0.73105347 2.0207176 3
3.1183991 0.86349273 2.161509 5.25
3.1626973 1.0401795 2.1571512 9
3.2823792 1.0607758 2.0211186 7
3.2279105 1.2994766 2.1370711 10.583334
-1.8487394 1.4783288 2.0512691 21
3.1627543 1.4856483 2.0964026 14.75
5.8911324 1.483048 2.1647954 2
3.2564659 1.7232682 2.0423098 17
5.870522 1.7939885 2.0538864 4
3.7734227 2.3653204 2.0768127 18
-0.9453218 0.38594347 2.3828194 3.5
-0.8665235 0.44007164 2.2425435 3
-0.59375376 0.41516408 2.2734041 14.5
2.9316664 0.63001567 2.3614602 3.5
3.0535808 0.67743146 2.2590737 3.5
-0.88261724 0.85330939 2.3085568 10.5
2.9866161 0.85483611 2.3471358 7.5
3.0630503 0.97397166 2.287508 8.5
-1.8418558 1.1715208 2.3539839 18
-0.82842815 1.084957 2.3974988 14
2.999753 1.0542767 2.3876212 10.5
3.0564744 1.0349082 2.287827 8.5
-0.75266761 1.2764552 2.3454313 16.75
-1.7999079 1.4189732 2.2219985 19.5
-0.64798832 1.4774094 2.2545524 19.5
2.9298654 1.5372822 2.3526938 16.5
-1.772321 1.6943686 2.3488185 20
2.8868182 1.6344204 2.3755219 18
5.3863134 1.6625376 2.3359942 4.5
5.1176491 2.6203432 2.387013 10
-0.61303329 0.15936621 2.4217465 9
-0.61181939 0.20218883 2.4202833 10
-0.52346551 0.25831416 2.5302784 10
-1.0826126 0.50996631 2.4612768 6.125
-0.53698128 0.51580471 2.563745 14.5
2.6521008 0.55073905 2.4966388 3.3333333
-0.93718958 0.70116109 2.5071034 8
-0.61495751 0.66714036 2.4834509 17.5
-0.54739267 0.61135215 2.5446193 16
2.773226 0.72609472 2.4671254 6.666667
2.9471343 0.74538928 2.5209212 5.75
-1.5992684 0.82029569 2.4457152 13.5
-1.0063691 0.98683798 2.496974 13.5
-0.91360569 0.81861019 2.4965625 10
-0.65788001 0.85937965 2.4970036 20.5
2.7549062 0.91696453 2.5832081 10.5
2.9877379 0.94621015 2.4893112 8
-1.629967 1.0390754 2.4727004 15.5
-0.94858027 1.0794787 2.5160897 14.666667
-1.7328053 1.2779406 2.509506 17
-0.84064496 1.2210035 2.5424685 16
2.792805 1.2359209 2.4869962 15
2.935092 1.339167 2.5319741 14.5
3.0144773 1.2524395 2.4276352 13.5
4.8495059 1.3464582 2.5489101 4
-1.709496 1.5274159 2.464433 18
-0.73076737 1.4861467 2.4385231 20
2.9533336 1.5452127 2.4941087 18
4.8222895 1.4969146 2.5380187 5
5.4186254 1.4246948 2.4197931 2
2.9737439 1.7041039 2.4140127 20
4.7502012 1.7361763 2.5685723 6
5.2552409 2.0980957 2.4266245 7
-0.47653466 0.19959326 2.772166 8.5
-1.2749926 0.31565738 2.7236338 4.5
-1.080616 0.35940132 2.6124766 4
-1.2992454 0.4541584 2.7944133 6.5
-1.0743046 0.58603668 2.633713 7
-0.41766721 0.53797388 2.7331476 14
2.1996479 0.41251537 2.7861962 4
2.2914224 0.43397781 2.73737 3.5
2.4123511 0.50632405 2.6322753 4.4000001
2.6150651 0.53082466 2.7404313 4
-1.0959574 0.72913462 2.7068112 9.666667
-0.46773642 0.74294233 2.7296333 17
2.3858914 0.71082348 2.7765856 9.375
2.5390201 0.6649965 2.6142907 7
2.795804 0.766276 2.6889994 7
2.8046238 0.7599802 2.696723 7
-1.5859106 0.90869379 2.7456617 11.5
-1.160418 0.8944661 2.7142267 12.5
-0.5233047 0.91575551 2.6575904 20.25
-1.6398749 1.101306 2.6362803 13.5
-1.5017805 1.0816258 2.6167655 16
-0.9847362 1.1211457 2.6674042 15
2.8538406 1.1867924 2.7211437 13.75
-1.6157492 1.2211523 2.7734594 17
-0.94785404 1.3367605 2.726263 17.5
2.8309 1.3831508 2.6236701 16
4.8019152 1.3293495 2.6418939 2
-0.89233685 1.5291564 2.7454329 20.5
2.8508501 1.5281385 2.6591613 18.833334
-1.5645818 1.6758071 2.6393437 19
2.8339756 1.7839162 2.6089103 22.5
4.6965017 1.7904582 2.6567779 7
-1.4476414 1.8818649 2.7099638 20.666666
4.6445661 1.948482 2.608634 8
4.4933796 2.058583 2.7401123 9
4.4290724 2.2065277 2.7467272 10
4.4032497 2.4412253 2.7179365 11.5
-1.3630323 -0.091851026 2.8252647 3.5
-1.5011593 0.11024614 2.8025711 3.5
-1.3704259 0.04678471 2.8166132 5
-1.5200058 0.33917499 2.8107462 5.5
-0.37477311 0.23309971 2.8866835 8.5
-1.5065053 0.51369935 2.8854661 7.5
-1.3771203 0.48063403 2.9323514 9
-1.1419148 0.57229555 2.8216255 7
2.1741581 0.44802767 2.9287887 4.666667
2.2989395 0.4754242 2.9063115 5
-1.4889624 0.67964965 2.8414297 10
-1.1154022 0.67021978 2.8417993 9
-0.14808342 0.68498385 2.8165572 15
2.2576549 0.6980018 2.8842282 10
2.5130599 0.76017708 2.893764 9.5
-1.491631 0.81351644 2.851665 11.25
-1.2823523 0.8482039 2.8961935 12
-1.0793223 0.9366414 2.8444762 12
2.3439603 0.83374393 2.9350424 12.5
-1.6236525 1.0124711 2.8412795 15
-1.4665468 1.1212211 2.9627936 15
-1.235284 1.0623074 2.897296 14.75
-1.0645732 1.116891 2.8743863 15
2.5076914 1.046829 2.9072037 15.5
-1.2626159 1.3145459 2.9831161 16.5
-1.1806805 1.2353222 2.8724008 17
2.7299581 1.3032155 2.8428943 17.125
4.4785404 1.3569684 2.8995175 4
-1.252178 1.4982502 2.9741924 18
-1.3271208 1.6522703 2.908361 18.5
4.8489799 1.637074 2.8526528 6
4.3959861 1.8034098 2.8519893 7
4.5800381 1.8895969 2.9734099 8
4.7211132 1.8208436 2.8312685 7
4.4620452 2.2021334 2.9808121 10
-1.2381582 -0.13172495 3.0832829 3
-1.3157301 0.023292832 3.0608048 3.5
-1.452166 0.29774943 3.0181248 5
-1.2846441 0.28714561 3.0967205 7.5
-1.4185601 0.52708817 3.0404 8
-1.3113164 0.44603279 3.1235433 9
2.0337276 0.47983178 3.0809262 7.1666665
-1.5041325 0.71540129 3.1001372 11.5
-1.3937867 0.70909297 3.0645943 9.5
2.1243007 0.68542773 3.1478281 11.166667
2.6624031 0.7768082 3.0792379 7
-1.541126 0.82379293 3.0823298 13
-1.1308022 0.92232442 3.1935022 13
-1.4739351 1.0715194 3.0736628 15
-1.2063664 1.0886574 3.198554 13
-1.1301317 1.1433042 3.1596081 15
2.5819435 1.337425 3.0756867 18.5
-1.4503875 1.4711195 3.0688744 18.5
-1.2343872 1.5130448 3.0666931 17
-1.1967953 1.4868585 3.1065023 16
4.6544809 1.5704544 3.0567231 5.5
-1.4258463 1.6860558 3.0883174 20
3.7859004 1.8622867 3.1861608 10
4.1276278 1.8585219 3.101264 8
4.5876007 2.0049314 3.0090833 9
4.3395228 2.2020879 3.1076281 11
4.2704196 2.4409037 3.0322933 12
3.7606628 2.6569393 3.1790519 14.5
3.9849198 2.7572191 3.1879601 15
3.46768 2.8979137 3.1893802 16.5
3.9140341 2.957505 3.1897643 17
-0.94639188 -0.16678752 3.3737445 2
-1.3241277 0.25322437 3.2998581 7
-1.0034506 0.38122293 3.3273895 7.5
1.8710699 0.33003375 3.2939453 5.3333335
-1.0198393 0.59202063 3.3365819 9
1.9028256 0.47234079 3.3070312 8.166666
-1.3698078 0.75467032 3.3082533 11.5
-1.1250825 0.72105587 3.3245757 9
2.1699193 0.7302233 3.2079654 11.5
-1.0773251 0.97805601 3.3345797 11
3.688776 0.95261663 3.3846769 3
-1.1319658 1.1138115 3.2888751 12.5
-0.97189575 1.066312 3.3786275 13
3.9961128 1.1437383 3.2564344 4
-1.1022959 1.3144393 3.2400436 14.5
3.7133954 1.3482959 3.3854246 6
3.8562009 1.2394397 3.3934374 5
3.8488789 1.4712543 3.3597827 7
4.1874485 1.4785886 3.2389684 6
4.2253737 1.7694261 3.2660363 8
4.0360155 1.9629626 3.2099681 9
3.6734107 2.0850725 3.2739501 11
3.5111833 2.6433997 3.3898025 15
3.9995534 2.8539948 3.2221389 16
3.7292945 3.1944654 3.2864444 18.5
-0.86741871 -0.081688926 3.437721 3.5
-1.0722234 0.0052986071 3.4245129 2
-0.95187354 0.16600731 3.4734354 4.75
-0.98327965 0.32660341 3.4734244 5
1.7188783 0.22802615 3.4054365 4
-1.0033436 0.51181841 3.5913248 9
-0.99637932 0.51714462 3.4704211 7
1.8692642 0.46156642 3.410517 8.5
-0.96787018 0.70022357 3.4817107 10.5
1.9351165 0.65580833 3.472333 12.333334
2.024205 0.76060116 3.4076233 14
3.2128584 0.79343534 3.5804944 2
-0.99170905 0.91907364 3.4814329 12
2.0044889 0.84770715 3.4391522 15.5
3.2683387 0.98166716 3.5629091 4
2.0004785 1.1002185 3.5852013 19.5
3.2080054 1.1096656 3.5295706 5
3.1536705 1.2396219 3.5753608 6.5
-0.96359295 1.4178277 3.5393937 14.5
3.1614485 1.4889395 3.5870318 8.5
3.6343026 1.5828729 3.4638662 8
3.3777804 1.7706034 3.5810957 10
3.6671841 1.7942884 3.4515395 9
3.6769044 1.9302437 3.4580364 10
4.0811882 1.9295253 3.4356334 9.5
3.5939195 2.1063564 3.4680648 11
3.788136 2.1218612 3.4997094 12
3.9023812 2.0170455 3.5474381 11
3.7047818 2.3057606 3.4709849 13
3.5741675 2.5459099 3.4086294 14
3.1158454 2.7696328 3.5106702 17
3.2183945 2.6125088 3.5600348 15.5
3.2028639 2.9277601 3.4577522 17.5
3.6259496 3.1420732 3.5118639 18.5
-1.0114584 0.17708719 3.6885815 6
1.5949696 0.11407667 3.7387571 4
1.6982465 0.19878185 3.6074576 5
-1.0020242 0.33177066 3.6223435 7
-1.0206634 0.40235958 3.6627827 8
1.7450833 0.56054437 3.6830416 11
1.6637335 0.61939633 3.7745814 13
1.8028147 0.73812914 3.6941874 14
3.0239255 0.68682754 3.678617 3
1.7342159 0.80234015 3.7903004 15.5
2.9844537 0.87696296 3.6461453 4.5
3.154381 0.92873263 3.6597018 4
1.9744931 1.0973594 3.7280223 20
2.9149959 1.0896163 3.6611669 7
3.0937858 1.0338501 3.6186171 5
1.8872263 1.2180064 3.7240629 22
2.8655965 1.2875071 3.6351948 8.5
2.9617646 1.5633564 3.7252765 9.5
3.3966959 1.5175183 3.6839528 8.5
3.1370981 1.6396394 3.6202421 10
2.8577039 1.9181583 3.7849817 13
2.9672942 2.1172609 3.7715344 13
3.1207106 2.2615666 3.7398705 14
3.0830436 2.515435 3.7402151 15.5
3.191885 2.8075056 3.7792373 17
3.5607216 2.8031373 3.6535938 17
2.928607 3.0424299 3.6471858 19
3.2920353 3.107167 3.6611688 19
1.4122276 0.047087252 3.9685211 4
1.4404573 0.32768017 3.93224 8
1.5196714 0.50838357 3.9382694 11.333333
1.4938011 0.6560716 3.9759512 13
1.6206996 0.73558205 3.8612533 15
2.6413147 0.6233598 3.9019427 2
1.7604398 0.89829177 3.816123 17
2.6513755 0.83990419 3.892272 4.5
1.7170599 1.137593 3.8777406 20.5
3.7733171 1.0955242 3.8917766 4
1.6485273 1.2249835 3.932332 22
3.5997722 1.3730505 3.9237771 6
3.7877533 1.3817391 3.8050523 6
2.9244666 1.5933548 3.9737494 10.5
2.4010139 1.7236903 3.9987121 12
2.3401806 1.8521378 3.9942656 13
2.7075272 1.839551 3.8833649 13
2.9462264 1.8482827 3.8868165 12
3.0462737 1.9301121 3.8061113 12
2.7600107 2.3117304 3.9869759 15
2.8514845 2.3616092 3.8922603 15
2.7162704 2.4725847 3.8969514 16
3.1311631 2.4645901 3.9960191 16
3.3423219 2.4703438 3.8819308 15
2.5796535 2.8298337 3.841625 18
2.7815902 2.8715098 3.9398937 18
3.1190698 2.9513121 3.9267259 19
2.7150702 3.0338957 3.8531003 20
1.2640269 -0.024173856 4.0051188 3.5
1.1703013 0.14360331 4.1285367 6.3333335
1.2173561 0.12989065 4.1160059 6
1.4018927 0.19906431 4.0270925 6.5
1.1204123 0.34499761 4.1971107 9.333333
1.3455557 0.3042239 4.0729074 8.5
1.169831 0.43248975 4.1544228 11
1.2962275 0.56418014 4.131485 12.25
2.4501839 0.55832577 4.0397105 2
1.3049452 0.70680767 4.1516471 15
1.4150655 0.64811474 4.0479465 13.5
2.407011 0.69868219 4.0886908 4.5
1.3456857 0.89386296 4.0918641 17.5
1.5428193 0.88639688 4.0223079 18
2.3977647 0.91274178 4.0052958 6.5
1.3592739 1.1863372 4.1909418 22
1.4847739 1.0823256 4.0741324 20.5
2.3595531 1.0791407 4.0299301 7.25
1.4635649 1.2530401 4.0402308 22
2.1733885 1.7014575 4.1393514 12
2.2045968 1.7185678 4.1261735 13
2.122227 1.8473866 4.1183167 14
2.3255966 1.9820373 4.0413327 14
2.0289762 2.5070434 4.1196089 18
3.0705235 2.5837517 4.0482254 17
3.0459888 2.7152994 4.0650215 18
0.92663413 -0.010506868 4.3121352 4.5
1.0005007 -0.083519638 4.2070694 4
0.98329771 0.093598336 4.2894173 6.125
1.1204052 0.052733555 4.2747545 5.5
0.97652602 0.35310805 4.378828 10
0.977862 0.5095166 4.3833036 12.75
1.0443834 0.52164376 4.3592825 12
1.6883188 0.51017386 4.3365321 3.6666667
2.2747443 0.50479871 4.2033768 1
1.1039908 0.78178227 4.3404236 16.5
1.5712824 0.75188929 4.2642217 6
1.843179 0.7342521 4.3651848 5
1.1253462 0.99450517 4.3252301 19.5
1.582849 0.80363381 4.2909799 7
1.7963519 0.80807585 4.3787909 6
1.2162169 1.0289903 4.2782593 20
1.8305612 1.3439634 4.3212166 10
1.4065058 1.5723683 4.275425 14.5
1.405232 1.7567923 4.2669001 16
2.0788479 2.402945 4.253612 17
2.4042234 2.4814684 4.3765492 16
2.116607 2.6638331 4.3518248 17.5
2.2498207 2.707967 4.3094125 18
0.93637025 0.70363957 4.4246268 15
3.6424186 0.65423596 4.4832621 5
1.9058433 1.1333121 4.5615215 9
3.6314011 1.0670613 4.4913907 7.5
1.3921828 1.2470801 4.5584259 11
1.8951892 1.2992611 4.5826054 10.5
3.6174788 1.3985813 4.4883509 9
1.6040561 1.4272826 4.469914 11
3.3614321 1.7618678 4.5035348 11
3.6466279 1.6274326 4.5039282 10
3.347893 1.8006314 4.5756283 12
3.4649353 1.8860743 4.4668822 12
1.4846348 2.0029755 4.4327259 15
3.4077172 2.1671216 4.4759507 13
2.3049302 2.4788222 4.5191369 16
3.2158246 2.4488416 4.5785861 14
3.2102497 0.16760918 4.6607828 2
1.1253343 0.5917294 4.7670045 6
1.3147013 0.52999645 4.6291666 4.75
3.1827495 0.44492924 4.6643753 4
1.0809932 0.72027457 4.7177701 7
1.3742342 0.72599155 4.6307592 6.5
3.1253376 0.69481802 4.7163215 5
3.523628 0.67401904 4.6001525 5
3.6307812 0.70574194 4.7728734 4
1.0033944 0.84359622 4.7804284 8
3.3794632 0.93520927 4.6823454 6.5
1.1398349 1.0831201 4.6978388 9.5
3.0892851 1.1434804 4.7721024 8
3.6548786 1.0158789 4.7589111 5.5
1.192698 1.2639165 4.6793652 11
3.6275299 1.3315375 4.7822442 7
3.6164217 1.5580881 4.7410245 8.5
1.4195322 1.7722083 4.6295033 14
1.934579 1.6346185 4.689455 11
3.3573444 2.168222 4.7066092 12
3.3121002 2.3156984 4.6371331 13
0.98586357 2.5839632 4.7294879 20
0.95601994 2.6122327 4.6763406 21
2.593112 0.025526643 4.8803163 2
2.4931183 0.32381088 4.9673715 3.5
2.9042246 0.21190572 4.8996487 3
0.95351124 0.41339013 4.8521566 5
2.0981991 0.48115486 4.9963226 3.5
3.3381894 0.57777005 4.9238019 3
3.5042496 0.40149897 4.8971539 2
0.8932569 0.64448905 4.8773284 6.5
2.3979061 0.61216104 4.8805032 4
2.8348486 0.7351104 4.8610754 6
3.4818285 0.63610154 4.8365803 3
3.0681038 0.88633943 4.9067125 5.5
2.9093614 1.3323998 4.8505435 9
3.2123811 1.3845741 4.9478126 8
1.9057906 1.782825 4.9412508 12
1.7634871 1.915817 4.8043408 14
1.8364379 1.8913114 4.8640528 13
3.5689497 1.8462235 4.801476 10
1.246382 2.0948424 4.8712463 16.25
0.90392387 2.3945434 4.9575763 19
1.1108344 2.3550184 4.8565974 18.5
0.52503181 2.4498355 4.9470406 20
3.1721878 2.4296298 4.819335 14
0.083528399 -0.45990723 5.1523604 3
0.2534492 -0.4146145 5.0712843 3.5
0.20103729 -0.20920092 5.16676 5.5
2.1426651 0.007606633 5.189652 1
2.0481064 0.37636632 5.196517 4
2.2305014 0.29673466 5.0494943 2
2.4003835 0.2903696 5.1896243 2
2.9093969 0.25962505 5.0356603 2
0.46208316 0.5716114 5.048378 13
2.648128 0.47432995 5.1541409 3
2.3297465 0.73393553 5.1118169 6
2.7802835 0.72297281 5.1814718 4
3.0359106 0.7055949 5.0077567 4
0.69960099 1.0293142 5.1393819 9.5
0.69604671 1.3724689 5.1304274 12
2.842941 1.2555692 5.0178752 7.5
3.0802882 1.369617 5.0416322 8
0.60591865 1.5393671 5.1025834 13
2.295017 1.4430646 5.1744161 10
0.8115567 1.7203573 5.1268082 14
0.72274077 1.9793503 5.059186 15.5
1.0044538 2.0363634 5.0863318 16
2.3023658 2.1770382 5.1483607 14
2.9140637 2.0254006 5.0447469 12
0.34880984 2.4093978 5.0487986 20
2.3637652 2.407804 5.1881132 14
2.8450084 2.4900789 5.0473065 14
0.022821903 -0.24239272 5.2562513 5.5
-0.10607344 -0.082838178 5.3925209 7.5
0.050058842 -0.099247634 5.2766957 6.5
0.24437904 0.17553464 5.2471995 9
0.56516635 0.1592038 5.2558107 3.5
1.8042902 0.059121061 5.3837924 2
0.29415739 0.35338718 5.2656317 10.5
0.56685579 0.39808661 5.2284236 5
1.8047791 0.30386564 5.2971869 3
0.14481521 0.53928858 5.3661141 12.5
0.34520018 0.57636642 5.2874088 12.5
0.49974278 0.57867789 5.2687316 6
0.52628803 0.68690801 5.2002554 14
1.9206325 0.72289205 5.3728232 5
2.6224802 0.78029972 5.2809896 5
0.32665169 0.87616348 5.3477783 16
0.48820412 0.84066665 5.2532063 15
1.8662126 0.85048068 5.3917098 6
2.1580656 0.86823899 5.2093234 6
-0.31743506 1.1336917 5.3540492 11
-0.17112312 1.1793839 5.3682952 11.666667
0.36610115 1.0987533 5.3345265 18
2.2917566 1.0369248 5.2497692 6.5
0.34599692 1.3283181 5.3774247 19.5
0.49556929 1.2839354 5.2688169 11.5
-0.34136483 1.4377165 5.2723632 13
0.36100388 1.482348 5.3949795 21.5
0.4520095 1.5078096 5.2700472 13
0.97299391 1.5008099 5.3886743 12
0.26572213 1.7052126 5.3246794 14
1.0524538 1.6992395 5.2390308 13
1.9695646 1.7025099 5.3218656 11
2.1755533 1.6263473 5.3111496 10
2.2817426 1.7550595 5.3166337 10
0.2619718 1.8589954 5.2452421 15.5
1.9384652 1.8165308 5.3181767 12
-0.2188229 2.1730359 5.256114 18.5
0.27019152 -0.030300021 5.5070505 2
-0.11982399 0.12852123 5.4531527 9
0.71494472 0.11358783 5.5246792 4
1.2486768 0.0019953698 5.5870657 1
-0.1435383 0.22498074 5.4780049 10
0.27148896 0.25027359 5.4886417 4.5
0.75408411 0.27674323 5.49053 5
1.5032487 0.29281637 5.4388943 3
-0.19183403 0.49767143 5.5348659 13
0.081209436 0.57003468 5.5669107 7
0.70304817 0.50457358 5.51472 6
0.8538506 0.54073453 5.4878974 4.5
1.8701942 0.48056573 5.538095 3
2.0177796 0.54348737 5.4268646 4
-0.026360393 0.75067937 5.5992713 8
0.084242254 0.79091561 5.4669981 14.75
1.009643 0.72382224 5.4897509 5.5
1.3833113 0.61588973 5.5338984 5
1.5450108 0.71296257 5.5413151 5
1.7218702 0.61405051 5.4660783 5
1.8559954 0.70508277 5.5620074 5
-0.15714198 0.89838535 5.5647697 16
0.060560644 0.87223643 5.5513077 12.5
-0.050276387 1.0490584 5.4725704 12.666667
1.8578372 1.0140629 5.4371705 6.5
-0.1848852 1.2961843 5.5710821 12
2.1431429 1.3972692 5.404707 9
-0.23007673 1.5830855 5.4640684 14
0.14140269 1.5571775 5.4321942 13.5
1.6742907 1.5291233 5.5649648 10
0.31373116 1.7250887 5.5778141 15.333333
-0.14758486 1.935801 5.5096979 16.5
1.6888318 1.8954822 5.4426088 12
-0.047597785 0.10313467 5.653965 4
0.43083483 0.058977321 5.6232433 4
0.93212134 0.16592279 5.7452774 2
1.2794063 0.11705364 5.7029905 2
1.5580435 0.11386269 5.6672044 2
0.17191041 0.25548291 5.7773085 6
0.49227297 0.24713212 5.6418805 5
0.67718136 0.2983858 5.7441545 3
0.87128222 0.3185313 5.6786766 3
0.93370533 0.44935679 5.6945958 4
1.192296 0.56513518 5.7169762 4
1.4037929 0.53487933 5.7669358 4
-0.4865728 0.64534068 5.7987289 8
-0.28993088 0.70927852 5.6517992 14
-0.12174517 0.69473481 5.6099858 14
1.301877 0.60570669 5.6341748 5
-0.48952395 0.80245256 5.7746692 9
-0.21745616 0.87705415 5.6031003 16
-0.18744719 0.84169507 5.6911101 9
1.4382262 0.98099405 5.7614069 6
1.7736652 0.87793148 5.6106424 6
0.12168626 1.1548315 5.6743979 10.5
-0.6910001 1.2503238 5.6782894 12
-0.15688497 1.2270758 5.6684599 11
1.128973 1.2875432 5.7003055 9
0.36036533 1.493659 5.626893 13.5
1.7086282 1.4652117 5.6483059 9
1.6212997 1.7889189 5.6356316 11
0.7517401 2.1924191 5.7213502 13
1.018028 2.1042125 5.7483015 13
1.3095269 2.0523856 5.7734518 12
1.5090196 2.0165939 5.6155052 12
1.6353183 2.1088109 5.6201739 12
0.72227597 2.2479076 5.6968756 14
-0.11290023 -0.14125285 5.9388657 3.5
-0.072640955 0.1709305 5.9151735 5
0.51936913 0.10437144 5.9501739 1.5
0.668194 0.38740969 5.8362956 4
-0.462623 0.56377411 5.8235941 7
0.66136873 0.67587006 5.8642211 5
-0.70357436 0.91630179 5.9101191 10
-0.76282597 1.0946705 5.850327 11
0.59342003 1.1784236 5.8906722 8
0.92013115 1.0594401 5.8809023 7
0.50466317 1.315316 5.9679446 9
0.69680405 1.2922621 5.9192958 9
0.62484562 1.5362829 5.9406772 10
-0.68375909 1.7192338 5.9826674 18
0.53891754 1.7763999 5.9816995 11
0.56797183 1.871365 5.9176316 12
0.49244395 2.1605706 5.8613524 13
0.14602466 0.036206204 6.0918674 1.6666667
0.51894689 0.18020806 6.063273 2
-0.1850847 0.26046464 6.1252484 4
0.10002274 0.26543194 6.0755553 3
0.25311443 0.28893819 6.0046043 3
-0.94899493 0.52444172 6.1679597 7.5
-0.019412609 0.40100798 6.1140161 5
-0.94799727 0.78585136 6.138701 9
-0.71931767 0.62651837 6.1590791 7
-0.23540576 0.78285837 6.1836004 7
-0.059039306 0.73667276 6.1607533 6
0.4037962 0.68428874 6.0470262 5
0.372177 0.91068 6.0547276 7
-0.57762533 1.1551991 6.1957841 11
-0.010486841 1.0735642 6.1713247 7
0.13449264 1.2764664 6.1251087 9
-0.36228549 1.4267908 6.1652455 10.5
0.17249124 1.5230823 6.059114 9.5
0.35845384 1.5704439 6.0590734 10
-0.2290836 1.659958 6.1743269 11
-0.021133333 1.6878452 6.1631951 11
0.14773121 1.6317638 6.0897965 10
0.1580642 1.8177276 6.0900893 11
0.23884568 1.8366933 6.0490074 11
-0.40576726 2.0263362 6.1425986 13.5
-0.22318482 2.1455078 6.1033654 13.5
0.13795438 2.1231794 6.0604334 12.5
-0.57482266 -0.38948286 6.2634497 3
-0.64843047 -0.076502085 6.3329134 5
-0.41598564 -0.098656833 6.2294941 2
-0.84576303 0.091589794 6.3238535 3.5
-0.57573891 0.048515927 6.3009071 4
-0.83463645 0.26440072 6.3846006 4.5
-0.71304268 0.31660447 6.3496094 5.6666665
-1.4257774 0.45535269 6.3540154 7.5
-0.6499027 0.46819901 6.2135773 6
-0.90054506 0.62060362 6.3846622 6
-0.64323598 0.67564517 6.2904277 7
-0.39456913 0.97224683 6.2164931 7
-0.82017845 1.0715119 6.323247 8.5
-0.4008179 1.1897919 6.2813973 9
-0.64341712 1.2802074 6.3945255 9
0.14009342 1.2105299 6.3085842 8
0.47135237 1.2073773 6.2609367 8
-1.0787566 1.5942007 6.3710718 14.5
-0.66747898 1.5469023 6.2185874 11
-0.39926207 1.5562201 6.2760873 10
0.054947704 1.423436 6.2557206 10
-0.37644738 1.7242771 6.2084417 12
-0.23852199 1.9517124 6.2400956 12
-1.1037362 -0.30874628 6.536706 4
-1.1507087 -0.18244123 6.5592508 5
-1.54496 0.067790493 6.4182286 6
-1.1541357 0.0036129504 6.4837961 6
-0.80747128 0.097232655 6.403244 3
-0.61873293 0.024281152 6.4528089 3
-1.6026785 0.36548239 6.4026299 7
-0.96993184 0.28075969 6.455287 7
-0.64804256 0.23960376 6.4262857 4
-1.1398895 0.72119468 6.5503693 10
-1.1829798 0.95803785 6.5522566 11
-0.1796982 0.86356139 6.4444733 7
-1.251224 1.1940715 6.5748301 12
-0.69916224 1.1829845 6.4188232 8
-0.5817771 1.0627347 6.5179696 7.5
-0.86787969 1.3144481 6.4021273 10
-0.9967075 1.6363986 6.4971824 11
-1.0302057 1.9236958 6.4449997 12.5
-1.3484273 -0.11596476 6.7644672 2.5
-1.6188879 0.013070632 6.7380767 4
-1.3165557 0.14004327 6.6989202 3.5
-1.6524255 0.22752693 6.7789912 5
-1.3141928 0.33154926 6.7574463 4
-0.96423715 0.56132621 6.6961284 5
-1.2890837 0.6398378 6.7723408 5.5
-0.92345273 0.85981095 6.7010894 6.5
-1.2712336 1.3499187 6.6026893 10
-1.0000474 1.3159641 6.7176418 9
-1.6248531 -0.15373126 6.8228087 3
-1.6533681 0.094481051 6.8991652 2.5
-1.3044792 0.024711862 6.821259 2
-1.6006109 0.39585108 6.8304262 4
-1.694977 0.48285872 6.8181877 6
-1.3127705 0.98087692 6.8829904 7
-1.6290411 1.0659124 6.9577975 7
-1.4913577 1.1448333 6.8796463 8
-1.2980636 1.1670312 6.8833075 8
-1.5194837 1.5109501 6.9211636 9
-1.3470004 2.1940181 8.7630329 13
-1.0307603 2.270232 8.7715883 14
-1.4768941 2.7142813 8.6201677 15
-0.83170843 2.1161642 8.9822845 13
-0.95305014 2.4174337 8.8524475 15
-5.5371819 -2.4489567 10.459505 3
-5.6219063 -2.1532953 10.488688 4
-5.5705795 -1.8291872 10.680491 5
-5.2753296 -2.0006955 10.860465 4.5
-5.5301704 -1.5808704 10.829312 6
-5.5923185 -1.2317822 10.948538 7
-5.5358553 -0.86173373 11.142612 8
