# .PCD v0.7 - Point Cloud Data file format
VERSION 0.7
FIELDS x y z intensity
SIZE 4 4 4 4
TYPE F F F F
COUNT 1 1 1 1
WIDTH 1201
HEIGHT 1
VIEWPOINT 0 0 0 1 0 0 0
POINTS 1201
DATA ascii
10.440101 6.349328 -7.4499068 7
9.2184658 6.1754766 -6.9334922 8.1195002
-4.8084798 2.3982227 -6.556468 12.0145
7.7362728 5.9795136 -6.6326113 8.1225004
8.079915 6.0062289 -6.6047792 8.1219997
9.0772943 5.9475503 -6.3584518 8.1202497
9.2069988 5.9676485 -6.129684 8.1184998
10.252407 5.9192891 -6.1274033 7
10.283697 5.8023853 -5.6691265 8.1164999
-4.4593725 2.3853469 -5.3224783 13.016
9.0186272 5.5639582 -5.2277818 8.1175003
9.3666077 5.5416632 -5.2158151 8.1169996
9.1022997 5.6526885 -5.2250528 8.1187496
7.0560675 5.5637732 -5.0980682 9.1204996
7.2765026 5.5651922 -5.0363402 9.1199999
7.7559152 5.4984937 -4.9639854 9.11975
-4.8641596 1.0283742 -4.7216225 10.0145
8.0654821 5.3788376 -4.5523763 9.4523335
8.4207382 5.3235197 -4.473865 9.1172504
9.2684965 5.4965434 -4.6761026 8.1177502
-8.6757841 4.1944571 -4.1961713 8.0135002
7.1022005 5.1895256 -4.0177951 10.11875
9.1844273 4.9788709 -4.1192689 8.1155005
6.2023125 5.2868776 -4.2922854 10.121
6.5564151 5.3079333 -4.2983928 10.12025
6.8529539 5.2464466 -4.1468377 10.1195
8.0871992 5.2660112 -4.0499125 9.1184998
8.6781893 5.3719468 -4.3622956 9.1184998
8.9610291 5.2835622 -4.338882 9.11625
9.2833834 5.3268561 -4.2107816 8.1169996
-4.5291076 1.3493452 -3.8090248 10.02
-3.0515327 1.601673 -3.7789123 16.012501
-1.729403 2.1931829 -3.7344987 19.511499
-2.4359903 2.4138031 -3.8274112 18.013
-2.2346632 2.4540401 -3.6855633 19.012501
6.6380882 5.1185374 -3.7512484 10.1205
7.1168213 5.1028895 -3.6749926 10.1195
7.9559188 5.1349874 -3.6354723 9.618
-3.1462188 1.5588491 -3.3723865 16.012501
-1.6981223 2.2739027 -3.4130065 22.011999
-1.2071964 2.291697 -3.2099118 22.01
-2.1260982 2.5258031 -3.5041122 20.512501
-1.7396226 2.5425768 -3.4427516 21.4107
5.8077984 4.973547 -3.3306379 11.370875
6.1636405 4.98243 -3.4342828 11.119625
6.9452486 5.0014062 -3.418674 10.618
7.4056602 5.040731 -3.4522207 10.117667
8.1061182 5.0419259 -3.3491545 9.6172504
-3.3502471 2.0718639 -2.8880661 17.014
-1.5997826 2.5226324 -3.0754423 23.011
5.4143033 4.7775044 -2.8486247 12.1215
5.6372352 4.7968574 -2.8519754 12.121
6.4042969 4.799439 -2.9407897 12.1195
5.1133032 4.8145094 -2.9050293 12.621125
5.6312342 4.8385887 -2.9912314 12.12
6.1786904 4.8351727 -3.0033894 11.619667
6.7177086 4.8145275 -2.9274116 11.1175
7.8176537 4.958149 -2.9930651 10.616375
8.1861343 4.9220328 -3.1140943 10.11525
8.6447372 4.9844069 -3.0860119 9.1160002
-2.1307635 2.0613616 -2.615943 22.01125
-1.86076 2.096972 -2.6557765 22.00975
-1.3048713 2.2749424 -2.7962432 23.011499
5.4042168 4.6929574 -2.4598455 13.1195
6.5718541 4.6788254 -2.6098626 11.785083
7.4947138 4.7821941 -2.5712919 10.11675
-2.3854282 1.9565942 -2.337739 21.011999
-2.247406 2.1756377 -2.152549 21.386875
-1.9207811 2.0996978 -2.3680844 21.509501
-3.3383472 2.6213939 -2.1231327 17.014
4.1382866 4.6427279 -2.3421917 14.124
4.7843342 4.6400628 -2.2565532 14.12075
5.0066195 4.5965438 -2.3388448 13.1215
5.4099531 4.6857276 -2.3494895 12.786583
5.8987155 4.6042891 -2.3247135 12.61925
6.3447118 4.635921 -2.2868264 12.117749
6.6333714 4.5843706 -2.1383524 11.991938
6.8798361 4.545857 -2.1141593 11.61675
7.2679524 4.5772243 -2.0392189 11.116
7.8366265 4.7498555 -2.3385 10.11575
8.2644701 4.7452393 -2.3022003 10.115
5.214591 2.1715271 -1.9006091 3.5
-1.8751972 2.4687326 -1.6941032 23.011499
-1.6931269 2.9052711 -1.7958137 20.008499
2.8901534 3.6116171 -1.7536869 13.127
2.3414054 4.3403764 -1.7783775 17.129499
3.1524901 4.2692733 -1.663022 16.126001
3.34776 4.2244143 -1.6069967 16.124126
4.3649206 4.391933 -1.6283636 14.62175
2.8252234 4.423286 -1.7610979 16.127501
3.840075 4.4863482 -1.879941 15.623499
4.1941981 4.5005646 -1.9087906 14.622375
4.5419235 4.4306536 -1.7376109 15.120251
4.8933554 4.5028296 -1.7418022 14.38635
5.5329132 4.5234523 -1.7856891 13.119
5.8848171 4.5025988 -1.8741915 13.1175
6.3473129 4.5608072 -1.9033874 13.116
6.7493229 4.49301 -1.7505844 12.116125
7.1008253 4.5021677 -1.9824704 12.116
7.4926167 4.6305571 -1.9420519 11.11525
7.8298721 4.6561952 -1.8113083 11.11455
8.354434 4.7068572 -1.6791893 11.1135
-0.95208204 1.3016777 -1.4876113 21.009001
1.3176129 2.0577457 -1.2337759 19.1325
-2.2161524 2.77354 -1.3318089 21.012501
1.0998466 2.568711 -1.441478 22.967249
3.1477637 2.7014036 -1.2603407 9.1245003
3.4897144 3.073971 -1.5493968 10.124
2.9121723 3.2779324 -1.3024534 13.125
3.3259315 3.7954166 -1.5897012 14.125
3.8284907 3.8189921 -1.5968994 14.122
1.3412522 4.0287886 -1.2559551 18.799999
3.1557202 4.2669587 -1.390005 17.1245
3.3141305 4.1797667 -1.3289828 16.458
3.7179382 4.3504572 -1.532455 16.456459
4.2260385 4.3223276 -1.3928692 16.241632
4.5427146 4.3011122 -1.2492876 15.619625
5.4330754 4.2764931 -1.4283787 13.867958
5.7182298 4.3043818 -1.3788389 14.1165
6.2029557 4.3482108 -1.2749245 13.615126
6.6172056 4.2586279 -1.3679997 12.615
6.9762082 4.3795862 -1.3001723 12.11475
3.300051 4.4129848 -1.5208839 17.12425
3.856679 4.4147162 -1.4873546 16.788666
5.1005597 4.4631801 -1.5346012 14.618125
6.3134212 4.4480124 -1.5769552 13.11525
7.0218811 4.494607 -1.5572582 12.115001
7.4355726 4.5877872 -1.4073974 12.114
8.545927 4.6614971 -1.3672227 10.779334
8.9093533 4.6832495 -1.3163267 10.112
0.29297626 0.60300833 -0.88285613 22.068127
0.53518623 0.62522888 -0.85297835 21.500816
1.4197539 0.68856955 -0.94030482 8.3376665
0.95072544 0.97693837 -0.83864081 22.133499
1.2897836 0.82164973 -0.82894927 12.003937
-2.6567438 1.4330659 -0.84017348 20.028999
-0.96590561 1.3022373 -1.1524454 21.009001
1.0682275 1.462792 -0.95515305 20.065554
0.99204862 1.6164203 -0.91978431 21.382063
2.2114019 1.8729917 -0.97639912 4.8055553
2.4225214 1.9465795 -1.0361069 5
5.3887672 1.8588918 -0.8253094 4
1.9124295 2.2819676 -0.85265917 12.879499
2.1877248 2.1970851 -0.98010814 11.179812
2.4874787 2.1225014 -1.0280744 8.9325123
-1.6771369 2.7766128 -0.92544997 23.011499
2.2402725 2.6731048 -0.83577442 13.833334
-1.8659606 2.8124719 -1.1492862 22.011499
1.1196911 2.8830111 -1.0193768 22.968082
1.4558948 2.9264085 -0.96482277 22.583853
1.7901429 2.9388728 -0.92018175 20.230474
2.1364002 2.8248606 -0.89511168 16.814875
2.6557093 3.0112185 -1.0233907 13.1255
6.2606206 3.0307765 -1.0468526 8.3064995
-1.6079742 3.3987608 -1.1936179 20.008499
1.2388427 3.297157 -0.81354344 22.635
1.6576574 3.5658464 -0.81950426 18.1315
2.8361449 3.4490516 -1.1319934 15.125
4.1044617 3.4710608 -1.0533806 15.12
5.8850241 3.2119763 -1.0445952 9.1155005
6.2478132 3.3055871 -0.94910753 10
1.4244248 3.7899411 -0.99768496 20.049915
1.712604 3.8538902 -1.0747658 23.131834
3.5677638 3.9676514 -0.87428105 19.6215
6.2257156 3.6048489 -0.83028877 11
1.4781718 4.111372 -0.96331131 20.840687
1.6477252 4.1069913 -0.94823444 20.881374
2.0918374 4.0968494 -1.006408 19.129499
2.5506015 4.1116061 -0.97686863 18.7272
3.0133662 4.1655226 -0.99811828 18.87425
3.3856077 4.1656957 -0.94184697 18.235176
3.90926 4.2543898 -1.0034108 17.620501
4.186924 4.2190285 -1.0485109 17.120085
4.5747576 4.2627306 -0.87933075 16.285833
4.9111652 4.2178044 -0.98265654 15.49275
5.2691793 4.2473965 -1.0068988 15.116125
5.8438048 4.2170339 -0.96506786 13.96525
6.1690912 4.2924299 -0.94863784 13.781333
6.6028538 4.2827148 -1.039782 13.114125
6.8008137 4.1440225 -0.9387182 12.1135
7.2844019 4.4179049 -1.0627967 12.11325
7.675746 4.5139771 -0.87763917 12.11225
8.6792812 4.6255016 -0.99175191 10.11175
8.9090862 4.5665078 -1.0085596 10.11125
-2.0178235 0.37654048 -0.41029263 11.430799
1.1223304 0.31399116 -0.66341829 9.1304998
-2.8320386 0.73618668 -0.52868861 14.033
0.66182774 0.58864594 -0.66604614 21.595455
0.99622834 0.54976147 -0.47375637 13.865381
1.394977 0.70251775 -0.67930299 9.128417
0.7397356 1.0496036 -0.56116998 21.632999
0.97361445 0.87973809 -0.74662936 21.1325
1.4644984 0.9431929 -0.71816546 11.334064
1.746291 0.98361152 -0.55402422 9.4799891
-2.835602 1.3446414 -0.5034467 19.032499
1.1736077 1.2983376 -0.60370117 20.083355
1.328035 1.4069884 -0.6663416 18.839045
1.8186951 1.2926787 -0.56930143 10.388253
2.1431379 1.4401063 -0.46604562 9.2262001
1.1151785 1.677526 -0.68659794 23.129499
1.4177151 1.760694 -0.66393948 19.908415
1.7328039 1.602069 -0.44668913 17.09119
2.4171932 1.9847751 -0.65779448 7
2.8218803 1.994221 -0.67559016 9.1239996
1.3508723 2.1696057 -0.63183695 19.132874
1.8549824 2.0924389 -0.71263874 16.129
2.2271023 2.1998999 -0.64385474 11.682423
2.5869224 2.2836947 -0.58727932 12.553625
2.8315029 2.2641993 -0.7345196 11.12425
1.5519966 2.6314123 -0.50787437 19.1325
1.9617853 2.7415621 -0.79711306 20.413713
2.2133188 2.5631928 -0.57683599 14.754875
2.476964 2.7276039 -0.64710867 16.348223
2.1686485 3.0267122 -0.53510624 18.180021
6.2379389 3.024174 -0.48831201 9.1129999
-1.7297269 3.270699 -0.54149997 22.011499
1.5628875 3.2550082 -0.74002671 22.049145
1.8444927 3.3425648 -0.62489271 20.753326
2.1124349 3.351088 -0.58774889 18.281693
4.2819309 3.3569679 -0.6081686 15.21725
1.3816922 3.7446811 -0.51755011 20.632833
1.8403037 3.8748248 -0.78990543 20.272858
2.0814605 3.7279074 -0.50279415 20.794668
3.8824925 3.988764 -0.7871033 19.120001
4.2839322 3.9764674 -0.53591907 18.451
4.5992117 3.913579 -0.66962373 17.116333
1.1523799 4.0462985 -0.57163239 22.134251
1.4635972 4.0468769 -0.58344692 22.465584
1.8269823 4.1130571 -0.56932753 22.630001
2.1814926 4.0709033 -0.79206848 20.128668
2.7024927 4.0661507 -0.76322818 19.125999
2.94491 4.1028991 -0.68846267 19.799225
3.42627 4.0351272 -0.54933453 19.338152
3.8268833 4.1054153 -0.66775888 17.995377
4.2798667 4.112164 -0.64478445 17.585083
4.6328764 4.0972552 -0.56174868 17.1672
5.0630546 4.1541972 -0.67443323 16.005138
5.4690914 4.0852675 -0.59292591 15.11425
5.8084202 4.1320434 -0.56175488 14.364375
6.2295084 4.0904174 -0.57473564 13.563275
6.7969751 4.2659645 -0.65700543 13.11275
7.0936036 4.2695036 -0.6341548 12.61225
8.040411 4.337009 -0.48740733 11.11075
8.7914057 4.586803 -0.72951639 10.111
-1.7018325 -0.069455899 -0.090279639 7.75
-1.84498 0.21442293 -0.12529154 11.276709
-1.3699851 0.38744998 -0.037252665 11.022167
1.2340267 0.375581 -0.31750113 11.24925
1.654025 0.36667317 -0.16723996 3
-2.4893348 0.52569693 -0.036713146 9.3689995
-2.1000137 0.60106051 -0.059504755 14.479667
-1.9494315 0.53779054 -0.24927086 15.028916
0.41587728 0.71172863 -0.24151623 23.1385
0.97695363 0.66062069 -0.1754045 18.683178
1.4104337 0.62391454 -0.24067451 9.8083382
1.6556582 0.53144252 -0.13518363 6.1304641
2.0270827 0.65938711 -0.093898654 5.3333335
-2.8858662 1.0804734 -0.10553163 20.028999
-2.7027082 1.1059107 -0.12620333 17.924334
-2.349936 1.0786645 -0.21582524 18.033501
1.1722038 0.85807455 -0.18241656 23.122
1.2103786 0.8115859 -0.3172816 15.125084
1.8356277 0.97778457 -0.2206879 11.337552
2.2094462 0.97470349 -0.20533252 6.587738
2.6676924 1.1427691 -0.087477088 4.5
-2.8994842 1.3926933 -0.27278864 18.284374
-2.7395182 1.4366182 -0.15161163 20.634501
-2.3366823 1.3231152 -0.052274045 19.0355
1.5748751 1.4442497 -0.095348895 20.801207
1.8113703 1.4058536 -0.20993295 15.077325
2.2004333 1.3853116 -0.24403286 10.401916
2.6057103 1.4065906 -0.1152031 5.3747501
-2.9775171 1.6459941 -0.19841288 19.0345
-2.7357111 1.7089559 -0.1532971 22.869083
1.5155761 1.7803162 -0.23601627 20.492668
1.8338283 1.7566569 -0.19151309 18.011673
2.1551085 1.7298549 -0.14543538 12.657705
2.4513345 1.8880353 -0.03348875 14.621
-2.8849828 2.107269 -0.22062032 23.034252
1.8160149 2.153405 -0.11061974 19.92911
2.2344761 2.137903 -0.213728 16.824301
2.4725566 2.3591819 -0.071482778 18.720999
2.2699356 2.6977472 -0.35352373 14
2.7438836 2.60151 -0.3933109 16.123249
2.191467 2.9974618 -0.28835949 20.190964
2.4928236 2.926671 -0.14734501 21.461674
-1.9822612 3.5799437 -0.03004241 20.009501
-1.5245675 3.2122183 -0.33770525 23.011499
2.2775822 3.3039482 -0.20204782 22.125498
-1.9423428 3.7034554 -0.043828249 20.009501
1.4726985 3.9064145 -0.23566663 23.048584
1.979234 3.8784785 -0.37547684 21.129
2.1078081 3.8024364 -0.14787805 22.22765
3.0328772 3.9163046 -0.28997397 21.62225
3.3675179 3.921046 -0.1226748 21.686584
3.7815936 3.8955584 -0.16405758 19.717962
4.090065 3.9383004 -0.26599976 19.0065
4.4871545 3.9994507 -0.2258935 17.11725
5.0187073 3.9502108 -0.21995634 16.489311
5.3932157 3.8602481 -0.026688755 15.862375
6.1563282 3.8113108 -0.15009844 12.946083
1.8690201 4.0266347 -0.37091875 22.529598
2.1565611 4.0100341 -0.37116563 22.877377
2.5698617 4.038559 -0.25858015 22.372231
3.070652 4.0397911 -0.13622522 22.496418
3.5567641 4.0079126 -0.14355505 20.833357
4.0289564 4.0273919 -0.27569532 18.118999
5.0121927 4.0812359 -0.23019356 17.114782
5.3133812 4.0496821 -0.21191871 16.11375
5.8538513 4.1053195 -0.21392114 14.946167
6.1717796 4.1109805 -0.23470399 14.362124
6.4592376 4.140439 -0.13288879 14.1115
7.0185623 4.0918193 -0.29639649 12.11125
7.3373404 4.1395283 -0.20862323 12.360624
7.8086958 4.3426547 -0.33990371 11.11075
8.1650324 4.3377676 -0.23368335 11.11
-2.0694566 -0.069973819 0.16285653 5.666667
-1.6360698 -0.099532023 0.13648227 7.5132499
-1.5390997 -0.25697705 0.28204006 5.1999998
-2.436758 0.22009455 0.24556053 5.4166665
-2.1657777 0.25837752 0.19643053 9.5909071
-1.7461611 0.11926991 0.2072127 10.723823
-1.4058847 0.28993201 0.15926605 9.635437
1.0724437 0.33075169 0.33394909 12.673481
-2.4325771 0.51277804 0.19478911 9.2686253
-2.2295282 0.64191109 0.23184417 13.558255
-1.8166184 0.55179483 0.18168831 17.211056
-1.4090751 0.63216108 0.22034913 14.730189
-1.1735551 0.64074266 0.24541324 9.0199375
1.0751263 0.63913542 0.1991968 20.036919
1.2986873 0.50612617 0.28884763 15.580698
1.7835722 0.66592395 0.20901564 7.8988543
2.1456614 0.66037291 0.31340277 5.25
-2.4152782 0.8164655 0.13163438 13.037251
-2.33377 1.0066682 0.25735578 15.7885
-1.8623397 0.98365802 0.25047678 21.748758
-1.4317963 1.1152107 0.29032177 21.357582
-1.0878341 1.0004945 0.16955113 14.018
1.5731432 0.86735922 0.32478288 14.446332
1.8133111 1.0389113 0.023429334 14.026894
2.0536666 0.97745866 0.27013591 10.926086
2.5417016 1.0617312 0.27973357 6.3357444
2.8473673 1.1972551 0.22033036 3
-2.8244536 1.4451954 0.060303841 18.036501
-2.6481261 1.3813362 0.06838768 20.703083
1.5220708 1.2537122 0.38505542 21.361689
1.8774303 1.4244736 0.16589594 18.195618
2.3412542 1.3210163 0.21239418 10.613238
2.5376964 1.3256948 0.33381414 9.056139
3.846272 1.5624254 0.25332749 5
-2.6894245 1.6688107 0.20452358 21.537374
1.7812049 1.7684751 0.16386513 22.20936
2.2551227 1.7543843 0.2988444 17.020803
2.5464988 1.7339163 0.13735296 12.135956
1.945009 2.0213494 0.30686331 21.122
2.2402177 2.0744557 0.13742018 16.213192
2.6836591 2.1155338 0.18891805 14.953501
7.3127832 2.3169489 0.36704516 5
2.0753784 2.4232635 0.27083981 22.1245
2.5960476 2.5694709 0.23030818 20.119375
2.5931149 3.0427666 0.14384377 22.5215
4.3637738 3.3869796 0.34794235 16.115
4.939579 3.3299503 0.15987605 15.112249
6.3249507 3.5612135 0.11260295 12.1105
2.6053009 3.9314537 0.11059237 23.124001
2.9406192 3.8793669 0.24776649 22.621637
3.3850164 3.8895459 0.33044386 21.547789
3.7582381 3.8868356 0.15460518 21.164551
4.1719909 3.8178914 0.15967022 19.482523
4.5714135 3.7996316 0.26241732 18.361343
5.0836792 3.9379668 0.045784175 16.78054
5.4047632 3.9221187 0.19540203 16.195333
6.5260344 3.8243468 0.29508057 12.60925
6.9740186 3.9714766 0.39977193 13.109
5.7553692 4.0297251 0.14039564 15.611375
6.1548023 4.0431638 0.30036902 14.61025
6.5858245 4.0129232 0.23990262 13.710001
7.2158136 4.0948334 0.13751101 12.10975
-2.0484631 -0.084298879 0.54845214 5.181818
-1.7996216 -0.10224849 0.65904742 7.7588124
-1.3819947 -0.13897412 0.59228402 5.9150949
-2.1170402 0.2931073 0.61296433 9.4745893
-1.7913746 0.20523521 0.60602814 12.129475
-1.4542842 0.26096028 0.60486054 12.263103
-1.0411683 0.21290413 0.71016192 9.5291252
1.0207824 0.26332885 0.49329546 9.9159098
1.3148854 0.3901554 0.58615762 10.09443
-2.207041 0.67553973 0.51760006 15.063913
-1.8522969 0.57472759 0.57176644 16.577591
-1.4330173 0.5541541 0.66615677 13.820089
-1.0235341 0.50457901 0.59671897 8.2227497
1.0581754 0.56303328 0.52699906 17.197498
1.3316876 0.62762988 0.52339774 15.901215
1.7060789 0.53071558 0.66826385 9.0768318
2.1971383 0.70939922 0.65827334 5.9499998
-2.1657298 0.99265975 0.61406726 16.932844
-1.7951863 0.97186726 0.56450522 22.339355
-1.4171095 1.0495768 0.68664241 21.755953
-1.027655 0.98244286 0.61218542 15.376624
1.3983546 0.96277618 0.66568345 22.435501
2.2317946 0.98731178 0.60443199 10.162696
2.6115549 1.0722519 0.62492281 6.6559358
-2.4361629 1.4471576 0.62464023 22.097111
-2.2528555 1.2930784 0.52814877 19.04125
-0.94472772 1.4573302 0.59623855 19.797028
1.5778939 1.2429751 0.75919396 20.605625
1.973521 1.408537 0.61043441 18.044498
2.0962803 1.4607149 0.68322325 17.273972
2.6162608 1.426641 0.59397048 10.733274
2.8717194 1.4684435 0.66461861 8.612258
-2.4840298 1.7473565 0.69405395 22.042248
-2.3913956 1.621336 0.79698211 23.044001
1.8418653 1.7049316 0.52808166 22.61837
2.2709699 1.8162863 0.6503064 19.54981
2.5373361 1.8450228 0.58107996 15.909238
2.8116987 1.9904928 0.69221699 15.715401
4.3744545 1.8141594 0.72093582 8.1090002
2.1758978 2.1796303 0.55874598 22.659397
7.0889301 2.3523624 0.53918207 5
2.2530093 2.5028901 0.54257762 23.121
2.7715755 2.760859 0.44470537 21.11825
4.6471758 2.7481496 0.77538311 14.1095
6.5421896 2.5210385 0.51418388 7
4.8861341 3.0637877 0.57194722 14.5
7.3072557 3.138772 0.76143104 8.1070004
7.8449817 2.9969151 0.62792313 8.1070004
3.4174118 3.5548596 0.55413514 23.110125
4.1027851 3.4609454 0.76164365 19.111126
4.8098412 3.2434528 0.60830081 15.1125
6.3033023 3.404902 0.50925457 12.109
3.3116553 3.7516546 0.68864107 23.117874
3.779135 3.7410221 0.64507967 22.086195
4.183424 3.7855427 0.57300675 20.563816
4.6197929 3.7214253 0.65788198 19.065727
5.0916772 3.8328502 0.58856934 17.028334
5.5142536 3.9538414 0.40882361 16.682287
5.865283 3.9283123 0.53374791 15.359625
6.1639442 3.8835492 0.73214787 15.025291
6.6014495 3.962656 0.56282222 13.275167
7.1158228 3.8945434 0.72916675 13.10775
6.2464256 4.0372653 0.5779494 14.109
-1.8060857 -0.096655384 0.94190913 6.6975708
-1.3785571 -0.15431088 0.91973257 6.9665275
-1.0618783 -0.19989082 1.0430574 5.5205002
-2.1582375 0.19274008 0.98321617 5
-1.8030864 0.22842218 1.0556217 10.34583
-1.4100922 0.23740004 0.97808146 14.003276
-1.1095464 0.091900289 1.0531244 10.023
-0.53488052 0.2479485 1.0409256 10.800333
1.4189571 0.35812721 0.90575296 7.3824997
-2.1515591 0.59521288 0.94880182 10.473684
-1.8296086 0.60750329 0.98587459 16.512716
-1.3875759 0.67435622 1.0100243 19.156719
-1.0204645 0.61690348 1.0449488 12.538155
-0.79282248 0.68632746 1.0586998 13.026751
-0.30519968 0.63780075 1.1529772 13.818188
1.4223337 0.60884213 1.00977 14.380267
1.7702668 0.57390589 1.0218576 9.7446489
2.4311149 0.79566634 0.91606832 5.8571429
-2.0706091 0.95966011 1.0364335 15.380929
-1.8704518 0.94409972 1.0401891 19.116423
-1.3704 0.96165943 0.92426467 20.500706
-0.84989619 0.94887066 0.97943068 10.272417
-0.67309439 1.1456442 0.99769324 13.52125
-0.020102262 0.85557413 1.021384 10.0185
1.4411662 0.97208965 1.1034381 19.04553
1.7891846 0.91630268 1.0179852 13.990777
2.2346537 0.99168426 1.0298029 10.316298
2.7120633 0.92764193 0.89371312 5
2.8602643 1.054468 1.0589172 5.3928571
-2.184896 1.4265192 0.85922575 21.378166
-1.9638697 1.3141168 1.1309981 20.048
-1.2553074 1.4082205 0.85796517 21.357582
-0.93642926 1.3186345 1.089576 18.079485
-0.73226207 1.3120594 0.95849407 15.603916
1.4485339 1.269142 1.1035933 22.7075
1.8088372 1.3381529 1.1435843 20.100033
2.1617107 1.4076647 0.91713089 16.21233
2.544997 1.4238083 0.99401379 12.851351
2.9138544 1.4661446 0.98552048 10.32475
3.7952354 1.275364 0.85524106 4
4.1397095 1.3418291 1.12519 4.5
-2.3033445 1.7589979 1.0341343 22.379
-0.73400956 1.8219336 1.0368158 22.686543
1.9112917 1.7278749 0.81040305 22.238768
2.1998162 1.8212992 0.93497658 20.561695
2.5693612 1.8826087 0.96901572 17.915014
4.2338033 1.8133335 0.95933914 9.1964664
7.0736656 1.7561116 1.1364113 3
2.2977862 2.0585661 1.0233558 22.107
2.4398856 2.1088183 1.114935 22.110357
2.8675356 2.038064 1.0853763 18.1115
3.7158234 2.359519 1.1722481 14.711599
4.1418648 2.0918396 1.1637115 12.503875
5.245882 2.372339 1.0582128 10.107
5.738862 2.2440114 1.199566 7
6.5128231 2.2493119 1.0133294 5.5
6.9438429 2.1826286 1.1114919 6
3.6905367 2.4328802 0.96966863 15.113
5.2985539 2.6077621 1.1891558 11.1065
5.8263521 2.5788236 1.1230162 9.1064997
6.0572591 2.5228019 1.091388 9.1062498
7.3198347 2.5745511 1.1999016 5
7.7490988 2.7710218 1.0819914 6
4.6039104 3.0561414 0.92642635 16.775999
6.5921283 2.99558 1.0563469 10.1065
7.5728397 3.0669253 0.84115225 8.1070004
3.4421005 3.4877877 1.059687 23.10675
3.954566 3.5487499 1.0503182 20.440001
4.1451817 3.4515271 0.96472573 19.609875
4.4892302 3.3240185 1.0358549 19.109501
6.5158577 3.5427935 1.0311965 12.107
6.8316402 3.5030537 0.93895727 12.107
3.4075363 3.659116 0.95769453 23.115999
3.7531936 3.6629279 1.0155296 22.611874
4.0809374 3.7078857 0.98524863 22.261499
4.5364304 3.6772697 1.0854756 19.345987
4.9004245 3.6999607 0.95583278 18.443001
5.478467 3.8260746 0.90530241 17.358688
5.8822212 3.8094847 1.1375208 15.107
6.0315003 3.8565712 0.96364444 14.557625
6.5869007 3.8967032 1.0822122 13.6065
6.8837199 3.9208517 0.98651195 13.440417
7.3036456 3.8573525 1.0416161 13.1065
7.1774521 4.1535468 0.80683649 12.107
-1.8174946 -0.17837182 1.2794826 4
-1.3673426 -0.16053978 1.3810312 6.8052783
-0.95964289 -0.026754323 1.4583297 8.3439283
-2.0246303 0.16331425 1.250621 4.5
-1.7630783 0.21359773 1.3851601 9.0822897
-1.462582 0.15858178 1.3761336 11.209214
-1.0008302 0.15294836 1.3697144 12.500504
-0.66805011 0.13208139 1.429664 10.016806
-0.34240174 0.1827645 1.3596818 9.0405359
1.5535415 0.35960448 1.4463131 7.5454998
-2.0163786 0.59859616 1.2296441 10.571428
-1.7691292 0.67529756 1.4201469 14.721309
-1.4195871 0.61673313 1.3361691 19.922564
-1.0557638 0.63263243 1.4089499 17.268816
-0.52912551 0.56612647 1.4414008 17.275497
-0.15026434 0.64583451 1.4292666 12.994582
1.5325505 0.59205806 1.3852566 11.04575
1.779459 0.63577229 1.4170443 11.053843
-1.8251038 0.98252326 1.4385623 18.094915
-1.4535671 0.83158416 1.3569793 22.682692
-1.0154228 0.95152694 1.4536754 19.684336
-0.57586122 0.95995367 1.4273493 13.026751
-0.0066107512 1.0077651 1.4736915 17.168501
0.15607566 0.97405088 1.4687155 13.460602
1.5243709 1.0458952 1.3886645 17.856596
1.7234324 1.040285 1.4323319 16.529566
2.3075235 1.0142325 1.3888019 9.8509369
3.9066823 1.0302006 1.5364388 2
-2.100677 1.5107213 1.3730741 22.215668
-1.8964051 1.2308222 1.3589309 18.550249
-1.2192175 1.3172069 1.239943 21.728601
-0.90009594 1.2821819 1.2775232 23.0285
0.17402476 1.2722106 1.5242233 17.597626
1.0673623 1.4737291 1.2961677 23.136499
1.4891315 1.2896228 1.4135313 21.6425
1.7741294 1.493668 1.3739828 21.430939
2.0753918 1.4852722 1.2803991 17.769167
2.827666 1.4023412 1.2421011 11.10725
4.5551372 1.2814561 1.3412533 4
-2.1450102 1.7489314 1.3993287 22.049221
-0.92398083 1.7850542 1.2602894 22.423199
-0.71687138 1.6131539 1.585897 23.026999
1.8976326 1.7304711 1.3624038 21.390583
2.1264997 1.7398474 1.3923595 19.851501
2.6079314 1.9193074 1.2648163 19.108
4.1271052 1.7434189 1.3892004 9.5396252
2.5884962 2.0832045 1.3298956 21.1075
3.7882938 2.3111329 1.4361973 15.817146
4.0595732 2.1453636 1.3536385 13.553687
5.3821926 2.1417561 1.434226 8.6048746
6.7553582 2.3592849 1.442206 6
4.1001148 2.5101748 1.3111103 16.553482
4.7715435 2.6979239 1.4031159 14.106
5.8444104 2.6409149 1.3370904 9.6056252
6.2856989 2.7429719 1.3388355 10.105249
2.9758132 3.1220419 1.3916914 23.103251
3.6537492 2.8367348 1.3970222 19.61125
4.3998284 3.1847026 1.4783953 19.109335
5.0012708 2.9797783 1.4800802 14.855583
5.2453852 3.0710573 1.3725333 14.606125
5.7972331 2.9677882 1.5111778 12.105
3.4542923 3.3787661 1.4629596 22.014612
3.8279488 3.5549457 1.383711 22.441084
4.1799645 3.5608878 1.3760995 20.8985
4.6379933 3.5243289 1.356151 18.231543
4.9901066 3.596601 1.315583 16.10475
4.1918163 3.6099346 1.2517698 21.278334
4.60466 3.6570053 1.41037 19.939695
5.030683 3.6852636 1.3446708 17.605999
5.8106842 3.7411242 1.4165169 14.271333
6.1806426 3.7700739 1.4532784 13.938416
6.7741795 3.9815741 1.4783881 12.7715
7.3285942 3.9268551 1.3489621 12.10575
6.5560532 4.0340719 1.4221567 14.10575
6.9962502 4.0147018 1.2007804 12.10575
-1.3746769 -0.15555975 1.7662284 4.8952332
-0.96820641 -0.16993713 1.7768257 5.5
-1.6713336 0.27374694 1.6986151 7.4749999
-1.4937727 0.24576592 1.8416351 9.2337885
-0.95759797 0.12660442 1.6713965 11.21906
-0.65479892 0.17370844 1.7531098 11.390782
-0.16678344 0.23323624 1.8346781 9.8005037
0.012311697 0.15120159 1.8971264 7
1.6059397 0.39738905 1.6085497 8.0900002
-1.7031151 0.68951672 1.7306408 14.136557
-1.4549885 0.56476545 1.7220879 16.176929
-1.0339236 0.61260372 1.6081214 20.694475
-0.53726625 0.61552262 1.7026891 15.950458
-0.19621363 0.64449477 1.8023643 11.506873
0.018118978 0.69766843 1.7342609 10.95554
1.7452725 0.62586683 1.7489125 10.103309
2.1211877 0.58132005 1.7321539 4.75
-1.7815671 0.98613 1.7821273 16.009111
-1.4408011 0.98008865 1.7633882 20.544918
-0.99739885 0.94320536 1.8760167 22.092188
-0.7486757 0.82398283 1.8014435 21.610588
-0.13365 0.99231446 1.8370177 14.6861
0.048177004 1.0513098 1.6782126 15.553981
1.7811501 1.0235529 1.7012447 14.543776
3.358701 1.009269 1.8039643 5.5273571
3.8617611 1.1540893 1.8973241 4
4.1873121 1.1597693 1.9818163 4
4.4060507 1.1972928 1.7189661 4
-2.131927 1.5693736 1.7662832 23.051001
-1.8838416 1.3959836 1.8253615 18.720278
-1.0618775 1.2656354 1.6107297 22.699835
-0.6358403 1.5439897 1.6914291 23.0285
-0.22213799 1.4812002 1.9085704 22.109606
0.056981444 1.4768782 1.6983197 23.014624
1.7916844 1.2307539 1.7222393 16.094
3.3291216 1.3953531 1.8611597 11.409437
3.9747677 1.381741 1.8181956 7
4.2286005 1.4407455 1.9802318 7
-2.0422409 1.7332368 1.6675636 22.489344
-1.9524279 1.6866078 1.8336829 21.820105
3.180146 1.773828 1.6385658 14.109
3.4149234 1.9902782 1.8505907 16.107
3.8645012 1.9556767 1.7467313 13.9035
4.1851463 1.8177178 1.7116678 10.530573
4.9695797 1.9723777 1.7186806 8.1035004
5.4181304 1.7942555 1.8190142 6.5258751
5.7522674 1.6028082 1.9969951 5
6.2302198 1.8103004 1.8022279 4.166667
6.5213938 1.674073 1.6841929 4
-1.9286896 2.0181091 1.9725586 23.054251
3.8510382 2.3087659 1.8107753 16.958561
4.1691427 2.2626584 1.7838385 14.249312
5.1513033 2.2737284 1.9602998 10.1025
5.5002236 2.256007 1.879444 9.435833
6.1135406 2.1709108 1.782225 6.8013754
3.4962156 2.7414527 1.7498937 21.334194
3.8498452 2.7049944 1.8208812 20.431946
5.8175445 2.5341227 1.8742733 8.9361115
6.1663933 2.6654642 1.7408183 8.6866255
2.7724342 3.0137253 1.6462312 23.1
2.8516445 3.0842581 1.8655313 23.099251
3.7474048 2.8298261 1.9053071 22.605
5.0074983 3.0040362 1.8039799 14.437125
5.3412809 2.918226 1.8897064 12.1025
6.2451859 2.8777189 1.8738166 9.1029997
3.1765351 3.2400422 1.8156236 22.700951
3.4558115 3.3703706 1.7638767 22.477062
3.794714 3.3239837 1.8170166 20.316999
4.1504669 3.5131733 1.8145866 21.180468
4.5823464 3.4504936 1.803737 18.312792
4.9270101 3.5175974 1.8759584 17.603458
5.4077907 3.3990169 1.78492 16.771
6.229641 3.4786737 1.7359058 12.069084
6.6365881 3.4586298 1.9722207 12.1035
7.0273819 3.3518009 1.8587366 12.1035
5.0002623 3.6292195 1.6342633 17.771749
5.5226798 3.7324488 1.8658148 15.103001
5.8121586 3.6860864 1.8046355 14.043788
6.6542645 3.7647789 1.6259484 12.10425
-1.2010201 -0.1458471 2.0573757 6
-0.93939066 -0.10682979 2.2839055 4.333333
-1.6131622 0.23152193 2.0134873 5
-1.4568849 0.2074786 2.0908225 7.8697505
-0.99626511 0.12169017 2.0632229 10.209229
-0.71152169 0.23361911 2.0959256 11.779111
-0.12428655 0.23356128 2.2187972 8.9179001
0.16395581 0.32370886 2.2066605 7.6444612
-1.6298848 0.72172564 2.3004498 10.7245
-1.4313356 0.57380658 2.1994412 13.151387
-1.0075066 0.63246125 2.198596 12.304563
-0.68253547 0.75418502 2.1166618 12.682931
-0.19215737 0.54649627 2.1229367 14.755618
0.24232787 0.59840417 2.2035801 12.272752
2.8612196 0.69796324 2.3871734 5.0999999
3.2539186 0.79300219 2.322835 3
-1.6918921 0.99533051 2.153492 15.475678
-0.94787771 0.95040625 2.264508 18.355879
-0.58016312 1.0349556 2.1996782 19.273243
0.15993963 0.97135764 2.2729037 20.224623
3.1446126 1.0202975 2.1495419 8.0026445
3.7716494 1.0914185 2.0164874 4
-1.8037395 1.4454821 2.1928506 20.073002
-0.61416084 1.4430267 2.2435558 20.144682
-0.2822054 1.3344059 2.1467757 22.273251
3.0551498 1.3635689 2.2097423 13.185543
3.3458922 1.2529962 2.214607 9.2484999
4.1184082 1.5544158 2.2444425 8.0994997
4.4536977 1.540993 2.2308884 8.0994997
5.442719 1.5001632 2.2971625 5
5.9153347 1.4407312 2.2191274 2
6.0733957 1.43608 2.1955183 2
-1.8010041 1.7784071 2.2335656 22.087204
-0.66374362 1.6548309 2.3170938 23.026501
-0.38746828 1.6558242 2.2161767 23.068001
1.9197674 1.835446 2.1896367 21.088499
3.0862603 1.7415652 2.2129407 18.433046
3.270653 1.6702582 2.0037403 15.872845
4.1806211 1.6691085 2.1167588 9.3146782
4.5202727 1.6761413 2.1127081 9.1005001
4.9407592 1.6504916 2.1756763 5.5
5.3597722 1.6543151 2.0940084 5.5
5.8421974 1.8020426 2.0598667 4.6666665
-1.7442747 2.0552075 2.2134185 23.056665
1.8652356 2.0169401 2.0306482 23.089001
3.1839097 2.0749526 2.3352427 20.1035
3.221586 2.0865319 2.1711192 21.1015
3.8745434 2.2574363 2.1620741 16.517416
4.1084676 2.1790595 2.2510421 13.766834
4.7957649 2.2003322 2.219372 9.4335003
5.0143909 2.1592588 2.1833384 9.1008959
5.3320498 2.2174969 2.278616 8.6839895
5.7311177 2.2502668 2.1318421 8.1849585
3.5093822 2.5998917 2.2477908 22.105125
3.6997347 2.6441479 2.0834482 20.939417
4.6603818 2.6490576 2.2226002 13.434222
4.9943585 2.6239731 2.1574118 11.934417
5.42592 2.5839181 2.2246506 10.901265
6.1152611 2.6631041 2.04829 10.6025
2.8928401 3.1314831 2.120671 22.847586
3.7672813 3.0251856 2.2425361 20.715357
4.2974553 2.8011994 2.3010054 14.0995
4.6126795 2.9823246 2.2348068 16.268084
4.9395208 2.9475665 2.2642875 16.101437
5.5094333 2.8751783 2.1972418 11.10125
5.7394104 3.0390236 2.1466119 11.7685
2.9851167 3.2015793 2.1931772 23.098
3.3190832 3.2551298 2.1748269 22.411655
3.8105934 3.355814 2.1809418 20.379427
4.2194524 3.3808873 2.2228718 20.851562
4.6771069 3.386045 2.1974435 17.672768
4.9570522 3.3662996 2.1993127 16.634867
5.2585754 3.5767443 2.0018654 15.102
5.7836719 3.4249599 2.1324914 13.40195
6.2640734 3.4911623 2.1937079 12.102
6.642519 3.3743668 2.3589816 12.102
5.2405567 3.667805 2.1868753 15.8515
5.7829723 3.6451225 2.2348993 14.643646
6.0118842 3.7398698 2.3161249 13.351375
-0.94779766 -0.24504709 2.6282167 4
-0.58276224 -0.040812984 2.5044577 5.583333
-0.37577915 -0.037761249 2.4803514 4.6666665
-1.362947 0.19272506 2.742178 3.5714285
-1.0435672 0.34161425 2.4400599 12.306313
-0.62121403 0.23870337 2.5385673 9.4078245
-0.13948822 0.26954985 2.4549801 9.3076248
0.1220356 0.30162993 2.4897165 7.7606111
-1.6143467 0.7598356 2.4755354 10.55875
-1.5159726 0.66350543 2.6572554 11.059884
-1.0772117 0.60851401 2.5286579 10.13225
-0.58860999 0.67003775 2.6076844 16.333353
-0.19864243 0.51832372 2.5465512 13.502613
0.16193445 0.6007933 2.6127932 14.185489
0.5203703 0.7621392 2.4566288 16.052332
2.2945924 0.47076529 2.7438517 4.5
2.531507 0.69226724 2.7193735 7.7373352
2.9034672 0.77418613 2.6452532 5.666667
-1.6473907 0.99978495 2.5568211 14.537324
-1.4493676 1.0219544 2.7099884 14.440405
-0.94985944 0.97890419 2.5877388 13.703229
-0.63037729 0.94686651 2.5887699 17.817287
-0.33202645 1.0665159 2.6315002 21.957527
2.6615055 0.99969244 2.5663826 12.400534
2.9949784 1.0635071 2.5247378 10.14019
3.3967543 0.85743767 2.4764309 3
4.0553951 1.0134723 2.6972713 3
4.705533 1.1005428 2.771662 4
-1.7350314 1.3628225 2.5695105 18.191118
-1.5639716 1.4411105 2.7253461 16.5
-0.88125688 1.4145525 2.6135678 19.725531
-0.75069129 1.375731 2.4020908 18.362833
2.7970796 1.4696112 2.7253861 19.378262
2.9563932 1.4500449 2.5711339 15.832026
3.2961426 1.2203655 2.43905 9.0955
3.8020687 1.4083173 2.5867262 7.9934444
4.2618551 1.4923952 2.6042156 8.0726252
4.6714082 1.44269 2.6252425 5.2333331
4.945158 1.3925786 2.5163355 3.75
5.3417678 1.4166585 2.4982369 3.5892856
5.824832 1.41886 2.4334865 3
-1.6491836 1.7262665 2.4747162 20.78871
-1.5008042 1.7864388 2.6457744 21.530104
-0.8463608 1.6918334 2.744838 22.515875
-0.70925641 1.6773806 2.4950998 22.807278
2.773401 1.7319462 2.7318182 23.010124
2.9665134 1.8061248 2.5648663 19.678484
3.8658986 1.9350656 2.5855474 13.097188
4.225843 1.9206305 2.788444 9.0962505
4.7294235 1.7837914 2.6173465 7.0489373
5.0609331 1.6549261 2.7473288 6
-1.6111671 2.1151676 2.4183567 23.0585
-1.4821117 2.0755682 2.6168542 22.810469
1.7706796 2.33391 2.6190186 23.086117
3.3266566 2.308923 2.5997248 21.599251
3.7819767 2.1827109 2.7149966 15.429917
4.2020178 2.167506 2.6123004 12.297071
4.63027 2.1115751 2.6038866 9.2799873
5.049571 2.1616104 2.5912058 8.886425
5.4189959 2.2612658 2.5501504 9.6160831
5.7064915 2.3192759 2.557368 8.3500004
3.704432 2.7185442 2.4656944 21.384857
4.2405806 2.6518788 2.5819628 15.098375
4.6830177 2.6547911 2.5548887 13.582375
5.0184669 2.6343296 2.5746629 11.665936
5.3163204 2.5165009 2.6276603 10.349375
5.688467 2.4138463 2.4765692 11.1
2.9243135 3.1270468 2.6354465 21.768166
3.526046 3.1028841 2.7096117 18.595749
3.9782319 3.169615 2.7474837 23.098249
4.5588031 3.0040908 2.5280073 14.598875
5.051373 2.8378861 2.4532697 12.0995
5.3986473 2.9289196 2.4935122 12.1
3.3329761 3.2567403 2.5966041 20.953619
3.6862884 3.2831726 2.5800433 21.112368
4.1653538 3.3326368 2.5767643 20.374243
4.6368237 3.3543293 2.5929296 17.043543
5.0738506 3.5056167 2.5516748 16.475124
5.7943172 3.440032 2.5158458 13.60075
6.0195866 3.4243155 2.5528941 12.1005
5.900929 3.7257273 2.5063837 14.1005
6.1447363 3.8519454 2.497366 13.725937
-1.3382149 -0.051050372 3.058732 3.8
-0.66112143 -0.13519552 2.8989854 4
-1.3781245 0.25865644 3.0052915 6.1640835
-0.85832334 0.39217752 2.8428607 11.06
-0.52399981 0.21097058 2.8698862 8.4303465
-0.29683018 0.23035641 3.1339152 7.5314999
0.22091526 0.29982242 2.8939886 7.1538124
0.43870234 0.36905652 2.8577483 8.0614996
-1.3773627 0.61584747 2.9990098 9.5335217
-1.1538554 0.6069001 2.984216 9.2279158
-0.42925584 0.64117569 3.0565162 14.0625
-0.13317296 0.58208537 2.8075061 13.244572
0.11734831 0.64497936 3.0183415 13.725334
0.51949298 0.75146252 2.8120389 15.056
2.2467227 0.64167988 2.997359 9.2924433
2.5564761 0.65398341 3.163461 4.5999999
2.8573241 0.71592855 3.1004601 5.1999998
-1.6463646 0.93953896 2.8320518 14
-1.4264907 1.0679736 2.9490676 14.585956
-1.0929532 0.99086094 3.0829349 14.354864
-0.49606454 0.84464639 2.8612528 17.728249
-0.10526395 0.94025868 2.9071712 19.0448
2.2662435 0.86859977 3.0866165 13.80418
2.6032083 1.0241265 2.9755998 13.143678
2.9386146 0.93172103 2.9080541 7.2264171
3.428792 1.1258968 2.8210282 7
3.7252159 1.0959442 2.9848289 5.3333335
4.2477961 1.0947714 2.9949858 4.5
-1.4417864 1.5121608 2.9938745 19.142982
-1.1277744 1.4288639 3.0480196 18.405491
-0.044475079 1.2263237 3.056067 22.724501
2.6408253 1.4020944 2.9629731 18.112825
2.9997053 1.437564 3.065779 12.256946
3.7443759 1.4857521 3.011168 8.4913282
4.1485314 1.4283477 3.0483809 6.2796807
4.4028845 1.3308213 2.9265709 4
-1.3343114 1.7697656 2.9485247 21.0271
-1.0762509 1.8083502 3.0619519 20.979815
2.6035705 1.783664 2.9594731 22.809544
3.4295247 1.8437014 2.970937 12.1044
3.7927678 1.8107173 2.9874065 12.513502
4.1489401 1.9748632 2.9655874 10.09525
4.5710616 1.7396414 2.938838 7.0439057
4.930788 1.8575606 2.9689903 9.7631674
-1.2399292 2.2478833 3.0060697 22.063
-1.1394818 2.1970348 3.0749612 22.614174
-0.66813314 2.227561 3.0908651 23.067436
-0.21515524 2.2699986 3.1270874 23.070665
0.10527159 2.1982706 3.1408629 23.0735
0.65905052 2.2869799 3.1215444 23.07675
0.90754038 2.3112791 3.0170698 23.079124
1.4248505 2.3639245 3.0877666 22.457375
1.7918856 2.3580005 2.8995466 22.417999
2.2226579 2.3681591 3.0112591 20.961561
2.5406075 2.3269074 3.1658273 20.0875
3.3433731 2.2614591 3.0800054 16.426477
3.8292723 2.2032027 3.099556 14.295302
4.1589684 2.1384447 2.9638436 11.150298
4.5338898 2.0819345 3.0024114 10.32715
4.9462924 2.1709893 2.9443014 9.5969172
1.7846763 2.4520485 3.0100956 22.736547
2.1723166 2.532306 3.1531844 20.961876
2.7191637 2.620296 2.9491358 21.092501
3.4527035 2.6653733 2.9529443 22.594875
3.84288 2.6934631 2.94981 16.533155
4.2762651 2.5208411 3.0005558 12.836901
4.6209846 2.5182493 2.9592288 12.930333
4.9327946 2.4552464 3.0218678 13.596876
5.3731523 2.5822999 2.8585925 9.0985003
2.3075192 2.8834865 3.0159631 23.0905
2.788167 3.0358193 3.1352856 20.466499
2.9383099 3.1381588 2.9040852 21.204611
3.332499 3.1016288 3.0268171 20.260799
3.7560253 3.0548544 3.0938463 17.812687
4.1458426 2.8830414 2.9082294 15.382053
4.4860086 2.9745264 2.8721523 14.597168
3.6856592 3.2671099 3.0366149 19.594999
4.1716876 3.2795205 3.0429919 17.629534
4.5958061 3.3008697 2.9500952 16.670458
4.8642168 3.380065 2.8803153 16.348063
7.4700446 4.517725 3.1766105 12.1
7.3099308 4.8375607 3.1684518 14.1
-1.2745976 0.29165375 3.2321305 6.3000002
-1.043568 0.061498597 3.3364193 3.9957266
1.7574817 0.30353197 3.4526691 5.666667
-1.3010995 0.62212545 3.2849236 9.5338669
-1.0423943 0.56007153 3.3945961 9.2567158
-0.76716995 0.41809693 3.3276157 10.0625
0.19001287 0.67751437 3.2540817 13.394
0.84653372 0.5813936 3.2242651 15.0615
1.9006107 0.56982374 3.4043937 10.387714
2.1224096 0.61473626 3.3840778 8.4153194
2.6492581 0.51332718 3.5257561 4
-1.2596345 1.0741019 3.2194138 13.88797
-1.0568869 0.93625438 3.368103 13.278824
1.8905139 0.85459191 3.5664246 13.51251
2.1228609 0.94816977 3.4275122 13.581668
2.4544904 1.0143752 3.3538864 10.516861
3.0615742 0.99733776 3.5012348 6.2286668
3.4636781 1.0525569 3.4096844 4.7777777
3.8243964 1.1251451 3.4635003 5.4821429
4.1808844 1.0443634 3.2836583 4.7999997
-1.202006 1.5107619 3.2894423 21.561127
-1.0390267 1.3473871 3.3812554 16.786119
2.2612169 1.3513812 3.3830135 20.169102
2.4352148 1.4657981 3.3109963 18.187874
2.8897262 1.3995638 3.4624665 11.877763
3.3149021 1.5153784 3.4397213 10.641322
3.8081927 1.4222231 3.3321798 7.7189169
4.2000446 1.5760714 3.3468826 6.8000002
4.9150362 1.4340994 3.2985783 6
-1.3629802 1.7420458 3.3891573 21.053835
-1.0465693 1.7784156 3.4229281 21.119278
2.1547148 1.7540836 3.4268928 22.4151
2.7570984 1.9631668 3.4319272 14.58825
2.9681058 1.8232538 3.294805 15.589
3.4079731 1.7409798 3.4219046 10.72121
3.7610266 1.7970115 3.3606052 10.36587
4.1581783 1.8579158 3.3759286 9.0784521
4.589745 1.82868 3.3835881 8.7297506
-1.0014886 2.2416706 3.4130757 22.066099
-0.75680852 2.1814332 3.3404431 22.667826
-0.21036547 2.2258408 3.4123483 22.643173
0.16581699 2.3600755 3.4214525 22.2731
0.48709652 2.3037035 3.3668067 22.854334
0.85255671 2.3581419 3.4256124 23.08
1.3180382 2.3694417 3.382493 21.497665
1.9286244 2.3343737 3.5092504 20.0835
2.2059178 2.3184314 3.3806617 19.585251
2.586128 2.2255843 3.4053123 18.336876
3.0255251 2.2017894 3.3680496 17.612007
3.4475954 2.1976869 3.4690704 15.686317
3.7752385 2.2013235 3.3786268 13.200666
4.1942377 2.090621 3.3825054 12.462542
4.509665 2.3025916 3.4273019 13.0945
4.8954549 2.0957909 3.3355396 8.0955
-0.91513819 2.4183118 3.4140131 22.066
0.71587145 2.4021463 3.5486393 22.077
1.4669741 2.5600185 3.43997 22.800316
1.72506 2.7241063 3.4802899 22.585001
2.2045503 2.5062523 3.5755262 19.836689
2.6677551 2.5483875 3.4662595 20.189312
3.1502309 2.5388551 3.5008378 18.091999
3.4036057 2.6482251 3.4095464 16.693729
3.7626476 2.663636 3.367522 14.546429
4.1171827 2.4292989 3.2457938 13.09425
4.461648 2.754673 3.2970304 16.095501
2.1883845 2.8944082 3.4890695 21.5875
2.5864935 2.972208 3.3831415 22.839252
2.941468 2.964838 3.4205916 20.398088
3.3691397 2.9883716 3.3667743 18.366117
3.6929805 3.026181 3.468698 19.263899
4.264585 3.0375617 3.4194973 17.5945
4.4196267 3.0766675 3.4210968 14.095
3.8497033 3.2513747 3.2655501 21.094999
4.0596333 3.2697768 3.3572698 18.428001
4.5521016 3.2447672 3.2239363 17.846251
7.105227 5.0277653 3.4596486 15.099
-0.62192667 -0.12466244 3.8081994 4
-0.9906022 0.26751164 3.6572316 7.2093334
1.1666906 0.3732186 3.9092851 6
1.4609491 0.25868106 3.9234037 6.3403335
1.7441938 0.30158237 3.7073669 6.5881572
-1.0298374 0.41053095 3.6138096 8
-0.66427135 0.42896402 3.8117814 9.3143749
1.5120283 0.64294583 3.8504486 10.880389
1.7894126 0.57551575 3.7233605 9.4958172
2.2368503 0.51168245 3.9624515 4.333333
2.5604858 0.73365837 3.835125 4.1388888
3.0554125 0.69831479 3.7623482 4.25
3.2835684 0.73888576 3.6771727 5
-0.97539806 0.96684933 3.7020133 14.108713
-0.73075706 0.93963373 3.8793697 14.064875
1.8452783 1.0500191 3.7955384 16.360846
2.1629922 1.046479 3.7792702 12.430128
2.5548487 1.0189979 3.8848953 6.5833335
3.0440648 0.95694035 3.711756 6.2507958
3.4705424 1.1149089 3.7565002 7.1678753
3.798605 1.1753188 3.8699098 6.6438503
-1.7611501 1.5020055 3.7092719 18.0375
-1.1672755 1.5178094 3.6200395 17.0655
1.580353 1.2796824 3.9670391 22.5
1.7815009 1.3116759 3.8373847 21.263786
2.6002109 1.3518883 3.8832066 9.5913935
2.9383221 1.3733628 3.7762761 9.8064966
3.4023345 1.4449456 3.8177307 8.692358
3.6775811 1.356253 3.7397614 8.2814722
4.0886002 1.3038869 3.6252847 9.0900002
-1.2500184 1.9023345 3.9216533 23.058374
-0.96096206 1.9435904 3.6953952 22.778927
2.2504261 1.8508568 3.8948536 14.488679
2.6018651 1.8598938 3.8308513 15.377209
3.0004637 1.7703056 3.8279605 11.836717
3.4080372 1.7624385 3.816978 10.815301
3.7083611 1.7649693 3.8572724 8.6620007
-1.2765852 2.1399264 3.6557589 21.732
-1.1009127 2.2213879 3.7454915 20.56625
-0.60415494 2.2429574 3.7192681 21.718765
-0.19033302 2.2899313 3.8491366 21.321569
0.21433568 2.3397794 3.7267449 22.074156
0.64995867 2.3760605 3.9130063 20.07575
0.95242065 2.3708072 3.8389485 20.244709
1.3492202 2.3463166 3.8874533 19.546776
1.877552 2.1798463 3.8513374 18.415483
2.2513576 2.2856231 3.856528 17.803661
2.6577842 2.2781518 3.78052 16.989101
3.0567598 2.1822371 3.8194263 15.601713
3.4314406 2.2153039 3.7649553 14.038922
3.7434976 2.0618224 3.8110261 10.091
4.2112169 2.1117859 3.7212865 12.258833
-0.70603353 2.418349 3.7146742 21.401001
0.23379268 2.4145913 3.672708 22.0735
0.59744459 2.4210176 3.9031723 22.19488
1.1021767 2.4614935 3.8912456 22.08
1.4345448 2.7012374 3.8896542 22.331833
1.7494762 2.5256538 3.8660772 21.212282
2.2481942 2.45578 3.9641922 20.668331
2.5557477 2.5587997 3.8934383 18.891001
3.085398 2.5156786 3.7953146 16.231672
3.4514964 2.6413972 3.7051456 17.870024
3.6256835 2.7837033 3.6452284 16.091499
4.2878294 2.6783168 3.7761164 15.6928
1.8343513 2.8224428 3.8334174 22.084249
2.1688743 2.9221153 3.7549946 21.086334
2.5908637 2.9299688 3.8155749 19.294956
3.0052581 2.947587 3.8319693 18.827864
3.3161263 3.0097589 3.7393136 18.957863
3.7482378 2.9516735 3.7342257 18.466749
4.1908884 3.0975268 3.8226688 17.592501
4.2899628 3.233042 3.7406192 15.0935
7.4700537 4.7057905 3.8161945 13.0985
7.6060109 4.8354883 3.8163662 13.0985
0.9043135 -0.052138388 4.3112397 4
-3.1642852 0.30739704 4.3739047 8.0434999
1.0738823 0.22510779 4.2688375 7.9720054
1.4554898 0.14095484 4.1431689 5.9679446
2.2771053 0.33087322 4.3896952 4.5
1.0719233 0.571217 4.278635 12.461555
1.3619151 0.53488976 4.1411304 11.100389
1.8399184 0.51813871 4.2064199 5.8977833
2.1552258 0.57945919 4.0921369 3.925
2.5231612 0.52953577 4.1229796 3.75
3.293529 0.76041842 4.3304648 7
-1.8072197 1.0505965 4.3726664 15.0425
1.1889884 0.86641991 4.3052425 16.730499
1.3723742 0.97776002 4.1598854 17.554506
1.8116199 0.98170686 4.2065711 9.9912539
2.1643736 1.0647629 4.1786461 8.8100729
2.5701904 1.0886738 4.1894426 10.290564
3.1582522 1.0509176 4.3416085 9.4155006
3.458823 0.94757515 4.1685247 5.7711248
-2.6179433 1.3087342 4.362339 15.0445
-0.6019094 1.2952949 4.1018062 20.046
1.2794768 1.3228765 4.299665 18.745794
1.7744695 1.3964214 4.3392506 13.194214
2.1667917 1.416159 4.1581798 12.067586
2.6035151 1.5029125 4.2458038 11.226241
2.9622662 1.3713064 4.2784457 8.5045595
3.7590973 1.4313945 4.2492146 8.060833
4.2767982 1.2995075 4.0843387 4
-2.8790612 1.6720165 4.2813859 18.54525
-2.7229362 1.6787663 4.2303047 19.547626
-2.1179705 1.7943469 4.291925 21.050251
-1.8468959 1.8473214 4.3665881 21.385168
-1.3291662 1.9481852 4.1657791 23.053749
-0.99808615 1.9304478 4.1374111 22.394083
1.4486828 1.6420259 4.2470784 15.28875
1.7045277 1.8004818 4.25492 14.983722
2.2408926 1.8682365 4.1741371 14.581027
2.5667319 1.9239886 4.14364 15.269707
3.0134888 1.626683 4.3834076 12.084249
3.3417692 1.8125987 4.2374368 13.294479
4.0199013 1.6940222 4.2889938 10.092
-2.0359893 2.0421314 4.2246194 22.0455
-1.7285496 2.0513654 4.0815043 23.046
-1.2275285 2.1977949 4.0620613 20.0665
-0.92497128 2.1397328 4.1466351 20.619568
-0.57212573 2.2045953 4.1388998 20.555616
-0.22260289 2.2218604 4.1840701 21.719814
0.19357358 2.2750406 4.1888161 21.205877
0.5553841 2.328393 4.222127 20.153351
0.89081109 2.3167806 4.2606292 18.368855
1.3880562 2.3047895 4.2455955 18.091475
1.8444101 2.2187855 4.3132253 16.77405
2.1990132 2.2071118 4.2413831 17.395517
2.6515486 2.2735274 4.1642642 16.731239
2.93733 2.1710927 4.2467299 15.813218
3.385921 2.1973271 4.2737789 16.286787
4.2168036 2.0485024 4.0439734 9.0915003
0.44485676 2.4137678 4.3064084 22.073999
1.0440065 2.5307815 4.2477775 20.912222
1.3103417 2.5807452 4.0803194 22.293715
1.9938998 2.4945688 4.1357961 18
2.2577395 2.7046118 4.2404084 19.558367
2.694788 2.4922047 4.2046003 17.452234
3.0746083 2.5122426 4.1672583 15.554317
3.9067318 2.5639944 4.0929995 17.589626
1.9591758 2.8438966 4.2375188 20.283499
2.3245218 2.8206463 4.0024471 19.086
2.6347277 2.8830969 4.0980196 19.595919
2.9223428 2.8366072 4.0219984 17.088249
0.76069695 0.32195675 4.5182381 10.062375
1.0780632 0.32189244 4.5764685 6
1.3798761 0.31205809 4.5114369 3.3333333
1.8083644 0.38748792 4.7747469 6
3.0328903 0.16969264 4.7599134 2.5999999
3.3644845 0.1533117 4.6281381 2
0.62809986 0.48842016 4.647788 9.0629997
0.93989396 0.72882062 4.65658 12.120275
1.3085822 0.62533021 4.6944828 8.2600002
1.8773991 0.58211195 4.6857781 6.7291999
2.1781042 0.70441663 4.4674664 5
2.5703087 0.52303582 4.5437555 4.25
3.0694609 0.64114237 4.5903602 3.6666667
3.4154453 0.54790813 4.6175423 4.5
3.6232944 0.66025364 4.5181584 5
-2.7931089 0.97238302 4.5072789 14.0485
-1.6747813 0.8485375 4.6067762 14.0445
1.0505651 0.94349796 4.5886827 14.907247
1.4024469 1.0037274 4.5832486 9.602397
1.8552984 0.98696715 4.5639067 9.5519104
2.265589 0.85519284 4.5341144 6.8588333
2.5715127 1.0722071 4.6929321 9.431284
3.0293319 1.0735482 4.6315875 6
3.3389418 1.0954499 4.5488214 6.1428571
3.6224403 1.0398234 4.6530457 6.5
-2.5451975 1.292547 4.4856877 15.54525
0.66858125 1.3724358 4.7109528 15.444875
1.0055411 1.340762 4.6581945 15.113259
1.4549724 1.3548759 4.6349149 12.423275
1.751111 1.396596 4.6030083 13.106395
2.2503982 1.4417934 4.6892905 12.190895
2.649889 1.4450319 4.5761075 11.968477
3.0136585 1.4624281 4.5775619 10.223666
3.4591243 1.4619334 4.5782828 9.259119
3.6100061 1.4697847 4.5746436 9.0440006
-2.547888 1.7266227 4.5885429 18.546915
-2.1602981 1.8521336 4.6256318 20.215084
-1.8335208 1.7940148 4.7100992 20.303249
-1.3429165 1.9670422 4.5761051 22.388668
-0.82491636 1.9618897 4.5486164 22.725
-0.5739938 1.9721423 4.7211933 22.310501
0.98595232 1.8191272 4.6722479 19.537418
1.4456742 1.7834857 4.6309056 16.594917
1.7733755 1.821144 4.5544729 15.308707
2.146323 1.8300825 4.6271143 14.75636
2.6317165 1.8275125 4.6238542 13.333571
2.9905734 1.7836326 4.5824542 12.855875
3.4508009 1.6900393 4.7043819 10.038125
3.7239628 1.6979192 4.4657373 10.212166
-2.3831401 2.0767355 4.7238307 20.040001
-1.8003416 2.0938609 4.6032882 22.819445
-1.2399776 2.0346982 4.5085745 21.68935
-0.95819163 2.1848392 4.4685984 17.96785
-0.58905637 2.135942 4.5451865 20.957684
-0.14463331 2.1962531 4.6690097 18.910278
0.16273034 2.238066 4.6070461 19.657984
0.61761576 2.2523477 4.6589723 19.199251
1.0254781 2.2509542 4.7469382 21.116144
1.4491806 2.18051 4.5824704 17.283899
1.8081979 2.2639747 4.6053467 17.044731
