# .PCD v0.7 - Point Cloud Data file format
VERSION 0.7
FIELDS x y z intensity
SIZE 4 4 4 4
TYPE F F F F
COUNT 1 1 1 1
WIDTH 347
HEIGHT 1
VIEWPOINT 0 0 0 1 0 0 0
POINTS 347
DATA ascii
0.41356733 1.8848616 -2.785001 19.5
0.38965026 2.0831993 -2.6542993 21.5
0.71090996 0.37371996 -2.0996976 6
0.73181146 0.7721141 -2.0514486 11
0.66797715 0.90957272 -2.0277927 13
-1.8637879 -0.070041992 -1.8478849 5
-1.8965499 0.016262162 -1.8692365 6
0.8961677 0.28996632 -1.8930649 3.5
0.8639161 0.53368717 -1.8911103 7
0.67695761 0.98487735 -1.8647485 17
-1.8267165 -0.14267004 -1.617849 4
-1.9815323 0.029920902 -1.6818833 5
-2.0232592 0.28563279 -1.6410835 9
-1.9575047 0.2828742 -1.7570224 10
0.86565304 0.30070525 -1.7935669 4
1.0325875 0.2991797 -1.6941599 3
-1.9602251 0.4754194 -1.7010677 12.5
0.89040434 0.52142048 -1.6680343 7.5
-2.0136552 0.75279611 -1.6468225 15
-1.9242722 0.6066438 -1.606918 15
0.93516201 0.63785839 -1.7714391 9
0.62142152 1.356981 -1.779195 20
-2.0103717 0.14969192 -1.5924373 7
-1.8871778 0.12453111 -1.4625998 8
-1.8826482 0.22878966 -1.5195858 10
-2.0302575 0.57709289 -1.5529046 13
-1.9976969 0.69148219 -1.4790332 15
0.90657091 0.92114073 -1.5724262 14.25
0.76364088 1.1462215 -1.5738258 18
0.87040246 1.0701421 -1.4990709 16.5
0.74071372 1.2862606 -1.5380445 19.5
-1.9332398 -0.044684421 -1.3802404 4
-2.0758884 0.092429906 -1.2363167 3.5
-1.9513595 0.035541121 -1.3874481 5
-2.0737462 0.25521111 -1.2140794 6
-1.9704143 0.35151309 -1.351128 12
-2.0527117 0.48003355 -1.2428819 9
-1.926908 0.5314672 -1.3017209 14
-1.978071 0.65717119 -1.2310333 17
0.91632152 1.0828128 -1.3424377 17.5
0.87150729 1.2956595 -1.3348231 20.833334
0.80411875 1.4531671 -1.2748737 23
-2.0645218 0.10947762 -1.0735912 4
-2.0791705 0.22921312 -1.1316341 6
-2.0388205 0.49636942 -1.1202993 12
-1.9846487 0.4482367 -1.1014638 13
-2.0669472 0.68975943 -1.0657022 12
1.6662773 0.66863602 -1.0244746 13
0.94186759 0.90270543 -1.1866834 15.5
-2.0375531 0.067609683 -0.96578622 3
-2.0501101 0.28983501 -0.88092786 7
-2.0278549 0.45987386 -0.88645744 9.5
-1.9721433 0.5562948 -0.94773686 15.5
-1.9660621 0.71219146 -0.86356848 17
-2.0424542 0.92147213 -0.99128687 16
1.4531302 1.1901983 -0.97580647 21
-2.0780935 0.033872705 -0.6663329 3
-2.0570595 0.48767486 -0.63307482 10.5
-1.9119838 0.58925694 -0.66627789 16
0.92932534 0.68043756 -0.68777865 14
-1.9555708 1.2792001 -0.63176751 21.5
-1.9311621 1.4044609 -0.63401634 23
-2.0521982 0.13087057 -0.45992526 5
-1.9737276 0.85634148 -0.54441297 19.166668
0.95840394 0.88192749 -0.45984083 19.5
3.9643173 2.3517547 -0.49080801 19.5
3.8069406 2.4247463 -0.46764499 21
-2.0103016 0.0082768872 -0.32187292 3
-2.0151277 0.2821396 -0.27817872 7.5
0.98397982 0.71201575 -0.38652995 16.25
-1.917223 1.1988168 -0.21796545 21
-1.8984609 1.2618973 -0.21706553 22.5
3.9937582 2.3340054 -0.23154396 19
3.8224897 2.4201334 -0.22074121 21
-1.9432787 0.0014413148 -0.062277071 2
1.1138785 0.22745289 -0.050402228 3.5
-1.806226 0.62224746 -0.15300405 17
-1.9837009 0.95121914 -0.17522594 18
3.9094076 2.3624432 -0.15919465 20
-1.9253687 0.0021853074 0.029667813 2
-1.8988605 0.22773683 0.10893745 7
-1.9082587 0.48568213 0.16666721 11.5
-1.9128416 0.63094044 0.19649893 13
-1.8245199 0.0042425096 0.20977074 2
-1.7958862 0.11689278 0.37304643 5
-1.8756882 0.76089227 0.21851999 16
1.2439814 1.3675665 0.38055176 21.5
-1.7680564 0.070665598 0.53685743 4
-1.7985567 0.28334254 0.49400571 7.5
-1.3487458 0.26891661 0.50960284 13.5
-1.8198146 0.42192441 0.46464846 10
-1.8177023 0.79092598 0.59348786 18
-1.8170142 0.89571416 0.56473559 20
1.2152574 1.3603083 0.53068066 21.5
1.1546484 1.4612134 0.51510435 23
-1.7458501 0.17899889 0.79557812 6
1.4418987 0.55570918 0.69361532 8
1.388129 0.90296531 0.75370258 13.5
1.4265759 0.82055664 0.73724145 12
1.2427993 1.1763738 0.79878086 18
-1.7126858 1.2215003 0.7441802 22
-1.7788965 0.38853171 0.85876942 9
1.3944088 0.50436765 0.81587452 8
1.4398388 0.51878887 0.85362554 7.6666665
-1.7027303 0.70878756 0.94319123 16.5
1.4319921 0.94214922 0.94241709 15
1.3290111 1.1473601 0.88437569 18
1.2971655 1.2769527 0.87784553 20
1.2700202 1.4393959 0.82487994 23
-1.7010788 0.066160053 1.1067761 3.5
-1.7223483 0.23914161 1.0699782 6
1.4734932 0.371562 1.0798229 4.6666665
-1.4814023 0.54857284 1.0730703 16
1.4771174 0.48877844 1.0762187 6.8333335
-1.7371192 0.66938323 1.0449525 13
-1.5094861 0.76420331 1.1220061 20
1.3490208 0.63796878 1.0935099 10.25
1.4832329 0.62454385 1.0942918 9
-1.5292999 0.92461377 1.0601635 21.666666
1.2996972 0.82686555 1.1777713 13
1.4511478 0.85299122 1.0709068 13
1.258276 1.0038451 1.0738366 15.25
-1.6067383 1.2673688 1.0631841 22.5
-1.6597071 0.067396611 1.2987682 3.5
-1.4416738 0.15299499 1.3973863 7
-1.3873731 0.3727603 1.3291668 13
1.3338634 0.33619767 1.2867332 5
1.4824135 0.28224719 1.2593774 3.25
-1.6269636 0.50955296 1.3693693 10
-1.4728035 0.52242398 1.2262787 14.666667
-1.3732042 0.44278237 1.398487 14
1.3704755 0.42833483 1.2111173 6.75
-1.4598477 0.66519308 1.2818195 16.5
1.4907142 0.71615946 1.2141261 10.5
-1.4542879 0.91478103 1.3109049 21.055555
1.3979588 0.89657551 1.3933914 13
-1.4695945 1.021485 1.2961466 23
-1.3894317 1.0281917 1.3065135 22.666666
1.3641562 1.0340426 1.3904043 15
-1.5193013 1.2026067 1.287069 21
1.28313 1.2500123 1.2546248 18.25
-1.3655052 0.1591865 1.4940867 7
4.4216928 0.13260287 1.5798538 3.5
-1.4450046 0.2799513 1.4219596 9
-1.3424149 0.31069222 1.5000072 11.25
1.3207921 0.32838976 1.5476822 4
1.4901763 0.32540554 1.5332857 4
-1.4760805 0.54777962 1.4381238 13.944444
-1.311046 0.46563324 1.5718294 13.25
1.4494154 0.56999302 1.5063065 8
-1.2326401 0.68029624 1.5929335 16.5
1.411623 0.72649604 1.4990063 11
-1.417263 0.86810082 1.5486672 17
-1.3043752 0.88145792 1.5512252 19.75
1.4239984 0.87449849 1.5434654 12.5
-1.4853828 1.0823977 1.4307168 19.25
-1.3580672 1.1058092 1.5052485 22.333334
1.3774073 1.1423008 1.5285335 16
-1.4608814 1.2834688 1.5539831 21
1.3446181 1.2435426 1.5103912 17.5
-1.4016515 1.400715 1.5877402 22
5.4418888 1.9541073 1.4321171 13
5.4080529 2.0779493 1.4108164 14
5.3517337 2.219811 1.4035512 15
-1.2585492 -0.096488141 1.6102962 4.5
-1.4623089 0.023435274 1.7027493 2.5
-1.2571015 0.095772117 1.7229688 6.5
-1.4372208 0.2866787 1.7381209 7
-1.2287213 0.2874096 1.7122903 10.5
1.5218613 0.38661569 1.7107931 5
4.0860758 0.29470953 1.7610648 5
-1.4488891 0.50944155 1.6864593 10
-1.2781113 0.50863534 1.6783029 13.5
1.4944685 0.52011997 1.7124333 7
-1.4563618 0.72713947 1.6296147 13
-1.3490252 0.75979084 1.6160445 15
1.4762815 0.71021879 1.6786299 9.666667
4.3634386 0.66825223 1.6162213 7
-1.4309731 0.86361945 1.6864512 15.333334
1.4202474 0.95167726 1.672621 13.5
-1.4373128 1.043005 1.6654739 17.5
-1.2779453 1.0343338 1.7955129 20.5
1.4025617 1.0878743 1.7313178 15
1.3722253 1.2427454 1.7081976 16.5
3.9979515 1.3907952 1.7962415 12
4.1547346 1.2236302 1.7101455 11
-1.348011 1.4134315 1.7422237 22
4.0962119 1.4384522 1.7132002 13
4.0755429 1.7241466 1.7063736 14
4.0613914 1.8875287 1.7049174 15.5
3.8621805 2.2494466 1.7643832 18
-1.1019871 -0.15931766 1.8933111 3
-1.3810364 0.15514401 1.9861627 5
-1.085923 0.066510916 1.9633857 6.5
2.8467197 0.049208313 1.9374387 2.75
3.2206771 0.12373005 1.8265176 3.5
-1.3788306 0.32943368 1.9625944 7
-1.1097444 0.31340158 1.9359297 10
2.8902404 0.25956541 1.932965 5
-1.290906 0.49617338 1.8956295 11.25
-1.1501341 0.53489089 1.9492327 13
2.8601456 0.48267782 1.9424855 6.5
3.1840513 0.5106709 1.8749096 7
4.0201039 0.58807832 1.8138295 7
-1.4013146 0.66953468 1.865104 12
-1.2350974 0.71956724 1.8560805 16.25
-1.1348604 0.67046356 1.9112571 14.75
2.8249555 0.67135412 1.9598176 8.5
3.1815169 0.69240165 1.8795389 8.5
3.9209671 0.70031053 1.8549895 8
-1.2810752 0.91376966 1.8342099 18.5
2.6943524 0.93547082 1.9998882 11
3.8971057 0.89847791 1.8552563 9
-1.2554805 1.0739124 1.9294226 18.75
2.6755705 1.1200651 1.9943007 13
3.0666351 1.0487194 1.8971786 11.5
3.7694488 1.122867 1.9045475 11
3.8932152 1.0976233 1.8437932 10
-1.3099468 1.3081415 1.8562679 20.25
2.6114964 1.361341 1.9986877 15
3.0408893 1.2075613 1.9192661 13
3.757185 1.2836864 1.9157027 12
3.5673003 1.5811611 1.9709406 14
3.7570727 1.4643835 1.9197114 13
3.5559094 1.688682 1.962906 15
3.5323105 1.9055984 1.9881829 16.5
3.8031747 1.9761912 1.8459207 17
3.5154712 2.0858128 1.9833471 18
3.5891881 2.350975 1.8229648 19.5
-1.0427531 -0.030545307 2.1354158 4.5
-1.0929387 0.17040038 2.1179609 8
-1.267989 0.3255851 2.1440272 7
-1.079349 0.34566098 2.135479 9.666667
-1.254645 0.45183092 2.1384983 9
-1.1344166 0.52218258 2.0776429 12.5
2.560822 0.43041277 2.1411021 7
-1.0858834 0.71009761 2.1791368 14.5
-1.2340981 0.91924047 2.1097136 14.5
-1.1365542 0.8788842 2.0848546 17
1.5498857 1.5408416 2.1702054 16
2.2722833 1.4906832 2.1779017 17
2.4473655 1.4904451 2.0801473 16.5
1.4548428 1.7589124 2.1073856 18
2.1858788 1.7747381 2.1371975 19
1.4228652 1.8868039 2.1080222 19.5
2.1773973 1.8655093 2.1455321 20.5
-0.93615729 -0.099138893 2.2652249 3.5
-1.0483294 0.1303106 2.2214031 5.5
-0.95407027 0.13132992 2.321523 5.25
1.6082232 0.11327776 2.2955906 3.6666667
1.9439218 0.15398219 2.3286114 4
2.1532671 0.071232982 2.3118706 3
2.3534603 0.010166086 2.2093508 1
-1.0114039 0.28180963 2.2840109 9
-0.96909451 0.30888006 2.2561808 6.5
1.5278357 0.27935198 2.3082323 5.5
1.7210213 0.3005445 2.2953203 6
1.9945564 0.37599337 2.3312898 6
2.2295353 0.32880235 2.2874322 5.5
-1.0214115 0.41885963 2.2523141 11
1.5294147 0.42705077 2.3055661 7.5
1.9672873 0.44860592 2.3549945 7
2.2862215 0.51986122 2.2878351 7.5
-1.2261242 0.72288394 2.2042751 12
1.7772785 0.70432943 2.3923717 10
2.0746341 0.69031221 2.333636 9
2.3950584 0.8366707 2.2148027 10
1.5354385 1.3448821 2.359405 14
1.6096618 1.3743302 2.3787165 14
1.3894111 1.6885626 2.3118584 17
1.8081073 1.6154523 2.3845737 18
1.5886787 1.9517646 2.3771973 21.5
1.7511344 0.88466644 2.4231248 11.75
1.5659046 1.0859725 2.5231805 12.75
1.5618889 1.2512062 2.5374956 14.25
-1.2825065 1.5636175 2.5791802 19
1.6585641 1.5066258 2.4705584 17.166666
-1.3594904 1.7959093 2.5626094 21
1.5882683 1.7006745 2.4642415 18.5
-1.3477151 1.8551015 2.5667679 22
1.5075462 1.8409253 2.5684104 18.5
-1.3231615 2.0253716 2.5258718 23
1.4773306 2.0209033 2.5533781 20
1.8191139 0.53743726 2.746294 5.5
1.7658054 0.90425497 2.7816563 9
-1.2728286 1.3538218 2.6553793 17.5
1.6610594 1.3034782 2.6863463 13.5
-1.3227419 1.5769079 2.7228775 19
1.5517153 1.5231328 2.6576676 16.75
-1.3399786 1.6648873 2.641104 20
1.5422409 1.6391433 2.6661401 17
1.8564306 0.29099435 2.8373978 3.5
1.772486 0.53455877 2.9197183 5.5
-1.0882714 0.78361613 2.9917772 11
1.7710328 0.71654809 2.9279442 7
1.7330546 0.85912204 2.9142742 8.5
-1.2730837 1.1659588 2.8879805 14
-1.0917414 1.1241831 2.9346335 14.5
-1.2657264 1.2842484 2.8811133 15.5
-1.1316029 1.287823 2.8703134 16.125
-1.2488737 1.4330058 2.8248808 17
-1.1158096 1.5034035 2.8657124 18.833334
-1.2059824 1.6780151 2.8664694 21.5
-1.2205267 1.8011949 2.8199663 23
-1.1202098 1.8755262 2.9541554 21.5
-1.1118463 2.0886729 2.884315 22
-0.93343365 -0.099520497 3.1421514 3
-0.85524797 0.1388167 3.171664 4.5
-0.94853628 0.22498502 3.1565056 5.5
-0.98616886 0.51750338 3.1155038 8
-1.2043012 0.7331956 3.1212711 9.5
-1.0132699 0.67868078 3.0963383 9.5
-1.1122526 0.8542704 3.114933 12
-0.94760728 0.84452426 3.1510658 12
-1.1393759 1.0765765 3.0824974 14
-0.93594879 1.1074798 3.0871203 15.5
-1.0899477 1.363745 3.0241275 17.5
-1.0793815 1.5353422 3.080689 18.25
-1.114924 1.7117128 3.0174909 19.833332
-1.0732783 0.3066518 3.3779354 5
-0.89602613 0.35018215 3.3593979 7.5
-0.89300954 0.5077495 3.3296039 9
-1.0644369 0.6739943 3.3240242 8.75
-0.90607584 0.65170157 3.243453 11
-0.995161 0.94088793 3.3754916 11.5
-1.0320623 1.1072686 3.2946577 13
-0.95020658 1.0762497 3.3375819 14.5
-1.0193865 1.3120888 3.2613916 14.5
-0.96219367 1.3095784 3.3134942 16
-1.003108 1.4753971 3.2729778 16
-0.74912381 -0.06855619 3.4819312 3.5
-0.84274304 0.14128122 3.4326408 6
-0.74594909 0.10598069 3.5122805 5.3333335
-1.0006537 0.27884746 3.4620032 4.5
-0.72531867 0.26867861 3.5633938 7
-0.98887295 0.5377261 3.4722414 7
-0.74659002 0.45087188 3.5644057 8
-0.96967757 0.67559469 3.4503419 9
-0.88347042 0.87475216 3.4342325 12
1.7407074 1.1075937 3.5369442 11
0.84166485 2.3136024 3.8469896 18
1.9003937 1.7026774 4.1173396 14
1.8615774 1.9021732 4.0895958 15.5
-0.792629 2.3564718 4.1818066 19
-0.82028788 1.94568 4.3672848 16
-0.81868315 2.0709007 4.2878075 17
-0.82185566 2.230267 4.2541962 18
