# .PCD v0.7 - Point Cloud Data file format
VERSION 0.7
FIELDS x y z intensity
SIZE 4 4 4 4
TYPE F F F F
COUNT 1 1 1 1
WIDTH 1157
HEIGHT 1
VIEWPOINT 0 0 0 1 0 0 0
POINTS 1157
DATA ascii
-1.9489796 1.0658618 -1.1936466 21.51725
0.93621546 1.0857909 -1.1076149 19.119249
-1.981987 1.1654153 -1.118726 22.01725
-1.8816687 1.1472421 -1.1704121 21.014
0.93080848 1.1643348 -1.1311775 20.1175
-1.9506639 1.2513583 -1.1552132 23.016624
-1.866065 1.2265801 -1.1963339 22.0135
0.89845586 1.2338706 -1.1999664 20.620251
0.91071534 1.3331665 -1.1114887 22.36825
0.88881898 1.4053355 -1.1854417 23.120001
0.91897815 1.4208375 -1.1417997 23.1175
10.538856 1.9241858 -1.1102918 8.1105003
2.3864365 2.0041423 -1.1976287 23.1185
6.6200123 2.1801207 -1.1563233 13.112
6.8503075 2.1983948 -1.1847889 12.112
8.7783155 2.1296091 -1.1205605 10.111
4.0896921 2.2801781 -1.1823852 18.1145
5.3437314 2.2849302 -1.16365 15.113
4.0127301 2.3157184 -1.1681255 19.1145
5.1285071 2.3128088 -1.1191062 16.113001
3.4178529 2.4464667 -1.16807 22.115499
-2.0645218 0.10947762 -1.0735912 4
-1.9457842 0.17030559 -1.0500804 9.1311674
-1.8798568 0.14907746 -1.0992104 9.0200005
-1.9754204 0.37560067 -1.0637008 11.68575
-1.827963 0.33119681 -1.0689442 11.0155
1.5496331 0.35689321 -1.0758746 8.1215
1.6922802 0.35686129 -1.0641173 8.1204996
-2.0783548 0.47299752 -1.0673769 9.1789999
-1.9741319 0.45999002 -1.0597796 14.009624
-1.845155 0.48928422 -1.0339403 13.01575
0.78800547 0.43881553 -1.0855672 10.9495
0.80507123 0.4591721 -1.0016794 12.11475
1.6323348 0.44644874 -1.0760698 9.1210003
1.7082629 0.44909549 -1.0683084 9.1204996
-1.9635327 0.56065053 -1.0548749 15.060959
0.70051599 0.5099147 -1.0356646 14.1165
0.94124389 0.54010201 -1.0362151 9.784667
-2.0810041 0.65785718 -1.0646714 11.51225
-1.9419858 0.66640282 -1.0922905 15.666667
0.61281812 0.6370908 -1.0498612 17.130501
0.7370286 0.61532265 -1.043317 16.115999
1.4314361 0.65105855 -1.0445037 13.122
1.5343238 0.63939011 -1.0627407 13.1215
1.6662773 0.66863602 -1.0244746 13
-1.9560044 0.76289964 -1.0337696 17.01825
0.67904842 0.7757045 -1.0496647 19.623249
0.74779069 0.73162687 -1.0923028 18.116501
1.423551 0.77993387 -1.0410228 15.122
1.5500318 0.75140685 -1.0381768 14.454501
-1.9988878 0.86830366 -1.0251979 20.5205
-1.8726016 0.83922583 -1.0410284 18.015499
0.94121557 0.82744658 -1.0541344 15.117875
1.3544784 0.82663369 -1.0427207 16.122499
1.5274528 0.88196301 -1.0324323 16.12125
-2.0179777 0.95330089 -1.0759681 16.024
-1.9405669 0.93549627 -1.0562291 20.018311
0.75116926 0.98331219 -1.0130353 23.115
1.45485 0.97059894 -1.0362889 18.12175
-1.9456421 1.0176889 -1.0712477 23.019501
0.75655395 1.0373869 -1.0939651 23.115999
0.85202444 1.0165056 -1.0209064 22.114
0.94825065 1.057175 -1.0684206 18.61775
1.447898 1.0526776 -1.0106144 19.1215
-1.9321134 1.1018651 -1.0284946 22.018
-1.8817201 1.1277137 -1.0472471 22.015125
0.94498301 1.1883909 -1.0489653 20.450748
1.3444728 1.1419166 -1.0011047 21.4555
-1.9749525 1.2305579 -1.0643259 23.01775
0.93883717 1.2527164 -1.0453612 21.618332
-1.9453955 1.3153661 -1.0638206 20.77375
0.94315296 1.3501107 -1.0307115 22.783417
10.059533 2.0192585 -1.0712147 9.1105003
6.6801524 2.1913354 -1.0145937 13.1115
4.6619477 2.291966 -1.0226252 17.113001
5.3251138 2.2967865 -1.0335929 15.1125
2.9464462 2.3759646 -1.0006814 23.115499
4.0544019 2.302465 -1.073202 19.114
4.1203952 2.3219395 -1.0491247 18.11375
5.1448426 2.3194821 -1.0054151 16.112499
2.9558907 2.4218132 -1.0719062 23.115999
3.2821519 2.4261029 -1.0303673 22.115
3.4720421 2.4292178 -1.0983768 21.115
3.525805 2.4647899 -1.0268439 21.1145
-2.0375531 0.067609683 -0.96578622 3
-1.7560438 0.056569722 -0.92498285 8.0214996
-2.060266 0.18480609 -0.97669482 5.0769229
-1.8386347 0.13483317 -0.97305328 9.0212498
-1.964546 0.20197266 -0.95600587 10.522
-1.8470893 0.27698618 -0.94971228 10.016875
-2.0572584 0.35357481 -0.96558726 8.0252495
-1.9439404 0.30620542 -0.93378294 11.02075
-1.8544505 0.35868385 -0.9300009 12.017
-1.7959374 0.31454813 -0.91342229 13.0215
0.61167532 0.36612993 -0.91574472 12.5291
0.79480743 0.30557099 -0.95458925 8.1142502
-2.051487 0.44021735 -0.93266964 9.0255003
-1.9734622 0.45623088 -0.97462016 15.0215
-1.844684 0.48842785 -0.95695955 15.01875
0.61055976 0.47147435 -0.92489374 15.12925
0.87423128 0.47684318 -0.99676985 9.1169996
0.93137133 0.46725187 -0.94549829 8.6169996
-2.037344 0.57986182 -0.96222734 13.523499
-1.9840951 0.53578526 -0.94444251 15.010375
0.62503386 0.56181729 -0.91457957 16.9289
0.73108816 0.55876654 -0.97333926 15.115085
0.96642131 0.50786316 -0.94949716 9.1155005
-2.0469184 0.62041736 -0.97494161 11.461538
-1.9754394 0.65593672 -0.9206174 16.680418
-1.85519 0.63960099 -0.9971661 16.016001
0.69926578 0.65505189 -0.9485113 18.115
0.77315909 0.64279991 -0.95183134 16.614124
0.84690982 0.61720514 -0.9276306 14.225166
0.92203385 0.66399914 -0.97693199 13.1185
-2.0432394 0.75357223 -0.92915636 13.5255
0.87041706 0.79101777 -0.93945533 16.115999
0.96639794 0.73255622 -0.99469906 13.116
-2.0364275 0.86167085 -0.95869392 15.11275
-1.9726884 0.83834207 -0.94029152 19.895876
0.68189889 0.83624059 -0.97368127 21.791
0.83102405 0.87092942 -0.91933888 21.112751
0.93288517 0.82339466 -0.94327086 15.78325
-2.0424542 0.92147213 -0.99128687 16
-1.8508146 0.98157972 -0.91090792 21.0165
0.84641248 0.98959851 -0.98559707 22.113501
-2.011364 1.0745963 -0.91891861 18.025499
-1.9542723 1.0436504 -0.92117548 22.019999
-1.8855082 1.0328207 -0.96905512 21.016001
0.94608003 1.0270938 -0.97263891 19.11775
1.5129328 1.0705125 -0.99905479 19.121
-1.9469917 1.1349527 -0.95588475 22.518875
-1.8836443 1.1222243 -0.91004795 22.0165
0.9587968 1.1138234 -0.94850719 20.11725
1.4458797 1.1890311 -0.97715968 21.060625
0.96802735 1.2698853 -0.9283151 22.365749
1.3221283 1.2941531 -0.96661037 23.122
1.4098729 1.2207444 -0.98438001 22.1215
-1.9354924 1.3546737 -0.94574374 21.358168
1.3700808 1.3188776 -0.95869648 23.1215
6.6951542 2.1834381 -0.99473727 12.1115
4.0748038 2.2968626 -0.98136055 19.113501
4.2669673 2.2841849 -0.92933989 18.113001
4.7609496 2.2993817 -0.92340904 17.112499
5.2784176 2.2942708 -0.91827571 15.112
3.3441377 2.4294937 -0.96603715 22.1145
3.4402747 2.4542701 -0.9208644 22.114
3.6412904 2.429882 -0.96449667 21.114
-1.9325089 0.078163497 -0.82520711 8.5235004
-1.9783306 0.18812321 -0.87572157 10.023
-2.0501101 0.28983501 -0.88092786 7
-1.8497603 0.28494892 -0.84568709 12.356
-0.97375518 0.28529665 -0.80027324 14.015
-1.9332198 0.34855968 -0.89290792 11.02
-1.8490055 0.35798341 -0.80377722 12.01825
0.64425159 0.34477663 -0.80514604 12.12725
0.78997153 0.34044912 -0.8646034 9.6127501
0.80558193 0.36642039 -0.81256396 10.111625
-2.0278549 0.45987386 -0.88645744 9.5
-1.9710037 0.45490041 -0.87194461 14.856
0.65871799 0.42851183 -0.84956443 12.374125
0.83617067 0.4246814 -0.85434264 10.945333
0.91254014 0.44359085 -0.80693179 8.7138996
-1.9482906 0.56535256 -0.84354025 15.771626
0.63800871 0.52616984 -0.80759293 16.794001
0.74624407 0.57835841 -0.84944344 16.362751
0.83899355 0.56478298 -0.83481628 15.1115
0.93123204 0.53423184 -0.85117865 10.448611
-1.9629335 0.62900931 -0.8027913 16.021
0.8550418 0.63009018 -0.82358682 13.1145
0.92380816 0.62953079 -0.85374236 12.365062
-2.0122654 0.73403299 -0.81368178 14.0265
-1.9718771 0.75668013 -0.83734012 18.5
0.6576159 0.77818555 -0.84361809 22.127501
0.71855593 0.7560994 -0.86949909 20.613251
0.91321528 0.74924207 -0.85149306 15.117
-1.9798697 0.80783886 -0.81364429 20.523001
-1.8413901 0.89978719 -0.8111679 20.0175
0.74303126 0.84468186 -0.84690428 22.119499
0.93318176 0.82498491 -0.86490774 15.948959
-2.0355968 0.90036488 -0.82167286 16.026501
-1.9543557 0.99555391 -0.80406344 21.02075
0.78945273 0.95622367 -0.89598137 23.112751
0.95041335 0.95523924 -0.86281312 18.282001
1.0269806 0.95967704 -0.89759594 17.114
-2.0304549 1.0147922 -0.8240239 17.026501
-1.9013858 1.035539 -0.80727196 22.0205
0.9529255 1.0347792 -0.82875419 20.115999
-1.9900336 1.191849 -0.89286333 23.019751
-1.8804103 1.1128435 -0.81291205 23.0175
0.95205438 1.1527991 -0.86022043 21.366249
0.96946144 1.2744915 -0.86532938 22.615
1.0164709 1.2959046 -0.86569268 22.113501
-1.942894 1.386883 -0.82160974 22
0.96974695 1.3588932 -0.89611632 23.11525
10.778304 1.9273521 -0.8921411 8.1099997
10.024649 2.0002241 -0.83476919 9.1099997
8.5676537 2.1390493 -0.897838 10.1105
4.1603227 2.2872162 -0.80785805 18.112499
5.0464096 2.296324 -0.86300868 16.112
5.4489069 2.2863848 -0.82360667 15.1115
3.0637739 2.3774335 -0.82023424 23.114
4.0239749 2.3516083 -0.88709104 19.113001
4.1476092 2.3228235 -0.80669147 19.112499
4.8120909 2.3234427 -0.8283397 17.112
3.4826863 2.4409902 -0.84714246 22.113501
3.7750156 2.4274189 -0.83014095 20.113001
-1.0708028 0.063393086 -0.78825784 7
-1.9069475 0.1813249 -0.7482186 11.02425
-1.0393393 0.13163242 -0.70355093 9.0177498
0.65247548 0.19404072 -0.7974841 8.1269999
-1.7461437 0.2220771 -0.71073246 12.024
-0.93669713 0.29192987 -0.72787142 15.016
0.64548331 0.29446927 -0.79089558 11.127
-1.9345756 0.35119805 -0.72844911 12.52275
0.64865124 0.38186723 -0.7601459 13.1265
0.72227609 0.30275199 -0.76011693 11.1255
0.87148774 0.3030813 -0.71525055 8.1091661
0.90503323 0.30959535 -0.74521238 8.1094999
-1.8649678 0.46720275 -0.7652728 16.0235
0.66640854 0.48434544 -0.76093656 16.126249
0.88249397 0.46153975 -0.75333202 12.10975
-1.9687002 0.54647976 -0.75982237 15.52275
0.64323801 0.53053772 -0.75108659 17.126499
0.76609427 0.5330016 -0.78918952 15.70175
0.85103667 0.56424874 -0.70554256 15.108999
0.92304194 0.55549455 -0.78190094 11.61625
-1.9518546 0.60915238 -0.71369916 15.521999
0.65167749 0.68037581 -0.78252858 20.626751
0.86877841 0.62550735 -0.7397449 16.109501
0.92596912 0.64129591 -0.75668687 13.11575
-2.0161812 0.70922822 -0.79185337 19.0235
-1.9264427 0.72503692 -0.74516726 17.360874
-1.8595018 0.7382378 -0.70038164 18.018999
0.79589975 0.77138686 -0.70393312 20.442667
0.88546151 0.79780233 -0.78319257 16.113501
0.91063595 0.75984991 -0.75108671 15.61425
-1.9820766 0.83158255 -0.75981152 19.772562
-1.8516849 0.86584169 -0.74028379 19.685083
0.79940355 0.84693652 -0.73019505 22.109751
0.84473765 0.85857975 -0.79157978 21.1105
0.93045044 0.84716308 -0.72741681 17.238688
-2.0144501 0.93647528 -0.76438528 16.527
-1.9236615 0.94118035 -0.74217534 20.771416
-1.8227928 0.91746747 -0.75604618 21.018
0.83332646 0.92595273 -0.77001029 23.110126
0.92493266 0.91242397 -0.79237682 18.115999
-2.0065823 1.0690143 -0.74138534 18.02725
-1.9045454 1.1341598 -0.78201127 23.02075
0.96432793 1.2699509 -0.77762681 23.115
1.01622 1.2409884 -0.79131687 22.112499
-1.9520229 1.3630619 -0.73985678 22.527
1.0233768 1.3463744 -0.75988513 23.112
9.0414228 2.069984 -0.76387215 10.11
4.3410349 2.2732534 -0.75410897 18.112
5.2139058 2.2885599 -0.78541374 16.1115
3.1374419 2.398561 -0.7630443 23.113501
3.8211036 2.391958 -0.70372242 20.112249
4.0833364 2.3386903 -0.70461756 19.112
4.8308058 2.323854 -0.71886784 17.1115
3.5805829 2.4605112 -0.78455406 21.113001
3.6216562 2.438607 -0.70089936 21.112499
-2.0780935 0.033872705 -0.6663329 3
-1.8277636 0.039864365 -0.63167238 6
-1.1143421 0.08819288 -0.65212339 8.0194998
-1.8332983 0.11454521 -0.62358379 8.0229998
-1.8984038 0.20088376 -0.68160158 11.025
-1.794831 0.24245617 -0.67127562 10.02225
0.87058634 0.2481972 -0.60727674 6.5
-2.0507612 0.38750172 -0.68388867 8.0279999
-1.7661313 0.3076784 -0.60449666 14.0255
-1.046809 0.31349957 -0.61555111 15.019501
-0.98426402 0.31787592 -0.65815341 15.518
0.83501828 0.36616153 -0.68486404 10.442166
0.91149843 0.32291797 -0.64768857 8.1075001
-2.0570595 0.48767486 -0.63307482 10.5
-1.9279377 0.43755877 -0.63327444 15.525499
0.84087598 0.48034239 -0.64293486 13.407875
0.93877053 0.45638657 -0.65194815 9.6126671
-1.9476271 0.57846898 -0.66324055 16.387625
-1.8767384 0.52861339 -0.63975549 15.02275
0.5769698 0.58477592 -0.63205844 17.1185
0.8777796 0.57130975 -0.61537671 15.607
0.93157464 0.5490613 -0.64879853 11.947583
-2.0446153 0.65798378 -0.63827056 12.5285
0.85789204 0.6603207 -0.65261102 16.983812
0.9307937 0.65478194 -0.67679888 13.9572
-2.0226092 0.70830542 -0.69758022 19.02475
-1.9869173 0.74719918 -0.61697924 17.527
-1.8675959 0.73981357 -0.65037239 18.01
0.83779484 0.74094051 -0.60737324 20.107
0.92435855 0.73515153 -0.67421883 15.781166
-2.022609 0.80255908 -0.67539698 15.028
-1.9691213 0.8638128 -0.64485204 19.324301
-1.8359278 0.82710975 -0.64049631 20.019501
0.93388504 0.84527332 -0.64174885 18.113832
-1.9392952 0.94068784 -0.62519228 20.689583
-1.9394461 1.0829926 -0.69198996 22.521999
-1.8486924 1.0869331 -0.66680866 23.018999
0.96272349 1.0127897 -0.68386322 20.364
-1.9402592 1.1253866 -0.63035291 23.022751
0.98436069 1.1452837 -0.67070121 22.113501
-1.9557298 1.2653065 -0.62875438 21.264126
0.99109566 1.2197589 -0.64478922 23.113001
1.0075135 1.2312264 -0.61448163 23.112499
-1.9431419 1.3395393 -0.64512074 22.13925
-1.9311621 1.4044609 -0.63401634 23
10.176743 1.9768645 -0.61665332 9.1094999
6.4827003 2.184269 -0.67262214 13.1105
7.5308309 2.1449232 -0.62950838 11.11
4.2169194 2.2578087 -0.62745893 18.1115
5.4420528 2.2861714 -0.68803209 15.111
4.8993182 2.3387308 -0.61605036 17.111
5.2240181 2.3099642 -0.66601765 16.111
3.0747561 2.4046485 -0.66707778 23.113001
3.6515286 2.4207861 -0.63261062 21.112
-2.0592873 0.18303515 -0.58157957 5.3125
-1.8508246 0.11883102 -0.5660488 10.0265
-1.7601094 0.1402213 -0.53771973 9.6924171
-1.0554643 0.18274832 -0.5121761 11.022
-0.91382128 0.10064109 -0.56552476 8.0144997
-1.8174169 0.25379357 -0.53267205 10.524125
-1.743084 0.20171773 -0.5675956 9.0235004
-1.2233465 0.29594955 -0.5536446 13.0175
-1.1380279 0.20381151 -0.580401 11.021
0.91672122 0.29144973 -0.50065732 8.1044998
-1.870384 0.39971542 -0.54950613 15.026501
-1.1744978 0.3760314 -0.56476825 15.01675
-1.0559989 0.31092185 -0.55076778 15.021
0.87341928 0.3675786 -0.54761708 10.239016
0.96552104 0.32833797 -0.57417893 6.5
-2.0654078 0.43082762 -0.50404114 9.0299997
-1.8851168 0.40868527 -0.55928761 12.773875
-1.7215401 0.45545319 -0.51295465 17.026501
-1.1695287 0.48121667 -0.56636834 18.0165
-0.83546162 0.4277398 -0.54260188 19.013
0.84168923 0.47819287 -0.54396904 13.855749
0.93866074 0.42607304 -0.543998 8.8609371
-1.9481891 0.58720839 -0.55385751 18.026501
-1.8476617 0.51900959 -0.53620815 15.024
0.84229839 0.57202762 -0.53772002 16.480625
0.94149035 0.55350298 -0.5632897 12.056194
-2.0349436 0.60917789 -0.56471825 12
-1.94906 0.60924739 -0.59392697 16.0235
-1.8644357 0.63216251 -0.53831744 16.524
0.81129527 0.66170686 -0.54650164 19.106001
0.93903589 0.67737967 -0.54052019 14.611333
-2.0213411 0.71522141 -0.59445924 20.025999
-1.9645264 0.78941607 -0.52720404 21.13825
-1.8647718 0.73284298 -0.5499692 18.022251
-1.789335 0.74877185 -0.54439491 19.0205
0.9379347 0.74984729 -0.55984116 16.356625
-1.9674898 0.84773934 -0.53144288 19.887688
-1.8422978 0.89987665 -0.51306051 21.021
0.94278246 0.82929152 -0.5692572 18.112625
-1.9639914 0.93098962 -0.5488584 19.012125
-1.8564547 0.9005115 -0.58091491 21.02025
0.86876088 0.91707069 -0.5964396 19.1105
0.9428404 0.93214369 -0.54896277 19.443583
-1.9678849 1.0582554 -0.51994932 19.029499
-1.8367016 1.0746553 -0.55809665 23.02025
0.9837867 1.0797304 -0.5820232 22.112249
-1.9402385 1.1424985 -0.5533337 21.776375
0.99166191 1.1739749 -0.55485201 23.11175
1.02202 1.2924905 -0.53781009 23.108749
-1.9455497 1.4241008 -0.55248356 23.028999
9.1697168 2.0573175 -0.56790769 10.1095
4.326756 2.2638249 -0.54602611 18.111
5.117444 2.2928476 -0.53975552 16.1105
5.4123502 2.273494 -0.56005853 15.1105
7.1496186 2.2163372 -0.5942992 12.11
3.0465438 2.3852596 -0.5928067 23.112499
3.8957262 2.3874824 -0.5804857 20.1115
4.0083103 2.3436301 -0.597583 19.1115
3.2790961 2.4179745 -0.56226528 22.612
3.756923 2.4247789 -0.51883286 21.11125
-1.7375466 -0.20024498 -0.48422682 3.5
-1.1774185 0.071717732 -0.4949396 7
-2.0521982 0.13087057 -0.45992526 5
-1.7891818 0.12904248 -0.44777006 10.028
-1.2512994 0.11733297 -0.44612855 8.77425
-1.1159081 0.19636777 -0.43323088 11.690666
-1.714052 0.2021181 -0.46641809 10.021749
-1.9397738 0.31768847 -0.41802186 14.0285
-1.191366 0.39152265 -0.46855247 16.018499
0.87910408 0.31807816 -0.47186661 9.1040001
0.93094134 0.33856297 -0.41858664 8.9598217
-2.0645366 0.42855057 -0.45643982 9.0305004
-1.8455383 0.4449074 -0.42797354 15.527249
-1.0400432 0.47640464 -0.4138197 19.018
0.86791861 0.45072791 -0.444628 12.978437
0.93949193 0.474774 -0.42485225 11.304925
-2.0491211 0.54593682 -0.45545575 11.0305
-1.9153606 0.59125984 -0.46673661 16.025
-1.8409123 0.57037723 -0.42468846 16.025499
0.82604015 0.52986848 -0.48492908 16.1045
0.93296522 0.55756658 -0.46054447 13.107417
-2.0331726 0.62817651 -0.45195746 12.5305
-1.9543979 0.64923519 -0.47143537 19.0275
-1.8116322 0.62098056 -0.4233622 17.022249
0.88580585 0.67645782 -0.46293753 18.60375
0.95110977 0.65986454 -0.4591462 14.525958
-2.0291753 0.768664 -0.44609132 14.5305
-1.9241891 0.77000737 -0.42783633 20.276749
0.85761553 0.76287758 -0.49505743 20.6045
0.96438211 0.73913634 -0.43963093 16.860374
-1.9757576 0.8533603 -0.42757013 21.026749
-1.8721318 0.81327426 -0.49372464 20.0245
0.83063328 0.84784222 -0.41929603 23.103001
0.96702492 0.86610711 -0.44298929 19.305
-1.9508679 0.95841783 -0.42721641 19.528
0.96947455 0.94670844 -0.47597626 19.942751
-1.962309 1.0579929 -0.43095678 19.0305
0.98582214 1.04763 -0.42100412 20.440332
-1.9416513 1.12325 -0.46693975 21.652437
1.0087154 1.1564988 -0.48184317 23.1105
-1.8748578 1.2909671 -0.45455295 23.030001
1.0294241 1.2123159 -0.41201723 22.60675
1.0719066 1.3133066 -0.46558022 23.1075
11.131512 1.8938926 -0.45694375 8.1090002
7.0299597 2.1355653 -0.4126671 12.1095
7.6405139 2.1456625 -0.46541062 11.1095
4.3325791 2.2650492 -0.44377434 18.1105
4.4652457 2.2612493 -0.4637613 17.1105
5.2854195 2.2860138 -0.43000939 16.110001
5.4208064 2.287008 -0.43721002 15.11
3.9539204 2.3523962 -0.45722795 19.703501
3.8141627 2.4283342 -0.45820481 21
5.0604811 2.4010336 -0.41219163 17.110001
-1.6685286 -0.0014237138 -0.30826598 8.0299997
-2.0103016 0.0082768872 -0.32187292 3
-1.7926521 0.098055474 -0.38156742 10.029
-1.8652456 0.19069408 -0.3844161 12.029
-1.7107016 0.17607471 -0.37331128 9.3594999
-1.6491871 0.15080833 -0.38608599 9.026
-1.2411064 0.14861794 -0.30726829 10.027
-1.1283413 0.19899173 -0.38017923 12.025249
-1.6429187 0.20022255 -0.35361964 11.023
0.8985849 0.29442662 -0.38436708 8.1019993
0.94951725 0.27728531 -0.33929092 6.050375
-1.7670524 0.36265951 -0.35569477 14.02775
-1.2449312 0.3529284 -0.36566991 15.02075
-1.0504861 0.31983602 -0.35883573 16.025499
0.952645 0.36316678 -0.35941646 9.1872072
-1.8138013 0.4457714 -0.3451792 16.862583
-1.7600949 0.48040861 -0.33696449 15.026668
0.88054854 0.46509767 -0.33722591 13.101
0.98802924 0.48260334 -0.36443278 11.109
-2.04684 0.59810996 -0.31907141 12.032
-2.030158 0.6290707 -0.31643975 13.032
-1.8429378 0.61972326 -0.32991719 17.026751
0.85792172 0.64256525 -0.33990857 18.351124
0.97566783 0.64458275 -0.34261748 15.016062
-2.0454447 0.77837658 -0.31511298 15.032
-1.8467991 0.7419486 -0.37249511 19.0245
0.96212232 0.73283702 -0.38316232 17.30275
1.0134723 0.72602987 -0.35071447 16.1085
-2.0145154 0.82323933 -0.31381273 16.032
-1.9321504 0.89572847 -0.38576812 23.0285
0.82232946 0.8464573 -0.31117013 23.1005
0.97749108 0.85127991 -0.35529152 19.275415
-1.8116753 0.99802184 -0.38309404 23.022499
0.97188842 0.90890026 -0.31079474 20.108
-1.9290963 1.0483932 -0.33844241 21.652813
-1.8182417 1.0017262 -0.34063134 23.023001
0.99441683 1.0477217 -0.35363477 22.1085
0.98728293 1.1547607 -0.34643224 22.105751
1.0542063 1.1820095 -0.30614111 22.105
-1.9066304 1.2646786 -0.33296636 22.0315
1.0987818 1.2835305 -0.3698287 23.106001
-1.903471 1.324074 -0.33431074 23.0315
1.0984122 1.3312526 -0.30701315 23.105
1.1063511 1.3565313 -0.3408066 23.105499
9.234602 2.0388737 -0.36415645 9.1090002
6.3241558 2.1969883 -0.37813303 13.1095
4.4048676 2.2837436 -0.36445269 18.110001
5.2311883 2.2793303 -0.30582449 16.109501
5.3796978 2.2723041 -0.32884184 15.1095
3.9783435 2.3507204 -0.3232097 20.110001
3.1562819 2.405833 -0.39266601 23.111
3.4558957 2.4080637 -0.31550416 22.11025
3.761219 2.4477797 -0.35001099 21.11025
-1.6100945 0.050982267 -0.21457097 9.5314999
-1.0855902 0.087007605 -0.24036247 8.0284996
-1.6606829 0.18242347 -0.2429035 9.2780628
-1.3214048 0.16245258 -0.21911541 11.024
-1.2476017 0.11683525 -0.20711526 9.0290003
-2.0151277 0.2821396 -0.27817872 7.5
-1.7722405 0.20808357 -0.23581244 12.031
-1.6058185 0.24063082 -0.25319877 11.77425
-1.1172123 0.20466693 -0.27965286 12.0275
-2.0262926 0.37384018 -0.2455256 8.6995001
-1.9519079 0.35747427 -0.27467304 14.0305
-1.743062 0.39739013 -0.22525489 13.52825
-1.6498865 0.34792793 -0.21961513 14.02475
-1.2610884 0.33680665 -0.26750618 15.022625
0.94824541 0.3517856 -0.25066289 9.599
1.0164959 0.35647491 -0.22152446 8.9734993
-1.8396542 0.47157031 -0.24145716 17.155811
-1.7411537 0.42478231 -0.27676898 15.028875
0.71583658 0.43371528 -0.27612692 12.1045
0.94961548 0.42562598 -0.27394634 11.0995
1.0332415 0.4795593 -0.24494356 11.1065
-2.016675 0.54832172 -0.23354222 11.449583
-1.7318496 0.52834266 -0.242705 16.359001
0.88813579 0.53594506 -0.2868112 15.433167
1.0208004 0.52640557 -0.2545597 11.272001
-1.83095 0.65531403 -0.24738064 17.527874
0.97762048 0.66774845 -0.20576426 15.683958
1.0023899 0.6351617 -0.25930136 14.5069
-1.9556381 0.74428016 -0.28744268 21.030001
-1.8208466 0.74875998 -0.28158361 20.527
0.85133427 0.79032302 -0.24442628 22.099001
0.95380765 0.73454064 -0.27293441 18.43675
-1.9297417 0.83601481 -0.2738874 20.0275
0.94348568 0.85713482 -0.27568763 21.1035
-2.0057516 0.90247762 -0.28194433 23.030001
-1.990193 0.9717356 -0.20538044 18.033251
-1.8320422 0.92564201 -0.28578058 22.273874
-1.9619051 1.0397044 -0.23467413 18.699501
0.98777556 1.0348104 -0.20835131 23.106001
1.007102 1.0523566 -0.2805486 22.607168
-1.917223 1.1988168 -0.21796545 21
1.0733202 1.1736457 -0.24359129 21.604
-1.9110494 1.2348033 -0.22710641 22.010834
1.0763739 1.2617931 -0.23410462 22.853876
-1.8738725 1.3164549 -0.23045026 23.016251
11.389737 1.8801836 -0.21271849 8.1084995
7.1115756 2.1331005 -0.27940646 12.109
4.3935318 2.2528467 -0.2553952 18.109501
4.5894761 2.2767038 -0.25855705 17.109501
5.3368626 2.2719381 -0.2049368 15.109
5.6477442 2.2045567 -0.22135839 14.109
6.2464528 2.212244 -0.23165372 13.109
3.9937582 2.3340054 -0.23154396 19
3.5434752 2.4172318 -0.20148227 22.109501
3.8224897 2.4201334 -0.22074121 21
-1.659471 -0.0078765051 -0.10201967 8.0332499
-1.5759768 0.020551817 -0.12635796 9.033
-1.154292 0.073804997 -0.11889894 8.0310001
-1.7029334 0.13950549 -0.17860283 11.032
-1.5558499 0.18349791 -0.1849854 10.029
-1.3440118 0.13320512 -0.12372562 10.02575
-1.2464645 0.11046939 -0.15600774 9.0299997
-1.1878229 0.18300615 -0.13879062 11.0305
-1.993721 0.20165497 -0.18005791 5.7692308
-1.633718 0.22787154 -0.17913483 13.532
-1.5846152 0.22977039 -0.16513661 11.5255
-1.1109788 0.21971901 -0.18191233 12.52975
-1.9956344 0.34547815 -0.12201089 8.5342503
-1.8482537 0.36694297 -0.11328925 15.03275
-1.6854556 0.38174763 -0.18032506 13.029
-1.5949159 0.36588109 -0.14147854 14.52575
0.87850899 0.35604957 -0.19076665 8.1025
0.96755946 0.37495843 -0.12197405 9.7630005
-2.0244758 0.46365076 -0.18646529 10.0335
-1.7605333 0.41778597 -0.16860987 15.2805
-1.6755905 0.48197702 -0.17006679 15.693334
0.7313633 0.40306225 -0.18486609 10.769
0.94595993 0.46120393 -0.19992957 12.497999
1.0176686 0.47252366 -0.17168151 11.766666
-1.6948676 0.55300057 -0.10762799 16.030001
0.94511378 0.59001756 -0.11082885 15.762834
-2.0176156 0.60852003 -0.1892069 12.2355
-1.9109352 0.69765204 -0.18115908 17.528749
-1.8253871 0.64420092 -0.13686118 18.015564
-1.7960168 0.67440873 -0.15897101 18
1.0186727 0.66701603 -0.1689688 15.438416
-1.920597 0.7724002 -0.15113352 22.032
-1.7801136 0.72188562 -0.13847446 19.139334
0.89776671 0.76293457 -0.18547189 20.09775
0.9007839 0.78649378 -0.10210589 21.096001
1.0399244 0.71876025 -0.11311157 14.1015
-1.9057646 0.84063333 -0.18021056 21.530125
-1.8788271 0.85825855 -0.10625017 20.029751
-1.7857039 0.83131641 -0.11537206 21.359499
0.9661994 0.88994467 -0.19262514 22.098
1.0182949 0.83139688 -0.16422191 19.105
-1.9745615 0.96810246 -0.18564659 18.142857
-1.8081667 0.92646313 -0.14777222 22.859041
1.023945 0.96797031 -0.14893943 21.435583
-1.9245524 1.0686649 -0.15581875 21.531376
-1.8815833 1.0659969 -0.14872588 23.029125
1.0222812 1.0577949 -0.18289171 22.771997
-1.9293723 1.1763071 -0.13506269 21.034
1.060758 1.1286958 -0.14583419 23.1045
1.1162367 1.190538 -0.14684178 21.102501
-1.8942575 1.2473497 -0.1316455 22.534
1.1047606 1.2641233 -0.15453891 22.352627
-1.8750631 1.3170502 -0.1498417 23.033751
10.265414 1.973501 -0.18922356 9.1084995
7.6934261 2.1752486 -0.12031239 11.1085
4.4405317 2.2816145 -0.150951 18.108999
4.612606 2.2677343 -0.16950044 17.108999
5.233624 2.2538769 -0.18839094 16.108999
3.943815 2.3551431 -0.16823487 19.666668
3.8172216 2.4308376 -0.18713462 21
-1.9432787 0.0014413148 -0.062277071 2
-1.5508648 0.084720232 -0.096819088 10.0335
-1.1591644 0.068224832 -0.046456859 8.0325003
-1.6700361 0.16916831 -0.076569915 11.533625
-1.5473344 0.17410451 -0.045243055 10.02925
-1.1376972 0.1984981 -0.022913985 11.533125
-1.6233976 0.21690026 -0.07007315 11.53225
-1.5636832 0.26992092 -0.074203841 13.280251
-1.0987909 0.24799059 -0.071374252 13.032249
1.1135626 0.2440269 -0.047783751 3.75
-1.9683973 0.34900841 -0.01867469 8.7021666
-1.720906 0.39911824 -0.073873147 16.533501
-1.6573532 0.37906778 -0.070469931 13.280625
-1.5668571 0.35964119 -0.031678542 14.029375
-1.2273588 0.34907809 -0.088048071 16.025999
0.76243359 0.36898842 -0.094517753 9.1002502
1.0085565 0.31622297 -0.073820472 8.0955
-1.5985776 0.42523265 -0.053974364 15.527125
0.99217981 0.44863418 -0.022407696 11.544475
1.0493693 0.45790622 -0.092684403 10.1035
-1.9743643 0.56062216 -0.03138037 12.035333
-1.8555784 0.58940923 -0.089077294 16.029999
-1.7758752 0.52445054 -0.032479122 18.534
-1.6197278 0.5265373 -0.039346311 17.52725
0.96268332 0.50284487 -0.079767793 13.0955
1.0327601 0.54747587 -0.076095194 12.603251
-1.7359545 0.6438297 -0.06838879 18.195333
-1.6929091 0.6643697 -0.0397687 19.52725
0.96732283 0.64695305 -0.098863691 17.096001
1.0536783 0.64425015 -0.041739039 14.550112
-1.9813143 0.73055232 -0.056793414 15.035
-1.8521073 0.71259201 -0.056135178 21.033501
-1.7641786 0.75428724 -0.024720466 21.141945
1.022725 0.72391135 -0.048132032 17.595249
-1.9294366 0.86923486 -0.093273699 23.032749
-1.8589121 0.86777627 -0.048989415 21.0305
0.96530855 0.84830266 -0.02606225 21.094749
1.0276413 0.87443376 -0.067081906 20.099377
0.97573841 0.91114277 -0.08880204 22.096001
1.0362903 0.92304391 -0.042400736 20.436001
-1.8732473 1.0674456 -0.030443072 23.03075
1.0344746 1.0326016 -0.077851772 22.932999
1.0766231 1.1084044 -0.058942258 21.101
1.1407057 1.1674467 -0.06565173 20.60125
-1.8872199 1.2629193 -0.03560552 23.03525
1.1804816 1.2888471 -0.039609954 22.101
1.1479232 1.3587167 -0.05422996 23.10125
4.2997413 2.2962081 -0.062481128 18.1085
5.3323398 2.2977591 -0.083949447 16.1085
5.5526347 2.2521806 -0.091142505 15.1085
4.0194173 2.3118567 -0.011390787 19.10825
4.9969778 2.3645537 -0.073317371 17.1085
3.7504337 2.4710672 -0.0056687966 21.10825
-1.4648908 -0.023736747 0.033423111 8.0360003
-1.9253687 0.0021853074 0.029667813 2
-1.4939884 0.0025146739 0.088041082 8.3701668
-1.1330984 0.073335782 0.070538402 8.0349998
-1.5956638 0.11485978 0.01307188 10.53525
-1.4848545 0.19483212 0.001323428 11.028
-1.0450673 0.1982359 0.06017673 12.0355
-1.6275948 0.25677967 0.0082660168 14.035
-1.547291 0.23500538 0.051384933 12.534374
-1.4475484 0.20349349 0.089603007 12.0295
-1.0382116 0.27017814 0.022542864 14.03475
-1.9810349 0.33834562 0.026624963 8.0360003
-1.8281173 0.37535885 0.0045862645 15.5345
-1.773908 0.36141828 0.065197453 15.368833
-1.5020568 0.3032642 0.033990588 14.0285
0.77917832 0.39852911 0.035767898 10.0975
-1.9563054 0.47662416 0.064629719 11.0365
-1.7465093 0.41010907 0.090795711 16.035999
-1.652477 0.46617526 0.065994687 16.534248
-1.5445824 0.40968144 0.04380497 15.528625
0.98774076 0.40718603 0.050623178 10.093
1.0667331 0.45395243 0.077802025 10.0955
-1.8258351 0.58825272 0.080328703 16.365667
-1.7481219 0.53602272 0.057486769 18.86875
-1.6116083 0.55592263 0.065373272 18.028873
0.97416353 0.5582329 0.0019938052 14.427333
1.0603118 0.53870654 0.02766992 12.8475
1.1399959 0.50761211 0.04219006 9.099
1.2121688 0.54206926 0.089121103 9.5985003
-1.9740877 0.62144125 0.061455775 13.0365
-1.845793 0.6036225 0.005671978 16.53125
-1.7535858 0.64969903 0.044142574 18.032
-1.6553028 0.67103475 0.075853288 20.028999
0.98898292 0.65339196 0.098105013 16.092333
1.0777764 0.61094809 0.035940304 12.098999
-1.973485 0.71926749 0.06406159 14.5365
-1.8391269 0.73084396 0.045710489 22.035
-1.7549253 0.74312216 0.097846955 19.032749
-1.689693 0.72734755 0.077394754 21.028999
1.0660065 0.74466389 0.07103572 16.873446
1.143147 0.79689765 0.09211956 15.0985
-1.9636626 0.84986699 0.084647015 16.536751
-1.7529308 0.84871048 0.035689432 21.696167
0.99429119 0.85283691 0.070695728 20.093
1.0693601 0.81844318 0.024722006 18.434668
-1.7601566 0.93590605 0.050857782 23.0285
1.0669551 0.92734385 0.017488565 20.434832
-1.9459302 1.0482364 0.064255834 19.536499
-1.853549 1.0654583 0.094800442 23.032501
1.0776798 1.0246592 0.054636687 22.100876
1.114429 1.1421416 0.037771888 21.600376
-1.8997202 1.2281873 0.043842234 22.036251
1.170542 1.2209859 0.0099191964 21.35025
1.1839423 1.3942298 0.00016660988 23.1005
1.1768987 1.4238557 0.075792894 23.099501
11.624456 1.870643 0.042704243 8.1079998
10.272604 1.9908749 0.040958446 9.1079998
7.3928652 2.1308703 0.043168921 11.108
4.7363358 2.2828386 0.049211152 17.108
5.2317166 2.2848535 0.036564521 16.108
5.6147275 2.2554867 0.03492206 15.108
6.0607543 2.2113481 0.030612672 14.108
-1.4651617 0.090263404 0.1174539 8.0340004
-1.3553343 0.054894444 0.14403363 9.5384998
-1.8848943 0.15923148 0.16049027 5.2222223
-1.4822016 0.10871249 0.18675011 8.0349998
-1.8988605 0.22773683 0.10893745 7
-1.6918567 0.27945319 0.11295067 14.0365
-1.5779725 0.24139085 0.12871641 13.537167
-1.4275148 0.23428485 0.1752252 12.530917
-1.3667681 0.28360984 0.19715808 15.539499
-1.0299097 0.24901301 0.11178878 13.03675
-1.8864164 0.3533991 0.17937869 8.7880001
-1.6141095 0.36590847 0.17375003 14.869916
-1.4588408 0.32861337 0.11639515 14.529875
0.86819452 0.33678305 0.18868859 7
0.98358035 0.36817887 0.10371283 9.092
1.0135937 0.33821821 0.16646613 8.3409996
-1.8970839 0.45454028 0.15801185 11
-1.7629776 0.48209068 0.17522925 14.533751
-1.6066809 0.48227981 0.11520457 15.533501
-1.5064046 0.44600415 0.15952343 16.697166
0.66907805 0.43183938 0.19477911 12.0935
0.71723741 0.43729514 0.19324939 12.094
1.0581422 0.42265344 0.14735258 9.8717775
1.1420952 0.45634216 0.16588531 8.0970001
-1.9194335 0.51682395 0.17532256 12
-1.7445383 0.54096138 0.14309859 18.536751
-1.5741756 0.55997038 0.18083574 18.28075
1.1026944 0.51414442 0.13767573 11.099
1.2532884 0.55698055 0.15055506 9.5977497
-1.9158194 0.63193405 0.18724656 13.21875
-1.8457276 0.64193124 0.1754777 15.701668
-1.7827722 0.67723513 0.12000987 18.033001
-1.5853606 0.6105907 0.13840461 19.030001
0.9920091 0.60883367 0.15618694 15.091249
1.0961299 0.66722381 0.11777803 15.0995
1.1504551 0.65963936 0.150059 12.0975
-1.6452599 0.7307868 0.17515844 21.0305
1.0790125 0.77000266 0.14164716 17.427834
1.1305931 0.7437287 0.19297364 14.76425
-1.9334046 0.87984979 0.1356951 20.036751
-1.8613269 0.84022582 0.1731558 23.036751
-1.7214576 0.89192003 0.15273532 23.030001
1.0657635 0.84993976 0.130853 17.985277
1.2887729 0.89463377 0.1676266 15.098
1.0967842 0.91706425 0.1092014 19.7665
1.1027372 0.94187212 0.13881627 20.092501
-1.8529449 1.0798075 0.1706219 23.033501
1.1436774 1.0612305 0.1740672 21.432167
1.2473133 1.0738444 0.13323818 18.098499
-1.8844864 1.1838176 0.10295468 22.037001
1.1599922 1.1569089 0.19727468 22.431833
1.2222648 1.1668293 0.1287362 19.848625
1.2323465 1.2535372 0.14376241 20.765167
1.1546315 1.4012896 0.17461939 23.098
7.3159575 2.1839578 0.19330984 12.1075
4.8008757 2.2901943 0.14334425 17.1075
5.5992541 2.2301297 0.16193226 15.1075
5.9358745 2.2051528 0.18406197 14.1075
4.0523424 2.3095036 0.12705195 19.1075
5.1992521 2.3199012 0.15425077 16.1075
3.4152324 2.5085688 0.18885764 23.107
3.6568875 2.5154333 0.15317142 22.10725
-1.4470787 -0.064899668 0.26938695 6
-1.3137447 -0.038109213 0.21185671 7
-1.8245199 0.0042425096 0.20977074 2
-1.157882 0.085021265 0.26822191 8.0384998
-1.0144318 0.082357131 0.22079974 8.0389996
-1.5401185 0.14334248 0.21869351 11.53875
-1.3407226 0.11791881 0.26279062 11.540751
-1.7089192 0.29476792 0.21703701 14.038
-1.5661664 0.26684898 0.22575545 12.787
-1.4995419 0.25098354 0.25606686 11.036
-1.3664148 0.28217861 0.22580998 15.04
-1.0129505 0.22690046 0.22669369 12.039249
-1.5868667 0.34121338 0.21553692 12.535
-1.4474336 0.35180137 0.23057453 14.8318
-1.3683894 0.31772909 0.24020933 16.040251
1.0234287 0.32305273 0.20046654 8.0904999
1.1327975 0.38154414 0.21448731 8.0974998
-1.4275727 0.46257105 0.24393646 18.871416
0.99949408 0.48016649 0.22363466 12.09
1.1550889 0.45291257 0.25883645 10.0905
1.2066846 0.48873141 0.25731319 8.0959997
-1.9032789 0.52600074 0.21902543 12.0385
-1.8839943 0.53106427 0.25698581 12.039
-1.7394292 0.59868199 0.24278598 20.03825
-1.5296415 0.51670456 0.25629145 18.032
1.1264555 0.53101367 0.21076724 11.09775
1.3194339 0.5572114 0.27795556 8.5962505
-1.736009 0.69952744 0.25763357 18.035
1.0239068 0.65094787 0.24271627 15.756749
1.1421022 0.68283916 0.24995373 14.76075
-1.8756882 0.76089227 0.21851999 16
-1.7323846 0.76567942 0.2411603 19.201458
-1.6230065 0.71101922 0.27075025 21.032
1.3232616 0.74604547 0.24160002 12.097
-1.9104458 0.85827684 0.24202287 17.03875
-1.8082741 0.82300085 0.28090864 23.0385
-1.7249236 0.88339645 0.24737729 21.700417
-1.6847861 0.84178054 0.24933477 22.614876
1.1130273 0.81841201 0.21762308 17.7645
1.288731 0.87673652 0.22198693 14.59725
-1.9092516 0.96753764 0.22957322 18.703461
1.0757408 0.90203929 0.21845934 20.091
1.1440988 0.96041679 0.21670061 19.848
1.2275892 0.93294507 0.24657847 16.09675
1.3278098 0.92696387 0.25490588 15.097
-1.864234 1.0695789 0.27812135 22.618168
1.1886508 1.0761045 0.28956449 21.097
1.2925552 1.0915848 0.22113086 18.0975
-1.8854444 1.1226206 0.22939593 21.038624
1.1860163 1.1516082 0.29480475 22.097
1.2487888 1.1725711 0.25515532 19.097
1.238482 1.256669 0.24669302 20.4305
1.1843796 1.3956922 0.23844577 22.59725
1.2244366 1.3584542 0.20515434 22.09775
9.3702374 2.0131233 0.24640614 9.1075001
7.5184221 2.1219876 0.21343631 11.1075
4.0393262 2.2960277 0.21903318 19.107
4.8110156 2.273793 0.25340697 17.107
5.6161857 2.2131188 0.28987077 15.107
5.1018081 2.3180039 0.25935531 16.107
3.4958827 2.4825311 0.27430826 22.106501
3.839252 2.43647 0.25078773 20.60675
3.3903751 2.5344055 0.26574793 23.106501
-1.5932951 0.035681777 0.35867921 8.7905006
-1.3231348 0.08024881 0.36146349 9.0345001
-1.1142074 0.080884233 0.31354493 7.5197501
-1.7958862 0.11689278 0.37304643 5
-1.4883657 0.10345635 0.32663882 8.0369997
-0.98067951 0.17434832 0.30262589 10.041
-1.7612251 0.27769056 0.31690997 8.04
-1.6672699 0.25823799 0.3432253 13.04
-1.5374488 0.26470605 0.3248269 11.03675
-1.4017665 0.25002667 0.31558704 12.783376
-1.343215 0.25118709 0.35244194 13.789666
-0.93469894 0.26095554 0.31078714 13.041833
-0.88455743 0.28663313 0.37227088 14.043667
-1.6526833 0.36673972 0.33142492 9.5404997
-1.4294955 0.35613441 0.34119791 15.033701
1.0503055 0.36268544 0.31946653 8.0887499
-1.9073639 0.49096134 0.36241245 14.0355
-1.8122885 0.47195432 0.35880029 17.039499
-1.4804906 0.46591321 0.33951229 17.033501
1.0801773 0.44870666 0.30926049 10.089251
1.1270151 0.49623334 0.31028384 10.592751
1.3771744 0.43352428 0.38666141 6
-1.7560402 0.50127506 0.37589115 18.040001
-1.524204 0.55544567 0.36536112 18.533751
-1.4284096 0.51799572 0.3560636 19.875208
1.159266 0.56064892 0.31241733 12.096
-1.7364013 0.62042344 0.36653674 14.040751
-1.5720049 0.6192565 0.38936287 19.034
1.0956233 0.68721932 0.38062137 14.5885
1.1703238 0.62459666 0.3788549 13.095
-1.9081861 0.72303075 0.32574728 16.536667
-1.861004 0.7196672 0.35240597 15.04025
-1.7107264 0.78363341 0.36192292 19.536499
-1.6220292 0.74924058 0.36906502 21.533501
1.1726669 0.75894755 0.34342512 15.427083
1.3470608 0.73740995 0.34193289 12.09575
-1.8645332 0.84463942 0.36871856 19.540001
-1.6707919 0.8373751 0.36155778 22.283251
1.1675745 0.87105888 0.31776857 18.096251
-1.8769455 0.99985427 0.33970016 22.0355
1.1492364 0.93743974 0.36402601 19.092375
1.2304864 0.955127 0.36126691 17.262209
1.3157985 0.90268886 0.30719572 15.096251
-1.8543601 1.0223119 0.34943566 20.538
-1.7750416 1.0365127 0.38389665 23.036501
1.2205852 1.0873969 0.35533431 21.096001
1.3206924 1.0897249 0.34880507 17.096001
1.2333336 1.1663331 0.35744262 20.9055
1.241045 1.2795178 0.3270992 21.429667
1.2439814 1.3675665 0.38055176 21.5
1.1892421 1.4032782 0.31155616 23.096251
10.867704 1.9192245 0.30444288 8.1075001
7.6542945 2.109139 0.38997078 11.107
4.8505554 2.271492 0.36615556 16.106501
5.4735804 2.2259283 0.39654222 15.1065
5.8359041 2.2022629 0.30427524 14.107
3.0435188 2.3651006 0.38342711 23.105499
3.9473677 2.3587954 0.39132893 20.106001
4.0778823 2.3071675 0.31415561 19.106501
4.8548822 2.30512 0.35564223 17.106501
-1.337587 0.09173853 0.45847154 9.0360003
-1.2923303 0.071038082 0.4489941 9.7108335
-1.5337383 0.14662988 0.4850592 11.042749
-1.4797732 0.17796142 0.43182093 9.0384998
-1.3011488 0.13439989 0.4578765 11.04425
-1.2962639 0.15920137 0.4404431 11.771749
-0.92431438 0.15263325 0.43360859 9.0439997
-1.8022202 0.28293228 0.45844194 8.04175
-1.7985567 0.28334254 0.49400571 7.5
-1.5541823 0.29476857 0.46694285 11.0385
-1.4714519 0.20412575 0.49082583 9.3726664
-1.3512247 0.25602782 0.43190086 13.331291
-1.2988148 0.23021147 0.4779596 13.25
-1.8164883 0.3676298 0.47955036 9.0419998
-1.6470577 0.30761269 0.44181699 14.0415
-1.5652485 0.37214661 0.40537027 13.03775
-1.4079249 0.3596971 0.41465309 15.235001
-1.3572718 0.35909021 0.47993097 16.210958
-0.71501774 0.32087296 0.46161592 15.048
-1.8151785 0.44550434 0.45982981 12.360833
-1.4454833 0.4092752 0.42541343 16.035
1.1852586 0.42754084 0.42988589 8.0939999
-1.9105389 0.55366033 0.40483099 15.036
-1.8600862 0.56451476 0.46431538 14.039249
-1.5018216 0.53422022 0.4073078 18.0345
1.1812603 0.55994284 0.4089888 11.0945
1.4067841 0.58042288 0.43318126 8.5947495
-1.861784 0.65928328 0.45176768 14.0415
-1.54796 0.62525642 0.4633424 19.606644
1.2529986 0.6721068 0.43611211 12.09425
1.4178947 0.60459763 0.49858254 9.0939999
-1.8800714 0.76458526 0.46566457 17.039249
-1.7242792 0.75508165 0.44757652 19.0375
-1.65013 0.75724989 0.45917815 20.036377
1.246576 0.77700615 0.42634934 15.089
1.3718402 0.73822898 0.41261542 11.095
-1.8082994 0.86288124 0.45912296 22.791
-1.6731615 0.88575983 0.45443508 23.034626
1.2307949 0.85309559 0.44843984 16.591499
-1.8579974 0.94988167 0.45978928 20.537001
-1.7036737 0.99230212 0.47144377 22.038
1.149619 0.94004589 0.46609706 18.087999
1.2620534 0.98880655 0.459102 17.094332
1.357882 0.96173406 0.45075092 15.094749
-1.7448016 1.0395757 0.40599263 23.037001
1.2589142 1.0312321 0.48156536 19.09425
1.3254755 1.0865974 0.40981883 17.095249
-1.8428273 1.1846972 0.43022209 22.04125
-1.7456994 1.1021048 0.48611647 23.038
1.1422017 1.1110071 0.43466723 21.088499
1.244155 1.1716053 0.42954093 19.094749
1.2547902 1.2563951 0.44387603 21.091999
1.2394506 1.3388873 0.45428485 22.35475
1.1712682 1.4848549 0.43353426 23.094749
9.0152702 1.7891055 0.45892471 9.1070004
4.0578423 2.2819569 0.44589922 19.105751
4.7764549 2.2781405 0.46057978 17.106001
4.8756871 2.2636518 0.47970721 16.106001
5.7062135 2.2292237 0.4238072 14.1065
2.9921987 2.3268867 0.44991466 23.105
3.8947577 2.3832355 0.47655079 20.105499
-1.5896883 -0.0078291818 0.5846954 8.0434999
-1.805962 0.020893544 0.51149303 6
-1.7680564 0.070665598 0.53685743 4
-1.601127 0.072637215 0.59003979 9.0434999
-0.94195843 0.049415 0.53903508 8.5498753
-1.3200803 0.13891518 0.56474829 10.54175
-1.2821927 0.14827809 0.52475929 11.0455
-1.4766138 0.20727454 0.58923978 9.0404997
-1.381995 0.29740861 0.56241333 14.0375
-1.2989278 0.24825892 0.52701551 14.0455
-1.8304937 0.32946348 0.53764433 11.03775
-1.6772773 0.3033326 0.5557726 8.0434999
-1.573746 0.38635468 0.53959942 10.54375
-1.3875334 0.34290707 0.55372846 14.957334
-0.63136595 0.32854292 0.51464635 15.0505
-1.5764488 0.40503046 0.55886894 11.044
-1.4366906 0.4734531 0.57474518 17.457916
1.228352 0.42463019 0.54285377 8.0906668
-1.8638281 0.56076902 0.5433116 15.03775
-1.7399009 0.55223566 0.54010254 18.04225
-1.4607888 0.53857744 0.53908283 18.790627
1.1702492 0.5207203 0.51997453 10.087
1.2601705 0.51839077 0.54495341 9.5901251
-1.7505792 0.69689888 0.53943521 15.043
-1.679864 0.65588611 0.59582227 15.044
-1.5383416 0.6471222 0.56073207 18.597281
-1.4836886 0.63434112 0.5743044 21.04475
1.2952404 0.69494826 0.58556408 13.0925
1.3469006 0.61054301 0.58973527 11.0875
-1.838423 0.79352582 0.55230129 18.018749
-1.7671999 0.77210498 0.52140278 22.042
-1.6220132 0.72836709 0.53822976 16.043501
-1.5877047 0.71275061 0.52452618 21.035999
1.1648301 0.77164066 0.50102746 15.0875
1.3987374 0.73551625 0.50649196 11.094
-1.8243964 0.8678847 0.57356429 19.5
-1.62481 0.8372981 0.53731298 22.285999
1.2892213 0.83876926 0.57722855 15.342751
-1.8237123 0.91205156 0.5441801 23.042
-1.6667849 0.90813106 0.5890373 21.705252
1.2373356 0.91058743 0.51221186 16.587999
1.3719652 0.92911637 0.59612811 14.046625
-1.8263589 1.0786008 0.56664348 20.042999
-1.7175401 1.0871958 0.51403183 23.0385
1.2899828 1.0572685 0.56759948 18.759834
1.3423296 1.0858072 0.54555345 16.84375
-1.7147577 1.1086634 0.55416191 23.039
1.2691905 1.140727 0.53378981 20.593624
1.3024864 1.182754 0.56581604 20.087999
-1.819862 1.2131367 0.50024039 22.04225
-1.7933547 1.2477579 0.57610232 22.543251
1.1826373 1.2188548 0.5617767 22.08725
1.2408378 1.2345347 0.52858025 19.468624
1.2301853 1.356614 0.55616111 22.235229
1.1695298 1.4576931 0.53545696 22.895584
7.7518706 2.0982838 0.54515421 11.1065
5.6854587 2.1999764 0.55213261 14.106
7.3703032 2.1604342 0.53957552 12.1065
4.0673504 2.2786081 0.58134156 19.105
4.7609591 2.2444723 0.5687812 17.105499
5.5503826 2.2343621 0.52819818 15.106
3.8759441 2.366519 0.5658831 20.105
-1.6187969 0.087080531 0.67921448 9.0445004
-1.2553636 0.070823252 0.69490248 8.5402498
-1.7761457 0.19823125 0.63523948 6
-1.3185525 0.11982363 0.64406663 10.039
-1.2451842 0.11472806 0.64597577 10.0435
-1.4729519 0.23586203 0.67076939 10.0415
-1.3225683 0.24729721 0.64851642 13.210999
-1.812274 0.3671906 0.6418612 11.289
-1.6756033 0.39223146 0.65245551 15.044
-1.4003413 0.36145526 0.64514464 14.538626
-1.3481381 0.31750086 0.63298106 14.796499
-1.4480526 0.44951335 0.64620399 16.538374
-1.3925428 0.41255888 0.67600375 16.546749
1.2888262 0.48401019 0.61971337 9.0917501
-1.7507303 0.56274343 0.61989284 18.043251
-1.5919338 0.53670877 0.68514508 15.041
1.4315076 0.54445577 0.66134369 8.0462494
-1.5315195 0.65127701 0.68432415 19.5385
-1.4919527 0.62505633 0.67186022 19.54225
1.335739 0.67783451 0.63272613 11.464561
-1.7646383 0.77543843 0.66327053 21.543751
-1.6665279 0.73916733 0.63063675 16.0445
-1.5503325 0.73491919 0.62871212 22.045
1.3411883 0.79410613 0.68958604 14.089001
1.4137486 0.72973812 0.60441649 11.093
-1.8365262 0.85557681 0.62130904 17.54125
-1.7779651 0.83918685 0.62125993 19.375416
-1.6651144 0.8582738 0.67149526 20.040501
-1.5987264 0.84239423 0.61332244 23.0445
1.2881635 0.8770538 0.60089743 15.58725
1.3338377 0.87151909 0.65901864 15.339375
1.4141834 0.82740378 0.66388977 12.0925
-1.8255867 0.95920449 0.6459989 19.177959
-1.6588097 0.96149725 0.68405026 21.040751
1.3149711 0.9674381 0.61727917 16.259251
-1.731173 1.0850098 0.65582967 22.873333
-1.6546185 1.0598407 0.69778514 23.041
1.2700199 1.0577183 0.66521925 18.0865
1.3492676 1.0833932 0.66226619 16.092501
-1.7820388 1.121073 0.69261116 21.04475
1.2991202 1.1749244 0.63032395 20.08725
1.3290763 1.1251254 0.67484814 19.591999
-1.7510725 1.2788707 0.6606679 23.0445
1.1871247 1.2887284 0.65301281 22.08625
1.262675 1.2178004 0.64687568 18.592377
1.333457 1.2298036 0.66590703 21.092251
1.1847982 1.3643967 0.68109065 22.088875
1.233357 1.3844944 0.63130522 22.423918
1.1590779 1.4672858 0.65694422 22.758667
6.7652516 2.1898985 0.64088362 12.106
4.070087 2.2670445 0.68328673 19.1045
4.8611917 2.272316 0.69230878 16.105
5.1349616 2.2491751 0.62213707 16.105499
5.5948377 2.2166216 0.67577428 15.1055
3.8968887 2.3561964 0.64664978 20.1045
3.6761475 2.4205403 0.69761735 21.104
3.7586474 2.4027791 0.63761646 21.1045
-1.2914374 0.047295749 0.77895015 8.0485001
-1.7458501 0.17899889 0.79557812 6
-1.3184192 0.13772947 0.72635722 10.04025
-1.2833314 0.11909282 0.72095233 10.048
-0.72762936 0.1582256 0.79300159 8.0515003
-1.497196 0.22726049 0.70724255 9.54175
-1.3213413 0.21696737 0.76642615 12.04825
-1.7818215 0.35309738 0.75211215 10.042875
-1.4001206 0.36556083 0.73950762 14.54
-1.7664522 0.45633316 0.77593833 10.54575
-1.5723629 0.46202657 0.72405738 14.0415
-1.4409395 0.47106674 0.72313243 16.708666
1.28889 0.45634368 0.76808637 8.085
1.3540465 0.46897686 0.77289951 8.0877495
-1.7870506 0.57743376 0.72952813 15.043167
-1.481997 0.53967452 0.7576623 17.539749
1.3663971 0.5831188 0.75015301 9.9239159
1.4439061 0.56698638 0.74147469 8.0915003
-1.8008819 0.62237555 0.72199231 13
-1.7876089 0.64264786 0.75969529 14.543
-1.6900269 0.62772644 0.74940342 16.041
-1.5239532 0.62866187 0.78053188 19.043375
1.3703752 0.68892467 0.72612035 11.588625
-1.7349248 0.72167605 0.75783139 20.045
-1.5593386 0.75847101 0.72055233 21.23
1.3902371 0.7080462 0.75162488 11.255375
-1.8116758 0.83115101 0.77238208 16.0455
-1.7475547 0.81981725 0.74645948 18.540751
-1.6525978 0.89449143 0.77702755 20.04175
-1.5850444 0.85472131 0.74588645 22.546249
1.2903965 0.86552632 0.75922984 15.0855
1.3776438 0.8768388 0.77113599 14.59075
1.4230716 0.81582141 0.76053613 12.045625
-1.8020835 0.91241938 0.76641643 17.0455
-1.7590861 0.94983649 0.77800459 23.04525
-1.630324 0.94451368 0.74542284 23.038876
1.3679004 0.93135279 0.73824316 14.694333
-1.6260027 1.0134895 0.77490228 21.542
1.2531723 1.0465298 0.72165513 18.335751
1.3544068 1.0723242 0.76440948 16.757915
-1.7446686 1.1602086 0.78645855 21.046
-1.614301 1.1177717 0.73404187 23.04175
1.2582867 1.1862223 0.77596617 18.045624
1.3525929 1.1681831 0.74786574 19.591249
-1.7167344 1.235062 0.75933313 22.181999
-1.6949476 1.297385 0.78667462 23
1.2729303 1.2514212 0.74958462 20.088049
1.3205154 1.2500279 0.76392913 20.088501
-1.7081342 1.3055623 0.74904096 23.04575
1.162842 1.3632997 0.75714421 22.42025
1.1596231 1.4602845 0.74532849 22.091
1.2811244 1.4377407 0.78870016 23.045376
1.1323113 1.5460759 0.74456036 23.091
5.9399238 2.1771672 0.70142424 14.1055
6.6050653 2.1905775 0.7773 13.1055
7.9088306 2.1162333 0.74434394 11.106
2.8844268 2.2982495 0.77410513 23.102501
4.0619874 2.262619 0.77580887 18.604
4.2767196 2.277122 0.71549726 18.1045
5.5359521 2.2193916 0.77820998 15.105
3.9127502 2.333226 0.787453 19.60375
3.6102965 2.4383445 0.77775127 21.1035
-1.6284157 0.1247383 0.86338907 10.0465
-1.3327669 0.15862423 0.82761592 10.0415
-1.5170009 0.28224283 0.88844281 10.0435
-1.3603361 0.23444405 0.83592761 11.708167
-1.7603405 0.37315059 0.83134657 10.157188
-1.4169602 0.3854557 0.84444875 14.710334
-1.3643616 0.32765895 0.85673171 14.049
1.398962 0.39491463 0.8090598 6
-1.7376631 0.41845697 0.88936418 12.042
-1.5171988 0.40583202 0.82901412 12.043
-1.4310449 0.4506847 0.87430447 15.879666
1.4092088 0.44237807 0.81925362 7
-1.7690425 0.55957854 0.83304393 13.168876
-1.5843518 0.56150132 0.82298559 15.0425
-1.4723359 0.54717487 0.84761876 17.541
1.3648516 0.52821046 0.83427387 8.8136253
1.4411045 0.54254949 0.87868768 8.0296669
-1.7311645 0.66713506 0.87511325 17.046583
-1.5126289 0.65216964 0.8665306 19.041
