# .PCD v0.7 - Point Cloud Data file format
VERSION 0.7
FIELDS x y z intensity
SIZE 4 4 4 4
TYPE F F F F
COUNT 1 1 1 1
WIDTH 680
HEIGHT 1
VIEWPOINT 0 0 0 1 0 0 0
POINTS 680
DATA ascii
0.15406607 2.7905126 -4.7587509 18.134001
0.33894596 2.7402699 -4.1578116 20.133835
0.61979508 2.7308781 -4.3410649 19.132666
0.19181204 2.7683911 -3.6950617 22.633999
0.15273012 2.8032887 -3.9057972 22.134501
0.23098111 1.682463 -3.2410271 18.465166
0.10845067 2.0683451 -3.282213 19.133751
-2.1556246 2.4948485 -3.5468574 20.011999
-1.6589345 2.5477238 -3.3158691 22.01
-0.078855984 2.6533551 -3.4325936 22.9205
0.15304923 2.6607285 -3.3892083 23.133499
0.29141736 1.8383514 -3.0515769 19.798138
0.277996 2.1943738 -2.9000518 22.632126
-3.2025402 2.6539786 -2.8197167 23.01
0.48724845 0.61005968 -2.4753053 9.7124996
0.44323009 1.0360298 -2.4093099 15.629
-2.4500947 1.4098201 -2.5611072 18.51125
0.37134355 1.8270761 -2.4387438 22.131001
0.46943966 1.8605312 -2.6114759 20.086664
11.330219 1.988225 -2.7668645 8.1134996
-2.5036533 2.0053232 -2.6274383 21.007999
0.33477727 2.1837587 -2.6884184 22.797834
0.42094174 2.0937586 -2.5955622 21.97275
8.3775778 2.1226223 -2.4382401 10.1145
9.4084053 2.057478 -2.606293 9.1142502
-1.8925836 0.27841076 -2.0386829 8.5120001
0.71788979 0.37472817 -2.0997529 6
0.62944943 0.62560403 -2.149323 9.8320456
0.57760119 0.98665184 -2.1391308 14.847473
-2.4495051 1.5146322 -2.3742955 19.01
0.35730842 1.2952617 -2.3972061 19.129499
0.47713453 1.3567593 -2.1583369 19.816031
-2.3329976 1.8128996 -2.1722097 22.760311
0.39485496 1.8516297 -2.361927 22.630501
0.54008108 1.7981755 -2.1793664 22.699926
11.40397 1.98115 -2.2297292 8.1125002
7.0511622 2.2102437 -2.1952946 12.115
8.6067886 2.0999155 -2.1754429 10.11375
9.900465 2.036119 -2.2831175 9.1132498
-1.8580508 -0.01887699 -1.6895355 5.5
-1.9365332 0.25032824 -1.7790474 8.9804058
-1.5605438 0.17251255 -1.9155154 8.0105
0.86566311 0.39287421 -1.9154698 4.8888888
-2.0319686 0.55023038 -1.7539077 12.01225
-1.9472047 0.62638623 -1.7662518 14.055051
0.73012102 0.68068337 -1.8213402 11.508347
0.89582825 0.63758159 -1.7693977 9.2734222
-2.0128851 0.94758606 -1.6651944 19.0145
-1.9264387 0.84115756 -1.6409092 17.51425
0.69514799 0.99960923 -1.8254519 16.019754
0.83875787 0.96836561 -1.6710851 15.295869
-2.2390335 1.3481271 -1.9439164 19.0105
0.63108253 1.3287909 -1.7760839 21.179752
-2.3687239 1.7252742 -1.9456995 23.011999
0.57331443 1.627764 -1.7285473 23.126751
6.1898723 1.7316962 -1.6414915 11.114
10.039073 1.9998291 -1.9621024 9.1125002
10.995384 1.9700248 -1.6420851 8.1114998
4.7289901 2.346431 -1.6126583 17.115499
4.9168563 2.3325071 -1.6720176 16.115499
5.3366022 2.286181 -1.7435446 15.11525
6.2129974 2.218863 -1.7924061 13.1145
6.603713 2.186265 -1.7562673 12.614
8.2519608 2.1198874 -1.7254411 10.11275
9.2754688 2.060317 -1.6090517 9.1120005
-2.041502 0.15886611 -1.362887 6.0071249
-1.9224248 0.23602201 -1.3839095 9.4566669
0.72402698 0.35363919 -1.3316485 8.3701248
-2.0351939 0.61413926 -1.3912395 12.634026
-1.9341483 0.60944551 -1.3945333 14.901123
0.73727441 0.67777371 -1.3836626 14.412117
0.94211942 0.59489572 -1.4020884 9.8876171
-2.0158982 0.91283667 -1.3824819 18.215399
-1.9437375 0.99560201 -1.4093785 19.744062
-0.86922544 0.97271818 -1.5144787 23.003
0.69502968 1.0693735 -1.4195589 20.743605
0.90311897 1.0119506 -1.403311 16.483921
-1.9464527 1.2710744 -1.3672628 22.903944
0.71989405 1.4071786 -1.4797456 22.412937
0.86024755 1.3184043 -1.3433812 21.284681
10.961642 1.9944508 -1.4223373 8.1110001
3.9165547 2.3295712 -1.3860514 18.915798
4.0533142 2.3048942 -1.3242655 18.11525
4.5678158 2.3258533 -1.2222307 17.114
4.9623089 2.3263652 -1.4166399 16.44775
5.3901343 2.2628534 -1.4334868 15.114001
6.3566408 2.1950788 -1.4665483 13.11325
6.4901114 2.1922114 -1.2669011 13.1125
6.8572702 2.1817923 -1.430047 12.11275
8.6651993 2.1132672 -1.4019051 10.11175
9.3241053 2.0180514 -1.4165881 9.1114998
9.8180809 2.0973086 -1.2548957 9.1110001
3.1142707 2.4661441 -1.2556276 22.616751
3.3283925 2.4373121 -1.2112111 22.115999
3.6403556 2.4510813 -1.3257 20.616001
-2.0582609 0.29731858 -0.96928978 7.0424743
-1.9032613 0.25959027 -1.000488 10.544232
-0.97375518 0.28529665 -0.80027324 14.015
0.72710264 0.33249956 -0.89893454 10.099521
0.80558193 0.36642039 -0.81256396 10.111625
1.5496331 0.35689321 -1.0758746 8.1215
1.6922802 0.35686129 -1.0641173 8.1204996
-2.048754 0.58391607 -1.0177903 11.684777
-1.9477587 0.57013857 -1.0213549 15.330284
0.29048228 0.67990613 -1.1600181 16.129
0.70611769 0.60656303 -0.99347836 16.192354
0.90169597 0.58315694 -0.93488896 11.866106
1.4848356 0.70544732 -1.046611 13.955
1.6702988 0.44777212 -1.0721891 9.1207504
-2.0254509 0.92894608 -1.0042937 15.877557
-1.9345646 1.0012996 -0.98322171 21.154896
0.7247054 0.90362108 -0.98728961 22.220274
0.94186151 0.97328049 -1.0160646 17.946693
1.440102 1.0188808 -1.0143899 18.740679
-1.9429419 1.2847447 -1.0589341 22.10977
0.94504458 1.3167405 -1.0104856 22.44039
1.3673607 1.277925 -0.9698956 22.788332
10.65858 1.9257689 -1.0012164 8.1102505
2.3864365 2.0041423 -1.1976287 23.1185
3.00511 2.376699 -0.91045785 23.11475
4.1071291 2.3084936 -0.99343032 18.613501
4.7114487 2.2956738 -0.9730171 17.112751
5.0329628 2.3130145 -0.95396745 16.362375
5.3490424 2.2905931 -0.98478132 15.112249
6.6651063 2.1849649 -1.0552181 12.778333
6.8503075 2.1983948 -1.1847889 12.112
8.6729851 2.1343293 -1.0091993 10.11075
10.042091 2.0097413 -0.95299196 9.1102505
2.9558907 2.4218132 -1.0719062 23.115999
3.4235644 2.4416187 -1.0082432 21.828857
3.708153 2.4286504 -0.89731884 20.613501
-1.7375466 -0.20024498 -0.48422682 3.5
-2.0550241 0.28526843 -0.63273412 6.6702499
-1.8221126 0.22192881 -0.59515154 10.784196
-1.2419816 0.17687184 -0.48196724 10.188666
-1.0731252 0.2105179 -0.59079069 11.568974
0.66722155 0.2932823 -0.77716064 10.8765
0.90224713 0.32526463 -0.5733524 8.4518852
-2.0381105 0.62020719 -0.56008673 13.875475
-1.9035352 0.60745007 -0.58910692 16.837774
-1.0150112 0.46178707 -0.50759667 18.682501
0.68975747 0.59972507 -0.74893135 17.933865
0.90133941 0.59702945 -0.58404255 14.3988
-2.0129347 0.96270764 -0.73738766 16.827301
-1.9266509 0.95353335 -0.61281663 20.691347
0.79940355 0.84693652 -0.73019505 22.109751
0.93309897 0.94196182 -0.6116522 20.059168
-1.9357672 1.3347702 -0.61047935 22.315458
1.0172637 1.281916 -0.65232778 22.961201
10.176743 1.9768645 -0.61665332 9.1094999
11.131512 1.8938926 -0.45694375 8.1090002
3.0919929 2.3919103 -0.67792547 23.112999
3.9035683 2.3712187 -0.54127097 19.958563
4.2181559 2.2903759 -0.61226153 18.44475
4.4652457 2.2612493 -0.4637613 17.1105
4.9491892 2.3184774 -0.62489122 16.777666
5.3330922 2.2885351 -0.59445691 15.610667
6.4827003 2.184269 -0.67262214 13.1105
7.0897894 2.1759512 -0.50348318 12.10975
7.5308309 2.1449232 -0.62950838 11.11
7.6405139 2.1456625 -0.46541062 11.1095
9.1055698 2.0636506 -0.66588992 10.10975
3.0747561 2.4046485 -0.66707778 23.113001
3.3795917 2.4321535 -0.63636154 22.112333
3.7128732 2.4290235 -0.57527685 21.083937
5.0604811 2.4010336 -0.41219163 17.110001
-1.6639998 -0.0046501094 -0.20514283 8.0316248
-2.0262926 0.37384018 -0.2455256 8.6995001
-1.7303292 0.25003639 -0.2064696 11.579593
-1.4182713 0.22841309 -0.15947212 12.049943
-1.1133041 0.2031845 -0.20425828 11.993393
0.76243359 0.36898842 -0.094517753 9.1002502
0.96806484 0.33306077 -0.25123566 8.2050266
-2.0269375 0.59786147 -0.24782345 12.187458
-1.7955502 0.60853213 -0.17261443 17.813446
-1.5985776 0.42523265 -0.053974364 15.527125
0.72359991 0.41838878 -0.2304965 11.43675
0.97924614 0.61174536 -0.2013198 14.953125
-2.0101335 0.86285847 -0.29787853 19.531
-1.8943613 0.97388428 -0.20974995 21.554678
1.0097424 0.98144877 -0.19429578 21.358692
-1.8938266 1.2786995 -0.21155731 22.591375
1.120126 1.3129388 -0.19429523 22.853312
10.265414 1.973501 -0.18922356 9.1084995
11.389737 1.8801836 -0.21271849 8.1084995
3.9782829 2.3492818 -0.25024241 19.721668
4.2375636 2.2869706 -0.1097557 18.442083
4.5118704 2.2774491 -0.23586529 17.609375
4.9969778 2.3645537 -0.073317371 17.1085
5.3443909 2.2712317 -0.20051432 15.609
5.6477442 2.2045567 -0.22135839 14.109
6.2853041 2.2046161 -0.30489337 13.10925
7.1115756 2.1331005 -0.27940646 12.109
7.6934261 2.1752486 -0.12031239 11.1085
9.234602 2.0388737 -0.36415645 9.1090002
3.1562819 2.405833 -0.39266601 23.111
3.4996853 2.4126477 -0.25849321 22.109875
3.7725234 2.4493661 -0.22320636 21.082188
-1.4085714 -0.042248543 0.17155559 7.0119996
-1.7361605 0.31565338 0.16338155 12.163522
-1.4681718 0.20662193 0.20324178 12.039269
-1.0383252 0.1723956 0.21612798 10.61873
0.77917832 0.39852911 0.035767898 10.0975
1.0122135 0.34981152 0.19425058 8.1501064
-1.7780188 0.61579043 0.17717984 17.125357
-1.49721 0.50865418 0.24945368 18.379108
0.69315773 0.43456727 0.19401425 12.09375
1.0867583 0.60706818 0.17491055 13.35384
1.2917736 0.58986628 0.24541488 9.6371746
-1.8211874 0.94047123 0.21269372 21.325296
1.1101298 0.96408945 0.16562241 20.046537
1.2565264 1.0532409 0.27342963 18.184109
-1.8997202 1.2281873 0.043842234 22.036251
1.1757399 1.3514738 0.11720274 22.52743
1.2357306 1.2745508 0.23456945 21.060362
10.272604 1.9908749 0.040958446 9.1079998
10.867704 1.9192245 0.30444288 8.1075001
11.624456 1.870643 0.042704243 8.1079998
3.0435188 2.3651006 0.38342711 23.105499
3.9473677 2.3587954 0.39132893 20.106001
4.0565171 2.3042328 0.22008026 19.107
4.7363358 2.2828386 0.049211152 17.108
4.936398 2.2964175 0.2553592 16.607
5.4348507 2.2469704 0.19834633 15.440666
5.7506733 2.2190053 0.20328251 14.607376
6.0607543 2.2113481 0.030612672 14.108
7.4090819 2.1456053 0.14997169 11.440999
7.6542945 2.109139 0.38997078 11.107
9.3702374 2.0131233 0.24640614 9.1075001
3.4338303 2.5085018 0.2429713 22.773333
3.7480698 2.4759517 0.20197958 21.357
-1.5896883 -0.0078291818 0.5846954 8.0434999
-1.7456688 0.27161577 0.59497255 9.8573027
-1.3744258 0.23681702 0.56440604 12.121646
-0.93607712 0.083821081 0.5038929 8.7145834
-0.69133765 0.26921383 0.58975458 12.716667
-1.7680899 0.64903033 0.57430136 16.494305
-1.5061193 0.58022428 0.63686812 18.316805
1.1773714 0.54147708 0.4579525 10.4914
1.3366494 0.61601573 0.61031848 10.458342
-1.745501 0.95886314 0.6145044 20.956579
-1.589605 0.85061222 0.70169848 22.712334
1.1459103 1.0255265 0.45038214 19.588249
1.3155985 0.99481285 0.61576498 16.626644
-1.7391279 1.266495 0.69444829 22.658438
1.1695466 1.3997416 0.65538752 22.487246
1.2600297 1.3034805 0.61544651 21.207132
9.0152702 1.7891055 0.45892471 9.1070004
2.9383128 2.3125682 0.61200988 23.10375
3.8950853 2.3597941 0.61913419 19.979687
4.0986381 2.2748845 0.60795546 18.854918
4.7687073 2.2613063 0.5146805 17.105751
4.9572797 2.2617142 0.59805101 16.105499
5.5603905 2.2234585 0.6607275 15.105499
5.7771988 2.2021224 0.55912137 14.106
6.6851587 2.190238 0.70909178 12.60575
7.3703032 2.1604342 0.53957552 12.1065
7.8303509 2.1072586 0.64474905 11.10625
3.6816971 2.4205546 0.70432836 21.104
-1.6876733 0.22874483 0.96760207 8.7115383
-1.4044434 0.24756409 0.99283463 11.320785
-1.0085297 0.028891288 0.96524411 6.2775002
-0.52282315 0.28024137 1.0288882 11.059375
-0.21379946 0.2093021 1.1333178 9.0675001
1.3907387 0.39326549 0.97618437 6
-1.7172264 0.61633062 0.95415771 14.66592
-1.4906642 0.58869499 1.0174046 17.057341
1.3941904 0.62957144 0.96238202 9.8505917
-1.6881168 0.96316278 0.9106077 19.989559
-1.5241119 0.9646315 1.0625535 21.713049
1.3271763 0.98252922 0.9705295 15.436738
-1.6634258 1.2657745 0.92671555 22.431665
-1.5151583 1.2963829 1.1327432 23.049351
1.1693171 1.4487827 0.97324401 22.271969
1.2862437 1.3303851 0.99622744 20.583097
1.1700904 1.6393874 0.91479689 23.089626
2.9343467 2.3291464 1.0719138 23.1005
3.8523521 2.3401105 1.0323006 19.602375
4.0864768 2.2547975 1.0087603 18.302801
5.0085983 2.2628794 0.99613154 16.10375
5.2700295 2.2417123 0.98657674 15.104
5.8124943 2.1928625 1.0237767 14.10425
6.1713204 2.2068093 1.0131245 13.437833
6.7816668 2.1826663 0.96360403 12.105
3.1039698 2.4360831 1.0515287 23.101
3.3669465 2.4339392 0.97739094 21.901899
3.6355457 2.4238441 0.94807374 21.102501
-1.6911488 0.32273906 1.2368244 8.0509996
-1.392174 0.22095819 1.3709564 9.57967
-0.93757749 0.019855432 1.3206887 4.5
-0.65199584 0.20892389 1.2906389 8.0559998
1.3652551 0.29718897 1.4129146 3.5
4.3611751 0.12940478 1.5988876 3.5
-1.6488682 0.47931537 1.2948135 10.051833
-1.4355673 0.58623099 1.366989 14.812721
1.1635363 0.65541005 1.4015419 9.5839996
1.3499889 0.6923936 1.4065477 10.103016
-1.4223977 1.0029548 1.4067194 20.438679
1.0527368 0.88486284 1.2416176 14.084666
1.3351339 1.0270555 1.325067 14.785879
-1.4170611 1.2757664 1.4440022 21.990866
1.2894474 1.3473216 1.3429193 19.168203
5.0012579 1.2772377 1.5341566 10.1015
5.366993 1.2707931 1.4462603 9.6022501
1.2391069 1.6216699 1.365105 23.084499
5.3798814 1.9477868 1.4489448 13
2.9484196 2.3802955 1.4291197 22.764875
3.8377185 2.2965062 1.3754579 19.100502
4.1212306 2.2160423 1.3695265 17.767668
4.7087321 2.3070316 1.3242069 17.101999
5.0346279 2.2449517 1.4437379 15.7019
5.3760386 2.1477087 1.3654797 14.452001
5.8887501 2.1939681 1.2430109 14.1035
3.4807806 2.4148824 1.4753777 21.099251
-1.3131561 0.27563336 1.7433368 8.4436245
-1.1539694 0.23135249 1.8363746 8.7594433
2.8658772 0.16096281 1.9495565 3.875
3.2271783 0.14563046 1.8515954 3.5
4.1135311 0.14084797 1.759933 3.5
-1.3043541 0.56939209 1.7569802 12.56233
-1.1662414 0.60402322 1.8938451 14.140349
1.1644677 0.7093904 1.7504147 9.9985838
1.376853 0.62732953 1.7232412 8.4620838
2.7563841 0.60629708 1.9915649 8
3.0680141 0.70292252 1.9061785 8.6535006
3.8221426 0.75955653 1.8624589 8.0979996
4.241549 0.66655499 1.68747 7.1666665
-1.3127563 0.97681439 1.7541589 18.29636
-1.1610068 0.93329096 1.8753704 18.558832
1.4389006 0.95714718 1.7676119 12.610031
2.7658398 1.0694851 1.9551286 12.0945
2.9788096 1.0484197 1.9393206 11.563416
3.8203993 1.1061668 1.8728557 11.049
4.1982093 1.0166754 1.6859049 9.5333338
-1.3578668 1.3155166 1.8065442 21.11116
1.3770006 1.2791824 1.7121742 17.08075
2.903007 1.3880833 1.9649823 14.581285
3.3898561 1.4195105 1.959964 14.0965
3.7368608 1.3789675 1.9086437 12.67375
4.1946511 1.3693217 1.6895958 12.066667
4.4648843 1.2207209 1.6004249 11.1005
-1.478204 1.6337385 1.9383588 23.052
1.4616235 1.8354775 1.846748 19.7848
3.4546466 1.8933351 1.9941988 16.5965
3.7149918 1.8224257 1.8983603 15.75
4.0092673 1.7433772 1.7506282 14.75
1.3972569 2.102546 1.7711166 22.418501
2.6651623 2.3756392 1.8478823 23.094749
3.0507052 2.3864238 1.801206 21.763
3.5029798 2.3684013 1.8662469 20.09725
3.7741227 2.2506685 1.7495103 18.466167
2.8517926 2.4094489 1.7435004 22.429335
3.2925177 2.4158032 1.7911953 21.097126
-1.3339138 0.23706353 2.0472662 5.5
-1.06391 0.25849018 2.1645911 8.3792715
1.4078897 0.0091259852 2.2281222 1
1.6819602 0.20272744 2.2916236 4.8000002
2.0994716 0.20867021 2.2962348 4.5
2.6149719 0.17813236 2.0879421 4.2380953
-1.2654827 0.57536936 2.1471286 10.237249
-1.0524714 0.62787354 2.1995006 13.31055
1.5703864 0.6897074 2.377758 10.08625
1.744925 0.60485101 2.3497663 9.2106667
2.0624757 0.66164052 2.332062 8.9730711
2.5436816 0.61983204 2.1308246 8.3979521
-1.3135434 1.0611202 2.121954 16.422688
-1.1670312 1.0668321 2.0459056 19.804377
1.4938908 0.90808034 2.0196803 11.078
1.6995313 0.81352955 2.3871083 11.087
2.1071873 1.0280769 2.317553 12.666667
2.544472 1.0209796 2.0843382 12.083334
-1.2718045 1.2575998 2.0407252 19.059999
-0.88256842 1.5986091 2.1257255 23.063999
-0.76592106 1.3880521 2.1528502 22.063999
1.5473893 1.4447013 2.2706401 14.948801
2.185976 1.3952717 2.239584 16.151333
2.6178317 1.3201169 2.0411422 14.8563
-1.3965514 1.8807025 2.3241682 22.807251
1.441101 1.8446802 2.2236097 19.090532
1.8213743 1.708335 2.3361881 19.51338
2.1351137 1.8097507 2.1671112 19.815422
2.5897121 1.8351288 2.0499053 18.6933
2.8992431 1.9461721 2.0519576 19.0945
3.3252068 1.8619784 2.0236084 17.096001
1.4435433 2.0743299 2.1891527 21.382502
1.7779136 2.0293782 2.2693648 22
2.309859 2.3203542 2.1280737 22.758331
2.5074012 2.3694637 2.0546968 22.759583
2.9901071 2.3298106 2.1104543 21.0945
1.3093455 2.4435453 2.3893394 23.079124
3.1091907 2.448657 2.0802686 21.094999
-1.0230433 0.22257489 2.5459747 7.0285001
-0.11427345 0.019889582 2.4920354 3
-1.1139808 0.50944436 2.5505178 9.7251663
1.7951802 0.65261292 2.7802017 6.75
-1.2182151 0.9240647 2.6714728 13.389167
-1.1878294 1.1902117 2.7814789 15.0565
1.5794616 0.98105031 2.5631654 11.56825
1.7166257 0.99277109 2.539638 11.347594
-1.2614125 1.4422323 2.6392567 18.402376
-1.1813148 1.4153589 2.7504232 18.560375
1.5414622 1.4215684 2.5511189 14.256249
1.6523238 1.395839 2.5634716 15.256697
-1.2834163 1.8157872 2.601887 22.154099
-1.1532089 1.6861581 2.7445562 20.056999
1.5139272 1.7995996 2.5073121 18.927286
1.7199399 1.6390368 2.4243155 18.710417
-1.2955283 2.0564449 2.5870898 22.947603
0.60226488 2.3038998 2.6939483 23.074095
1.1206324 2.376931 2.5583005 23.074501
1.4682786 2.2432649 2.6130376 22.268688
1.1600224 2.4288442 2.7178447 22.410334
1.3497534 2.4876258 2.6149757 22.936069
1.771405 2.5490074 2.6609731 21.577999
-0.89490908 0.11338452 3.1826084 4.5333333
-1.2237165 0.71374369 3.0657401 9.5640001
-1.0343887 0.64322448 3.0902612 9.5769253
1.7856116 0.61180347 2.8599446 6.1999998
-1.2561007 1.0108441 2.9097464 12.73
-1.0624093 0.98903775 3.0278225 13.696554
1.7578404 1.0784979 3.0063565 10.2768
-1.2562802 1.5044868 2.8147893 19.059999
-1.0896336 1.3921673 2.9838326 17.295353
1.5975531 1.2814344 2.8463452 13.078
-1.2059262 1.6341285 2.8742111 21
-1.0531839 1.7835833 3.0371861 20.746889
-0.98516542 2.1273346 2.9892619 22.627068
-0.59873515 2.1849484 2.9746242 22.964674
-0.16351075 2.2394333 3.0279205 22.818125
0.18983617 2.2934535 3.0351613 23.070217
0.60895121 2.3199773 3.0350215 22.787678
0.87596661 2.3764772 2.9776993 22.573563
1.3452818 2.29529 2.9953527 22.0825
1.6059755 2.2478237 2.9301288 19.076
1.0103865 2.4372532 3.0094998 22.07575
1.4009004 2.5098732 3.0361872 21.32675
-1.0408678 0.29540285 3.4093397 5
-0.77786809 0.030659178 3.460449 4.4000001
0.057182234 0.044715945 3.3333125 3
-0.94863743 0.59443301 3.2839916 9.4095621
1.7255305 0.69020784 3.58272 8.0830002
-0.93880302 0.96284604 3.3152826 13.172556
1.7357218 0.96219349 3.5566525 10.2915
-1.0078664 1.4197474 3.2551241 16.529751
1.7367264 1.3519942 3.4011419 13.2225
-1.0051329 1.6688013 3.2789767 17.5
-0.94676065 2.2367313 3.5162206 21.061399
-0.5793764 2.2324045 3.4611912 21.940145
-0.19491479 2.2550876 3.3825188 22.113348
0.17495562 2.3016019 3.4037764 21.707001
0.59102821 2.3720767 3.4251008 21.480408
1.0519984 2.3430023 3.4523048 21.0795
1.7084656 2.2865064 3.5632467 18.746834
0.34969568 2.4259231 3.372988 22.07325
0.69007802 2.4112034 3.3487952 21.575251
0.96748161 2.4584625 3.4500675 20.2766
1.4311892 2.4880409 3.4353998 19.838263
1.6411321 2.4829855 3.3994796 19.2775
1.8910668 1.2524444 3.8536372 10.079
1.5306568 1.8157823 3.9869146 14.07275
1.7534595 1.8072972 3.8387258 13.742333
-0.90825832 2.1699739 3.771565 20.564449
-0.59968644 2.2321956 3.8592575 20.065413
-0.24459334 2.2744346 3.7695773 20.317501
0.20233968 2.317008 3.8197207 20.069635
0.61488724 2.3154814 3.8441634 19.149731
0.98510581 2.3376162 3.8071492 18.766926
1.3855221 2.3473809 3.7876523 18.610964
1.73629 2.2494228 3.8328621 17.913
2.0277302 2.2494969 3.9427867 18.0835
0.62876862 2.4185979 3.7723083 20.4055
0.97723889 2.4398165 3.7993209 19.989166
1.3310199 2.4502378 3.8754091 19.324501
-0.8532356 0.69330835 4.1506639 8.0679998
1.87858 1.5833416 4.0892148 13
-0.90883398 1.8965378 4.2004204 16.950901
-0.59729725 1.8423345 4.2755857 15.926214
-0.39954275 1.8312529 4.3103886 16.070499
1.5010504 1.7311888 4.1877189 13.741666
1.7668861 1.7184881 4.1841726 14.063601
-0.8632614 2.2325435 4.0963006 19.197216
-0.57440561 2.1687112 4.213953 18.705027
-0.17555609 2.1835856 4.2140694 18.546131
0.21226433 2.2100878 4.2182164 18.150129
0.59311521 2.2779844 4.1626277 18.622898
0.96880299 2.2660811 4.1339173 18.004358
1.3947769 2.3049164 4.2082739 17.326376
1.7692535 2.2319775 4.0951476 17.4643
2.0641623 2.0384767 4.2240119 16.083
1.6631011 2.4303749 4.2721558 16.077999
-0.60987699 0.84352058 4.5001659 9.0614996
-0.81318212 1.5891156 4.4369416 15.062
-0.75133204 1.4361392 4.4281235 13.7285
-0.54770041 1.7903857 4.546072 15.565249
-0.32449186 1.9915664 4.506403 17.068251
1.9406285 1.824856 4.7909431 12.073
2.042819 1.6938233 4.4496331 11.574
-0.58221793 2.1096306 4.5512042 16.882681
-0.21167187 2.132225 4.4995289 17.522842
0.11116017 2.1469579 4.5290508 17.320999
0.57991439 2.2567587 4.5968909 16.927429
1.0104169 2.2791371 4.6136341 16.617138
1.4421201 2.2273943 4.6267409 16.2435
1.7444669 2.2991393 4.6419353 15.803385
-0.62463051 1.8077168 4.9749966 15.06675
1.6971686 1.7835584 4.8358097 12.072
2.1611042 1.7685851 4.9831262 11.0735
-0.56397086 2.0979071 5.1710153 15.0625
-0.15186894 2.1868372 5.0794353 16.071125
0.2519559 2.1799257 5.1034813 15.569333
0.61648571 2.194236 5.0516086 15.643358
0.98604584 2.2327642 4.9925504 15.346045
1.364632 2.2945065 4.8819103 15.296945
1.8388644 2.2322392 5.0951452 14.578751
1.8104196 2.4314697 4.8199205 15.0775
-0.59498549 0.99680614 5.4320931 8.0699997
-0.69129062 1.2214247 5.2051072 10.0695
-0.53945333 1.8439096 5.4167423 14.067101
-0.14685546 1.9381855 5.5109897 14.06875
0.20599072 1.9666526 5.3762589 14.07025
2.0823572 1.7724166 5.2569323 11.07275
-0.51058316 2.0584292 5.5374103 14.06275
-0.19724287 2.1267087 5.3335223 15.158545
0.2019953 2.1277657 5.3687825 15.131719
0.61120725 2.163904 5.4112887 14.686499
1.0488065 2.1665385 5.4902749 14.225654
1.4193282 2.2065775 5.4360185 14.2068
1.7590152 2.2574911 5.3683167 14.002608
2.0206866 2.3210826 5.3501716 14.0745
1.6416212 2.4249537 5.4606948 15.073
-0.48516631 1.1263864 5.7486377 9.0705004
-0.10660927 1.4639069 5.8985453 11.0685
-0.51562285 1.7829829 5.6731925 13.731667
-0.2014758 1.9432751 5.8299289 13.899667
0.28219047 1.9877517 5.7250319 14.06725
0.62086278 1.9745762 5.946198 13.0715
-0.56239021 2.0904126 5.7872863 14.4677
-0.23083408 2.1076288 5.7358236 14.210215
0.17895624 2.1532869 5.7956161 14.196251
0.63862473 2.0677257 5.7208982 13.928499
1.015241 2.1277983 5.7945714 13.488292
1.3598031 2.2064795 5.753418 13.2714
1.8769903 2.3025815 5.7811184 13.07475
-0.23729479 1.8488719 6.1688099 13.06825
0.22356287 1.93479 6.2266541 12.6699
0.47024757 1.9682097 6.311677 12.57075
-0.02971413 2.0080917 6.2911997 12.0645
0.22807427 2.0736432 6.1160412 13.2686
0.59842891 2.0787251 6.2262206 12.846056
0.95849633 2.1110146 6.2023139 12.695189
1.415275 2.1021454 6.1845508 12.502715
1.8147254 2.150353 6.1142373 12.574751
2.1241052 2.1857665 6.134553 12.57675
-0.1973706 1.9101644 6.6100144 12.398833
0.11045821 1.9434048 6.5803566 12.666901
0.62934607 1.9443223 6.767314 12.071
0.18652809 2.0475788 6.6291814 12.067833
0.6298545 2.0680578 6.4957719 12.405334
1.0173651 2.0611622 6.7447205 12.073501
1.4655787 2.0940008 6.6266279 11.82375
1.8119304 2.1386614 6.5526557 11.931929
2.1521685 2.0969889 6.7145967 12.0795
-0.12553249 0.38996643 7.0322266 4
-0.12589106 1.1672242 7.1768231 8.0719995
-0.14914897 1.9797673 6.8950095 12.064
0.27293536 1.982945 6.9473801 12.06675
0.52279711 1.9742831 7.0788975 12.0675
2.600574 1.8404673 7.1873946 9.0719995
-0.12508756 2.0583229 6.8528123 12.072
0.036708541 2.0757046 6.8138804 12.0725
0.63486254 2.0342507 6.849916 12.068
1.0145234 2.0474041 7.0926876 11.820375
1.3657392 2.0730944 6.9984908 11.320624
1.6754084 2.0751026 7.0350609 11.074333
2.2955389 2.1963756 7.0900235 11.074333
2.4507856 2.1394343 7.0315738 11.076
-0.12725337 1.4951934 7.4317017 9.736167
-0.12624568 1.8525603 7.3198223 11.072
0.09136413 1.8721987 7.3748302 11.066
0.40751132 1.9122909 7.5262513 11.067
0.98149139 1.962432 7.4976935 11.0695
1.2533405 1.9858367 7.3740764 11.0725
0.52295947 2.0357904 7.4455948 11.074
1.0137799 2.019311 7.3514194 11.0675
1.4077892 2.025069 7.3008461 11.073334
1.9323828 2.1156051 7.4981914 10.07
2.2063074 2.1654773 7.3678131 10.697562
2.6865602 2.2306066 7.5212207 10.072
0.22108242 1.89258 7.8898149 10.065
0.67518663 1.9084058 7.7619476 10.735333
1.3859452 1.9924258 7.6175966 11.0765
2.589839 1.8950174 7.8883576 9.5762501
2.8119643 1.7056198 7.6952848 8.0719995
0.21516293 2.0280273 7.7227716 11.073
1.1667159 2.0156221 7.9933887 11.069
1.3979547 2.0483503 7.8378596 10.569
1.8027865 2.0886986 7.711565 10.403333
2.1683517 2.1542547 7.7516575 10.072
2.6080194 2.1747441 7.9341536 10.073
0.49926493 1.3823136 8.3392715 8.0655003
0.31345841 1.829911 8.3118505 10.0665
0.60548341 1.8957512 8.1804361 10.0674
0.92451602 1.9199296 8.2803459 10.073
2.2651689 1.9507753 8.2005949 10.0785
2.4155436 1.9726505 8.0977259 10.079
0.24057874 2.0327673 8.325448 10.073
0.9943856 2.0020537 8.253212 10.067
1.5429218 2.0169008 8.159873 10.07
1.7348375 2.0526259 8.0753422 10.0705
0.16070388 1.8028589 8.400507 10.066
0.45783731 1.9257416 8.6185112 9.7348337
0.91015077 1.8433938 8.7059078 10.068
1.4747032 1.9404167 8.692091 9.8733006
1.8450994 1.9415014 8.6210632 9.4755993
2.139976 1.9510537 8.5043564 9.5760002
2.825696 1.9005936 8.7285395 9.0795002
2.2512851 2.0430984 8.5808916 9.5707493
2.6354816 2.0788534 8.6577826 9.2155704
0.59747338 1.7987876 9.1573935 9.0670004
0.85196429 1.9344186 9.0736513 9.0745001
1.5945629 1.9166223 9.153677 9.0695
1.7725126 1.9505597 8.9172716 9.0723333
2.1238563 1.9607134 8.8442841 9.0695
2.5627575 1.9337603 8.9841204 9.0773335
2.1680496 2.0040238 9.0065422 9.0710001
2.4004447 2.0312383 9.0690784 9.0714998
0.43227011 1.8338275 9.2538357 9.0699997
1.0351797 1.7952169 9.5136719 9.0721664
1.3552142 1.8567711 9.3784142 9.0733337
2.2470527 1.866075 9.2741938 9.0777502
2.7766566 2.0057127 9.5239811 8.0719995
0.72363114 1.8604226 9.7940159 9.0740004
1.1723729 1.8800861 9.9856958 8.0749998
1.3882041 1.8129485 9.8967953 8.0714998
1.791079 1.8688865 9.9617348 8.0702496
2.0794089 1.8572505 9.9058056 8.073
2.5496826 1.9405345 9.9020939 8.07125
3.1404481 1.9556111 9.9452877 8.0710001
0.77308834 1.8117664 10.38013 8.0740004
1.1617545 1.7511457 10.311942 8.0679998
1.4965596 1.8237637 10.297678 8.0714998
1.7959275 1.8634622 10.076954 8.0732498
2.0970461 1.853807 10.187051 8.0769997
2.5344622 1.8738576 10.295331 8.0757494
2.9650071 1.9542177 10.342156 8.0745001
0.73150992 1.699829 10.400481 8.0670004
1.0543953 1.7524344 10.681018 8.0695
1.4641681 1.732549 10.784914 8.0684996
1.940704 1.7773499 10.611165 8.0695
2.1142323 1.8352764 10.483667 8.0699997
2.4200914 1.8799984 10.658857 8.0705004
3.0453787 1.8254452 10.469189 8.0787506
3.3848195 0.97212911 10.876094 5
0.90783119 1.7356902 10.844201 8.066
1.7497435 1.7506709 10.876353 8.0690002
2.0990579 1.7159998 11.053686 7
3.5782807 0.92748165 11.44098 4
2.0654826 1.7561307 11.792539 7
3.2082531 1.9115747 11.720308 7
2.4550571 1.8514777 12.115563 7
3.0591187 1.8819841 12.283991 7
2.5000663 1.7801296 13.11632 6
3.696857 1.7326442 13.16147 6
2.7945867 1.4937612 13.532149 6
2.4626832 1.6498942 13.402424 6
3.3762774 1.8076251 13.567951 6
4.2676573 1.5955212 16.676788 5
4.747241 1.0874099 16.918156 4
3.1790276 1.3833368 16.951733 5
3.4870448 1.4401175 16.818348 5
4.7054534 1.5520598 16.827852 5
3.7963104 1.2212472 17.56362 5
3.4240668 1.117625 17.860088 5
5.0630703 0.94378692 17.83536 3
3.7000642 0.96347558 20.708775 4
4.1161218 1.1229606 20.515163 4
3.26228 0.81553257 20.812572 4
4.0779433 1.0164207 20.879425 4
4.7031689 1.0904477 20.968891 4
3.9277418 0.6070959 22.705078 3
