# .PCD v0.7 - Point Cloud Data file format
VERSION 0.7
FIELDS x y z intensity
SIZE 4 4 4 4
TYPE F F F F
COUNT 1 1 1 1
WIDTH 279
HEIGHT 1
VIEWPOINT 0 0 0 1 0 0 0
POINTS 279
DATA ascii
-1.6905577 1.569838 -2.6942766 17
-1.7177171 0.58311051 -2.4031 9
-1.7031326 0.55055374 -2.3907673 8
-1.7129426 1.3109041 -2.378803 16
-1.672567 1.5379322 -2.3630362 18.5
-1.7034205 0.29896447 -2.0921917 6
-1.7192696 1.321811 -2.0488858 17.5
-1.7108872 1.444391 -2.0158629 19
-1.6994848 0.23257367 -1.807688 5
-1.7036177 0.5076949 -1.8546343 9
0.44226998 0.52815962 -1.8576453 11
0.4689129 0.70589966 -1.8043242 14.5
-1.7060747 0.33889389 -1.7329454 7
-1.722128 0.54062235 -1.6230048 9.5
0.50557971 0.52676249 -1.6440887 12
-1.6984582 0.63473386 -1.7397825 11
-1.701197 0.97280687 -1.6140028 15
0.48930794 0.88388431 -1.7454981 17.5
-1.7091544 1.1042093 -1.7191477 16.5
-1.6993254 1.2933173 -1.6720344 18.5
0.5137068 0.32044211 -1.5005176 8.75
0.54267925 0.40934429 -1.4759893 10.5
-1.7222148 0.78468907 -1.5058572 13
0.55757564 0.67875022 -1.4599936 15.5
-1.715296 0.91709363 -1.5055717 15
-1.7214028 1.1088194 -1.4920889 17
0.58582097 1.0512882 -1.5068893 21
-1.6914846 1.3774011 -1.5497624 20
-1.6792244 1.413353 -1.5228943 21
-2.2417698 0.1996789 -1.2982521 4.5
-2.2651615 0.34259474 -1.290125 7
-1.6948822 0.74642193 -1.2303283 13.5
-1.7216758 0.86106896 -1.2083615 15
0.66503292 0.92023426 -1.2179985 21
-2.3568566 1.1726871 -1.2011786 18
-1.7048333 1.1087384 -1.3114822 18.333334
0.77594709 1.0681516 -1.2008821 20.5
-1.7019408 0.18937075 -1.1626091 5
-2.7596345 0.34607857 -1.0930907 6.5
-2.5556364 0.33379924 -1.1628692 6.5
-1.6659703 0.26951906 -1.1312439 7
0.66013402 0.36672437 -1.0668515 11.25
-2.8032587 0.5547117 -1.0766307 9
-2.5769141 0.45224658 -1.1581957 8
-1.6890349 0.45761991 -1.0806832 10
-2.8712664 0.73924857 -1.0355697 11.5
-1.6935303 0.61904001 -1.1053352 12
0.64334327 0.99447364 -1.1984062 22
-2.5401616 1.1980759 -1.1353624 18
-2.7473772 1.356256 -1.0408888 18.5
-2.4861932 1.3285315 -1.1575167 19.333334
-2.3358433 1.3524818 -1.1881526 21
-1.6682168 1.348954 -1.1510419 21.5
-1.7287542 0.12771247 -0.96026409 4.5
-3.230525 0.37643024 -0.91032445 6
-3.1546621 0.34300339 -0.96378332 6
-1.7249428 0.28472766 -0.98433644 7
-1.7286144 0.52005017 -0.8785488 11
0.78936273 0.59395897 -0.85400867 16
-3.4714932 0.66088957 -0.81842852 8.75
-3.2250197 0.78676468 -0.91056049 11
-3.0780296 0.62822151 -0.9669407 9.25
-1.6854889 0.67820609 -0.96831656 13.5
-1.6973666 0.89879757 -0.95235389 16.5
-1.7228638 1.0751379 -0.8909694 19
-2.1433702 1.3093826 -0.97834969 20
-1.6890457 1.2522594 -0.90308058 21.5
-2.8694003 1.5099125 -0.99428552 20
-2.7971783 1.6358979 -0.96573645 21
-1.7848378 0.15403041 -0.63754362 5
-1.7745291 0.55781651 -0.62065345 12
0.82963949 0.45073727 -0.72624767 13.375
-1.7962303 0.72562516 -0.61125451 14
0.76864856 0.60135221 -0.69095767 17
-1.7999754 0.8441233 -0.65668356 16
-1.7408423 1.095504 -0.69391268 19.75
-1.7335914 1.2377369 -0.64774722 22
-3.4171908 1.5724608 -0.77508044 18
-2.7090425 1.4909096 -0.79781264 19
-3.3955142 1.6862135 -0.76921225 19
-1.7274787 0.081722155 -0.44786417 4
-1.6956806 0.35563952 -0.53386754 9
0.93193787 0.49331576 -0.43604729 14
-1.7426893 0.67204618 -0.52072561 14
0.89980274 0.60361487 -0.49492043 16.5
-1.7522312 0.91388392 -0.47675818 18
0.94294816 0.84880918 -0.43965697 20.5
-1.7031047 1.0082192 -0.46727234 19
-1.6778673 0.37684658 -0.33255255 10
-1.6866876 0.50021917 -0.33795223 11.5
0.90379441 0.47572559 -0.29771993 18
1.0055144 0.57323873 -0.25294122 15
-1.723421 0.75254202 -0.38594636 16
0.7593776 0.73048705 -0.30479699 21
-1.7639052 0.90252739 -0.2655988 17.5
-1.7125818 1.0392267 -0.2738179 20.333334
1.0787444 0.32587796 -0.067626759 10
0.89829201 0.46756095 -0.10710857 18
1.0409558 0.4342066 -0.12999071 12
-1.6920402 0.6399408 -0.059368141 14.5
1.0526478 0.67754894 -0.14854306 17
-1.693644 1.1259853 -0.15155458 22
-1.691481 -0.0061281323 0.094778024 2
1.1456084 0.13228823 0.077269495 6
0.9264704 0.38370281 0.11717553 15
1.1510625 0.23856622 0.09593612 8
0.91273707 0.53177065 0.088539585 19.799999
-1.7126491 0.70748216 0.032659803 15.5
1.208822 -0.01720285 0.23904145 2
-1.7201495 0.15459231 0.34164169 5.5
0.9212833 0.33183876 0.21943682 13
1.2571285 0.30057245 0.3092775 8.75
0.94407123 0.48687047 0.38817206 17
1.1074522 0.71787572 0.26300743 16.5
-1.7098044 0.92487442 0.34198326 18.5
-1.7047243 1.0330534 0.34598321 20
-1.7147485 0.11552316 0.49176648 5
1.3082222 0.031112935 0.54001927 3.75
-1.6927725 0.25549084 0.59078473 7
0.91214907 0.3105554 0.55308646 12
1.3316323 0.32386881 0.49722409 8.75
-1.7003758 0.53636104 0.43105656 12
0.91068661 0.47063097 0.46973455 16.6
-1.7670795 1.1631219 0.44740814 21.5
1.349093 1.0929003 0.52741146 20
-1.6874888 0.37970352 0.75007629 9
0.91941893 0.34232128 0.70552951 12
1.3577569 0.30936396 0.63313806 8.25
0.90713602 0.5116654 0.66602987 16.333334
-1.7161068 0.75192875 0.72660911 15
0.90656179 0.63232368 0.62000841 19.5
-1.7121162 0.90200746 0.73121309 17.5
1.3779633 0.92776179 0.62475443 17
-1.7042197 1.0488596 0.67729396 19.75
1.3856404 1.0016983 0.61260539 18.5
1.4873164 0.12081258 0.91149557 5
0.89705718 0.30753005 0.84695137 10
0.90573347 0.41435462 0.84081018 13
1.5237082 0.11234944 1.0310253 5.25
1.6600411 1.1052616 1.3049363 16
1.6462941 1.2225755 1.2955015 18
0.93145579 1.0797404 1.5701495 20
1.7425015 1.0729147 1.4923373 15
-1.1275187 0.074542582 1.6923188 4.5
-1.0546407 0.23667736 1.6936446 7
-1.277303 0.4976005 1.7602495 11
-1.0881736 0.51059675 1.7307935 11
-1.2854588 0.64030445 1.764486 12.5
-1.1361852 0.64072847 1.7070905 13
-1.0751212 0.8421849 1.7235203 16
-1.0672979 1.0157443 1.7268081 18.25
-1.2016561 1.2489094 1.7733096 20
-1.7601695 0.44565693 1.9566056 9
-1.5144883 0.55952096 1.8652879 10.5
-1.5050938 0.66637093 1.8573872 12
-1.4797224 0.90194589 1.8720393 15
-1.2362988 0.085788801 2.0323317 4.25
-1.2105873 0.21860382 2.0217011 6
-0.8886137 0.4150193 2.1691947 9
-2.267513 0.74495959 2.1717803 10.5
-1.9590242 0.66290087 2.0480552 10.5
-0.88335788 0.63332164 2.1428876 11.5
-2.2416744 0.868949 2.1406655 12
-1.9301958 0.80846262 2.0345755 12
-1.8794413 1.3862723 2.1206627 18
-1.1857406 1.2950373 2.1091142 20
-1.9779012 1.5054102 2.154108 19
-1.270023 1.4024968 2.1364245 21
-0.8391881 0.40188125 2.261034 8
-2.3638601 1.546329 2.304152 17.5
-1.9689738 1.529588 2.3841085 19
-1.4772255 1.4274751 2.2037699 20
2.3596869 -0.062403578 2.966794 2
2.3738792 0.093024194 3.129252 4
2.379101 0.34601414 3.2461538 6
2.3922501 0.53620535 3.2261467 7.5
2.4650767 2.1253579 3.2931037 18
2.4442329 2.3683658 3.2400699 19
2.4395242 2.5057678 3.2428923 20
-4.2822404 2.6789048 3.5406191 17
-4.1311073 2.6847737 3.4648478 18
-4.1246576 2.5327735 3.7473631 16
-3.8544338 2.5042722 3.795074 17
-3.7810423 2.6756415 3.7481651 18
-2.3378482 0.11076884 3.9583127 3.5
-2.1330495 0.047759116 3.9143498 3
-4.0752563 0.28372923 3.9715061 4
-3.8946302 0.37221989 3.9945848 5
-1.8545188 0.25942087 3.9910038 4
-5.6038527 0.54322904 3.9644237 5
-4.7118292 0.40411758 3.927799 5
-4.2891479 0.44121459 3.974139 5
-3.5998523 0.55966318 3.9775505 6
-2.1586297 0.59188926 3.9897511 7
-4.7543402 0.60822934 3.9697096 6
-4.3983464 0.63705951 3.9768777 6
-4.1320138 0.72317171 3.9868116 7
-5.5073876 0.81097853 3.901984 6
-5.337996 0.98991352 3.9655275 7
-4.0131969 0.89403665 3.9258969 8
-3.6360881 0.90877676 3.9146991 8
-1.8894349 0.83308733 3.9978018 9
-1.7832592 0.96659547 3.9247403 10
-6.0472412 1.1458287 3.9774077 8
-5.3238263 1.0958641 3.9496741 8
-4.7239695 1.135591 3.9648674 8.5
-4.4984961 1.1234124 3.9388504 8
-4.031569 1.1489885 3.9334803 9
-3.5383267 1.1763294 3.9433143 10
-2.3642046 1.0658782 3.9354465 9.5
-3.9867494 1.3276763 3.8847721 10
-3.0732524 1.2927779 3.9401839 10.5
-2.8765078 1.2004445 3.9331512 10
-2.6312733 1.2129557 3.9694221 11
-2.3753741 1.2224408 3.9386225 11
-4.4992113 1.494458 3.9073801 10
-3.7938197 1.4460342 3.9402661 11
-5.8743591 1.6489685 3.9994833 10
-3.7995458 1.7150857 3.9456034 12
-3.599658 1.6248102 3.9586568 12
-5.8096099 2.2762916 3.9344356 13
-4.9486036 2.2502604 3.9652121 14
-3.8528032 2.5087578 3.937799 16
-6.3575773 2.6394489 3.9406884 14
-5.6136684 2.6324065 3.8978314 14
-3.0429599 2.6727605 3.9718177 19
-3.4404898 0.30231899 4.0087333 4
-3.3929191 0.3554762 4.0072513 5
-2.9738131 0.25074196 4.0481029 4
-2.2838571 0.57330668 4.0055966 6
-1.8767507 0.41973513 4.0375438 5.5
-1.7055466 0.46190777 4.0321321 6
-4.0880628 0.66523981 4.0128288 6
-2.7123284 0.7593106 4.0122418 7
-2.3785017 0.79623485 4.0466681 8
-1.7510556 0.6790036 4.0147519 7.5
-3.1035566 0.99399358 4.0052118 9
-2.8828356 0.93151921 4.0292649 8.5
-1.7517303 0.85257816 4.048182 9
-3.5920148 1.1210806 4.0066385 9
-2.9273157 1.6518857 4.0752268 13
-5.0332956 1.9487627 4.035018 12
-3.9625137 1.8683999 4.0421596 13
-3.5057855 1.8415396 4.0388618 13
-3.3777361 1.8617556 4.0334234 14
-3.1078367 1.8509495 4.0789871 14
-2.6528454 1.8640947 4.0833359 14
-2.4870608 1.8616247 4.0506873 15
-2.0028446 1.8976643 4.0775509 15
-1.7462052 1.9902556 4.0843253 16
-5.9119272 2.0752175 4.0144935 11.5
-5.0283966 2.0897317 4.0366182 13
-4.0109458 2.1586094 4.0602098 14
-3.3270621 2.0257139 4.0478215 15
-2.5333381 2.1718016 4.0291982 16
-1.9404167 2.0676339 4.1158519 16
-1.7757256 2.1113198 4.0756545 17
-3.9644301 2.2776423 4.0387173 15
-3.3243966 2.203774 4.0356293 16
-2.9174752 2.377115 4.1558142 17
-2.487921 2.2407222 4.0647807 17
-1.7344869 2.210758 4.001719 18
-3.0655215 2.5175812 4.0778203 17.5
-5.1248221 2.6648664 4.0065765 15
-3.5682726 2.6384575 4.0646777 17
-2.5840342 2.6599467 4.0180745 19
-2.1727743 2.6617162 4.0497384 20
-7.3459663 1.9688259 4.2372565 10
-7.4210749 2.1108942 4.2799144 11
0.6296615 0.59162587 5.995894 6
0.62577754 0.30887994 6.0366335 5
0.63036388 0.67136115 6.039783 7
0.59981328 0.87765676 6.0384402 8
3.3875587 -0.13891049 11.798557 2
3.4115894 0.34734854 11.973404 4
3.2784069 0.61403376 12.000999 5
3.4042811 1.1874382 12.023129 6
3.2793572 1.3311875 12.114923 7
-1.3246207 0.447429 15.085972 3
