# .PCD v0.7 - Point Cloud Data file format
VERSION 0.7
FIELDS x y z intensity
SIZE 4 4 4 4
TYPE F F F F
COUNT 1 1 1 1
WIDTH 1125
HEIGHT 1
VIEWPOINT 0 0 0 1 0 0 0
POINTS 1125
DATA ascii
-3.3853323 3.0323296 -4.6580243 19.011
-2.5453212 2.9987857 -4.4057879 20.008249
-1.3921216 2.8764753 -4.4068522 21.007
-2.9698343 2.968555 -4.2294631 20.0105
-2.6636992 2.9909859 -4.1445351 20.384876
-2.1413338 2.9930599 -4.1919942 21.00725
-1.7953601 2.9423625 -4.0810447 21.174709
-1.4230913 2.8831608 -4.1800423 21.5075
-1.688386 2.6111288 -3.7090807 21.00975
-2.6250653 2.9897203 -3.8042731 22.010099
-2.2548518 2.9960084 -3.8809242 21.721144
-1.8198291 2.9888268 -3.7977216 22.395721
-1.5383219 2.9870059 -3.6634943 22.756001
-1.1104207 2.9116261 -3.9713655 22.50625
-2.255425 0.77903038 -3.2727704 8.0107498
-1.7037485 1.2747418 -3.3613746 13.01075
-2.963809 1.6012352 -3.3431282 14.346499
-1.7081891 2.2982445 -3.3752985 20.01075
-1.6864611 2.4596448 -3.3143184 21.51075
-2.9081416 3.00544 -3.4441414 23.012501
-2.6654084 2.97856 -3.4628215 23.011332
-2.3072586 3.0102215 -3.4066105 22.610615
-2.7158411 0.68359357 -2.9404564 8.0135002
-1.7018491 0.74567276 -2.9478078 9.6786661
-2.8251231 0.81290239 -2.8412738 9.0144997
-2.7991023 0.93052399 -2.8653741 10.01425
-1.6949067 1.0380282 -2.9346364 12.512
-1.5558435 0.92981243 -2.9138002 11.26125
-2.8327365 1.3665367 -2.8412757 14.0145
-2.7066231 1.5809443 -3.1035118 14.0135
-1.6943537 1.3721685 -3.0106866 15.011749
-2.8126764 1.8491715 -2.8159189 18.0145
-2.6450524 1.8804022 -3.0471015 17.512751
-2.2963431 1.8712807 -2.8312621 17.262375
-1.6898705 1.6976084 -3.0323095 17.344999
-2.7899508 2.3731656 -2.8772674 21.014166
-1.6909546 2.2444482 -2.9344883 21.512001
-2.8170772 2.6245077 -2.8796849 22.51425
-2.6196709 2.5150418 -2.9503651 22.179667
-2.1591558 2.4568129 -2.940208 22.010876
-1.6791071 2.4689753 -3.0600379 22.511499
-2.5377493 0.68585694 -2.7138476 8.013875
-2.3727665 0.68773919 -2.4831376 8.0142498
-1.7051611 0.61462528 -2.6147463 8.6382504
-2.5063486 0.92340869 -2.6402559 10.01425
-2.2060399 1.1640991 -2.7995095 12.012
-1.6741488 0.97276515 -2.5499086 12.727571
-1.5726447 1.0108901 -2.6553023 13.01225
-2.7551289 1.3229191 -2.6537485 14.015
-1.6778408 1.4243528 -2.5213366 16.856602
-2.6293571 1.7524836 -2.5005646 18.515125
-2.285121 1.9186708 -2.4598229 19.347166
-1.6807262 1.9710314 -2.6931884 21.012751
-1.6986767 2.1026011 -2.572185 22.263376
-2.3250475 2.5123143 -2.7398062 21.971209
-1.6858428 0.2643699 -2.0799532 5.5
0.35487843 0.33853269 -2.0073717 8.1315002
-2.5733213 0.73993117 -2.2238412 9.6830006
-2.2166071 0.75320399 -2.0217357 9.68225
-1.7036414 0.59241223 -2.1901348 9.2934284
-1.5859667 0.72108763 -2.2195816 11.01425
-2.5172865 1.0658306 -2.0595984 14.017
-2.1885953 1.0959413 -2.2466943 13.305916
-1.7049558 0.99974716 -2.169374 13.681945
-1.5938417 0.9899745 -2.2729168 13.514
-2.5136559 1.4313697 -2.1931129 17.016167
-2.177917 1.4898455 -2.2355518 16.889252
-1.6897397 1.391924 -2.2017927 17.575705
0.32728237 1.5417947 -2.1222038 23.132666
-2.1733274 1.7109377 -2.1651044 19.0145
-1.6881994 1.7864333 -2.1915786 21.348389
1.1037596 1.6167217 -2.0725956 22.13275
-2.6169567 2.1087232 -2.3163509 21.516001
-2.2619801 2.2670243 -2.3295982 22.51425
-1.6812024 2.0305653 -2.291383 23.0145
-1.6967196 0.30866671 -1.7795097 6.5
0.4965961 0.37804174 -1.6837444 8.9766617
1.0023888 0.34017432 -1.6514115 8.1315002
-2.2462912 0.65268052 -1.7392738 9.8032074
-1.7003977 0.58776903 -1.7572346 10.096107
0.37175512 0.54281193 -1.9838833 11.131286
0.51058912 0.54445082 -1.7216314 11.687115
1.1094198 0.56794274 -1.7394727 11.331
1.2938735 0.70489454 -1.8103471 12.62975
-2.3391495 1.1943445 -1.7079508 17.018333
-1.6942892 1.0296994 -1.7164636 15.643192
0.50759572 0.99562025 -1.7037363 19.347502
1.3732105 1.1528769 -1.7110531 18.1285
-2.3503184 1.4159417 -1.806151 18.892687
-1.704776 1.2894036 -1.7498173 18.321032
0.54599738 1.4966462 -1.7397345 23.132502
1.1719655 1.5186172 -1.8108307 22.797501
1.234049 1.5836444 -1.7552698 23.129999
-2.2956014 1.7538861 -1.6775193 22.76825
-1.6817268 1.7190412 -1.8072819 22.572721
0.55779588 1.6740352 -1.977136 23.133499
-2.3198876 0.28836325 -1.2613578 6.1444445
-1.6865196 0.37285161 -1.3384786 8.2706251
0.58798093 0.33958137 -1.3219588 9.4500532
1.0260116 0.31409609 -1.4289101 8.4630003
-2.1677182 0.48484284 -1.3230894 9.163312
-1.7008164 0.68760973 -1.3643761 12.444342
0.61497384 0.60847604 -1.3103784 14.61777
1.0728371 0.60532409 -1.4076858 13.3957
-2.1515305 1.1161705 -1.4147238 16.686224
-1.7052363 0.99283111 -1.4122638 16.344559
0.65364283 1.0090886 -1.3245163 20.635988
1.0840032 1.0111169 -1.3916993 19.590347
-2.2131648 1.3233261 -1.3370129 19.761034
-1.6900978 1.3570194 -1.3833213 20.615028
0.60569626 1.2644064 -1.4961281 23.127279
1.0941389 1.2516358 -1.4304698 22.629
-2.0744491 1.782958 -1.4448287 23.01825
-1.6545877 1.622375 -1.4495261 23.019501
-3.1990016 0.36883774 -0.93947399 6
-2.748456 0.34538046 -1.0972414 6.5
-1.7014221 0.29670423 -1.0180802 7.2389727
-0.94385701 0.37384635 -1.1667033 13.0085
0.67541587 0.32526654 -1.0218698 9.930975
1.0071419 0.31054357 -0.99241352 9.8180771
-3.4344306 0.73765028 -0.83192509 9.5144997
-3.0010111 0.62466699 -0.99014401 9.4730005
-2.5646713 0.62413692 -1.0708153 10.228645
-2.1302457 0.55741996 -0.93848413 9.948101
-1.8058929 0.5575611 -1.0518855 10.892575
-0.90780443 0.55566514 -0.99577147 20.50975
0.68217438 0.54232299 -0.98960096 14.603394
1.0304707 0.59463799 -0.99481571 15.411233
-3.0845287 0.99785417 -0.91152525 13.6945
-2.7083547 1.0263255 -0.93662632 14.883191
-2.2033477 0.99048668 -1.0164521 17.059855
-1.7948905 1.0204811 -0.94129771 17.969454
0.69230169 0.93717909 -1.0403849 21.540468
0.93568248 0.98360729 -0.94206929 21.80821
-3.2391832 1.5328833 -0.85486943 18
-3.0981281 1.4665097 -0.91273719 18.15275
-2.7044811 1.4555618 -0.96098882 19.547075
-2.323128 1.3757521 -1.0866108 20.659109
-1.8556973 1.2809193 -1.022684 20.724125
-3.0418491 1.8082421 -0.90470755 21.527626
-2.762867 1.7669077 -1.0289986 22.359167
-2.9685855 0.087296084 -0.71706927 3
-1.8470333 0.19418021 -0.51377189 5.7313399
-1.1068159 0.059222907 -0.43086106 4
0.70392287 0.33524805 -0.62348288 10.641565
0.89552975 0.32376114 -0.52158678 11.348112
-3.7951951 0.65601897 -0.66004598 8.1974163
-3.4266105 0.69354331 -0.58845448 8.7800007
-2.9691985 0.59360647 -0.74690193 8.5279169
-2.1202111 0.76259387 -0.48125443 14.361333
-1.8572704 0.67456377 -0.63363081 13.647276
0.73596442 0.58055657 -0.61266428 16.143356
0.88082159 0.54036665 -0.53170472 16.24202
-3.7048817 1.1327462 -0.62406719 12.0305
-3.3998601 1.1488537 -0.66753411 13.52975
-2.9397659 1.0175381 -0.58018023 13.3625
-2.5328615 0.92638177 -0.49360088 14.528999
-2.0232549 1.0621871 -0.5067926 19.2272
-1.8149163 1.0275244 -0.56128812 19.14415
0.7493912 0.89239752 -0.62251312 22.350464
0.92519855 0.88542318 -0.59011197 21.699839
-3.8578901 1.3715224 -0.5246532 14.031334
-3.4642265 1.565025 -0.7587055 17.514832
-3.0043285 1.5341388 -0.6799044 18.0284
-2.6552985 1.4795409 -0.62414539 19.76475
-2.0032563 1.3028826 -0.51046562 22.527
-1.8003019 1.262022 -0.61909443 22.088745
-4.1912823 1.7211826 -0.485511 16.032
-3.7584069 1.8044963 -0.56101984 18.0865
-3.4642401 1.7972231 -0.73665452 19.514999
-2.722208 1.7116008 -0.75638527 21.027
-3.790427 2.2076006 -0.60215199 21.197584
-3.4706137 0.058624875 -0.010858491 3
-2.1204054 0.068254724 -0.15940648 3
-1.732756 0.19523375 -0.1608724 6.0429497
-1.3884528 0.050255828 -0.10344892 4
-1.068009 0.057397008 -0.15360776 4
0.75339317 0.26880071 -0.18568426 10.077138
0.96882468 0.31729886 -0.2132211 11.430557
-1.7247962 0.61904967 -0.20636088 13.561621
0.75749266 0.68367159 -0.23243317 20.102203
0.96733332 0.59616369 -0.20483179 17.353472
-4.6322541 0.82189047 -0.35755673 8.033
-1.7381855 0.97844648 -0.19449526 19.154564
0.77311575 0.84237731 -0.22837716 22.862749
0.99891734 0.90749073 -0.20029536 21.5079
-1.7359532 1.2663972 -0.32144624 22.831799
-5.1333203 1.8856311 -0.13802159 15.034
-4.5709219 1.8179038 -0.32863963 16.033001
-4.5718226 2.1053872 -0.32132322 18.033001
-5.0934339 2.7715466 -0.055341452 20.03425
-4.8169146 2.9333093 -0.12363232 21.033501
-4.6277318 2.8857269 -0.20907733 21.533501
-1.6693132 -0.01166445 0.11185703 2
-1.5132065 -0.0082977414 0.20255883 2
0.86050719 -0.068418518 0.39648002 1
-3.617347 0.053460758 0.12697408 3
-2.184567 0.056040477 0.22980088 3
-1.7797196 0.17611818 0.17096178 5.242979
-1.3439187 0.038221039 0.19339004 3.5
-1.0334691 0.04131509 0.2274491 3.6666667
0.76248574 0.20444709 0.21452565 8.4334402
0.99530143 0.29774913 0.18585509 10.980863
1.2391473 0.29383025 0.25856867 8.5381889
-1.7212516 0.5890379 0.19797972 13.066554
0.79439318 0.63525718 0.18015784 19.354479
1.0311551 0.60178375 0.21194613 16.825518
1.2399426 0.46754748 0.25132513 11.9325
-1.7349646 0.9793489 0.20288432 19.197634
0.77406979 0.82492816 0.21764168 23.10375
1.0595393 0.87649882 0.19971757 20.429234
1.2615104 1.0852743 0.24933614 21.141104
-1.7408561 1.2517014 0.2701886 22.595055
-6.9220424 2.8884668 0.33256939 15.0355
-6.4942026 2.8865666 0.32699367 16.0355
-6.1592755 2.8439524 0.36792952 17.035749
-5.6315966 2.8656869 0.24558496 19.0355
-5.5568295 2.9389818 0.29582447 19.0355
-5.0091386 2.8767142 0.069654405 20.634899
-4.7107086 2.8774614 0.1873659 21.160271
-4.2639809 2.8559582 0.071947783 23.035187
-1.6721038 -0.0016894341 0.56936699 2
-0.92306423 -0.0090641081 0.73755717 3
-0.1080882 -0.028658848 0.72192705 2
0.52472943 -0.071180537 0.52550679 1
0.99368274 -0.066955358 0.58525383 1
1.2516961 -0.062958688 0.44924623 1
-5.5727043 0.065129459 0.73243117 2
-4.6940708 0.049515311 0.7186799 2
-1.721612 0.15549617 0.56550848 5.2246766
-1.341939 0.01186508 0.71001548 3
-0.94863307 0.030499697 0.577048 4
0.17573121 0.00069919601 0.6653806 2
0.78735507 0.28585303 0.54482645 10.347501
0.98368454 0.29924741 0.61590439 10.314767
1.3291147 0.21100736 0.54624712 6.9229164
-1.7100253 0.60691541 0.59756505 13.021883
-1.5445091 0.52342308 0.71849161 12.046
0.98025858 0.56226504 0.56204104 16.13158
1.3323766 0.49842587 0.59037 11.524003
-1.7302177 0.99825609 0.57072413 18.930067
-1.5930488 0.87407935 0.78809828 17.046499
0.99157578 0.89349282 0.64371926 21.35961
1.3484344 1.004877 0.55576569 18.659325
-1.7134842 1.2961723 0.59162718 22.686428
1.3670022 1.2527664 0.59907597 21.595938
-6.5985103 2.7816441 0.64959389 16.036751
-9.7323895 2.8667712 0.61187524 12.036
-9.0792923 2.8541627 0.78458726 12.0365
-8.0925446 2.8994915 0.79654598 13.53675
-7.9313269 2.9179401 0.55985105 14.036
-7.0610676 2.9023175 0.69912016 15.03675
-6.4059696 2.8716247 0.58633125 16.036501
-6.1586547 2.8660381 0.62040091 17.036751
-5.7929974 2.8821163 0.57341462 18.036722
-5.3026323 2.8399415 0.61898768 19.537376
-4.9684753 2.8554981 0.5461632 20.4373
-4.5646272 2.8744931 0.51067686 21.674648
-4.3299351 2.8797565 0.42449939 23.037169
-1.7295349 -0.00020177849 0.83413339 3
-1.3270173 -0.038799629 1.0081642 2
-1.1445795 -0.00036618114 0.8812868 2
-0.55782396 -0.026272699 1.0655725 2.1666667
-0.14791253 -0.055258993 1.1073477 1
0.23933843 -0.0610983 1.0348457 1
0.60317683 -0.048700243 0.99376899 1
1.0885019 -0.061247855 0.98769557 1.5
-3.2792747 0.028146138 1.1169807 2
-1.7175875 0.21072969 1.0012218 6.0232501
-1.3206735 0.019811586 0.9825635 2.75
-1.0281384 0.022357175 0.95391589 2.8333333
-0.52101886 0.020967916 1.0340371 2.75
-0.21335736 0.013534738 1.0742081 3
0.79153931 0.15893571 0.80019265 7
0.93847972 0.28312159 0.96766549 8.9344997
1.3787664 0.28859425 0.99760592 7.9008279
0.95764965 0.54071677 0.94918948 14.414758
1.443724 0.57971466 0.96886909 12.165797
-1.705183 1.0452192 0.81768662 19.046249
1.0354064 1.0165819 1.0207021 21.026381
1.4451931 0.95008063 0.96785498 17.090153
1.4947867 1.4566236 0.99018347 21.854797
-7.9940224 2.7915776 1.1955763 14.03775
-6.4309773 2.7653146 1.0386349 16.03825
-6.2666631 2.7687283 1.0712966 16.5385
-9.3401518 2.843116 0.99653518 12.037
-8.475812 2.8672073 1.1872907 13.03775
-8.174139 2.873368 0.87800825 13.53675
-7.3596215 2.8931899 1.1398609 15.038
-6.5426507 2.8513107 1.0011289 16.038
-6.2076879 2.8627665 0.97379804 17.038124
-5.7246542 2.8300426 1.0461223 18.03875
-5.4202766 2.8529718 0.97187728 18.705332
-4.8964653 2.8205752 0.98897713 20.289501
-4.5609126 2.8344469 1.0248654 21.340149
-4.2127528 2.8479249 1.0091585 22.540127
-2.1327043 -0.0076192319 1.4560481 2
-1.432299 -0.039102465 1.3330994 2
-0.97071058 -0.047926735 1.3331672 2
-0.44557273 -0.040345989 1.5062566 2.25
-0.2429523 -0.036481544 1.4276366 1.8333334
0.092353404 -0.029372862 1.4139906 1.6666666
1.027311 -0.012599494 1.2549393 2
1.4773487 -0.064653151 1.2490835 2
-3.8190851 0.031991132 1.2313702 2
-1.9439249 0.032410786 1.3468479 3
-1.5338053 0.0057455599 1.4025937 2
-0.94547528 0.00077658892 1.4188308 2
1.0445772 0.33542323 1.3939011 8.8586874
1.3513438 0.21055229 1.3355268 6.0604997
0.96503967 0.54698819 1.3742326 12.660912
1.5534272 0.57278085 1.3284943 11.14745
1.6933248 0.62664342 1.5946939 11.0895
0.98474514 1.015295 1.4757489 19.124014
1.3710024 0.99338967 1.4301708 16.690151
1.6972494 1.0934585 1.4121577 15.647781
0.9689002 1.206846 1.5246789 22.084999
1.4671301 1.4565786 1.3503107 21.758417
1.6750377 1.3017493 1.418119 18.111916
1.7115669 1.7091677 1.48966 21.507042
-13.725039 2.7563059 1.4411234 9.0369997
-10.61849 2.7924645 1.5531894 11.0375
-6.0942974 2.7962763 1.3884691 16.789875
-4.4225807 2.7993381 1.3384774 21.042
-4.155684 2.7834525 1.5898479 22.043833
-10.56788 2.8175898 1.3472576 11.0375
-10.36654 2.8529377 1.544962 11.038
-9.0377083 2.8144164 1.4540514 12.03825
-8.5291176 2.8633122 1.2800931 13.03775
-8.3121939 2.8055294 1.4267153 13.0385
-7.976203 2.8115814 1.5603966 13.705501
-7.4239473 2.8436074 1.4429798 14.039
-6.1899023 2.827518 1.40082 16.289688
-5.6773825 2.8363881 1.3703278 17.790001
-5.303206 2.8067894 1.3169835 18.8405
-5.0210204 2.8382385 1.3219428 19.568403
-4.1842151 2.8491166 1.4336597 21.976034
-3.7364099 -0.031061377 1.8451555 2
-3.3811324 -0.013019975 1.9182222 2
-1.6178071 -0.029759146 1.7339566 2.5
-1.4533864 -0.02733455 1.700991 2.3333333
-0.91393113 -0.045119297 1.7431196 2.25
-0.51760811 -0.027358923 1.8307838 1.75
-0.068373464 -0.045027986 1.6848693 1.5
0.26289949 -0.05883329 1.7963661 1
-1.7595987 0.11490089 1.9377826 4
-1.2248439 0.16491364 1.6975641 5.8878932
-1.0419407 0.29077744 1.731643 7.6567502
0.96495426 0.3428072 1.7629493 8.0834999
1.2657247 0.32683882 1.7023072 8.0885
-1.6616163 0.54560322 1.9293253 10.001285
-1.4176083 0.56970114 1.8250527 10.998542
-1.046351 0.57401335 1.8006048 11.862391
0.96722698 0.55653197 1.8167285 11.351317
1.5992216 0.6208266 1.6744616 11.090917
1.765734 0.48813707 1.6836561 8.7560005
-1.6278684 0.92641252 1.9389157 14.745866
-1.2953632 0.99885672 1.8353395 16.886866
-1.0253476 0.99836016 1.7574733 18.042292
0.96356994 1.0463396 1.7648796 18.095106
1.2685468 1.0527722 1.7600667 17.088249
1.7359521 0.92409074 1.7199892 13.339001
-1.6014664 1.3836217 1.9914576 19.525366
-1.3168515 1.2890536 1.8864018 19.762487
-1.1770942 1.3976194 1.8241242 21.561874
0.94998008 1.3546292 1.846772 21.416334
1.4017369 1.4529073 1.680249 20.588501
1.7085345 1.3105855 1.7588332 17.589748
1.5727943 1.7135987 1.8744702 22.5895
1.8228951 1.7234292 1.7739478 20.089167
1.7325377 2.0809555 1.8150698 23.088499
-12.433118 2.7953966 1.7045709 9.0377502
-9.2164345 2.7993078 1.715355 12.0385
-8.8846474 2.7963653 1.8538244 12.039375
-7.6767688 2.7912703 1.9644178 14.04025
-6.0518961 2.7188296 1.6313434 16.042
-5.864603 2.7572241 1.7881936 16.708666
-5.0204811 2.7781999 1.7640711 19.192675
-4.4472785 2.7887583 1.682004 21.043598
-3.7766693 2.7636294 1.9104357 22.046667
-3.2611141 2.7824795 1.9364452 23.04825
-14.329246 2.8128388 1.8128971 8.0375004
-10.525085 2.8405123 1.7714946 11.03825
-9.9157314 2.8037088 1.9093502 11.039
-8.9564905 2.8458104 1.7482811 12.53875
-8.050149 2.8059809 1.6505957 13.039249
-7.6506882 2.815784 1.9065725 14.04025
-7.5050163 2.845556 1.6245444 14.0395
-6.9435205 2.8028693 1.9743627 15.041
-6.7529655 2.837755 1.6168481 15.04
-6.3289685 2.8127427 1.8555151 16.04125
-5.9835315 2.8042545 1.8335755 16.5415
-5.5617309 2.811018 1.70634 18.0415
-5.1077538 2.8090012 1.7255121 19.0425
-4.641305 2.8116722 1.7824844 20.209833
-4.2714648 2.8331475 1.6800504 21.66869
-3.9471076 2.8041072 1.8140572 22.0455
-5.4542913 -0.10363668 2.1263123 2
-4.8016815 -0.046139356 2.0658669 2
-4.7803411 -0.033014178 2.2125459 2
-2.0020998 -0.16225076 2.3935945 1
-1.6061379 -0.14507169 2.1965284 1
-0.88221037 -0.023487654 2.1367626 3
-0.49152654 -0.025736272 2.0028837 2
-0.30440649 -0.021294862 2.004437 2
-2.4269319 0.094260342 2.2680759 3.4166665
-1.8174901 0.10705028 2.1776476 4.333333
-1.3998687 0.065391876 2.0289207 3.75
-1.1047877 0.35434997 2.0260515 8.5623741
-2.4616609 0.66571927 2.2377269 9.6103334
-2.037034 0.52344263 2.071178 9.0559998
-1.8305875 0.64326477 2.1723092 10.496604
-1.25659 0.57067418 2.1998272 10.853167
-0.92150521 0.49944556 2.2003479 9.9070625
0.79406416 0.69058979 2.349767 11.0795
0.94698977 0.59082115 2.165843 10.582312
1.766407 0.63665617 2.0878987 10.589251
-2.6075749 0.95339513 2.3012929 11.928583
-2.1518459 0.96539038 2.2268417 13.280288
-1.9500327 0.90318322 2.0607138 13
-1.4283831 1.1013298 2.2792556 16.622732
-0.93858862 1.0182332 2.1666169 16.5979
-0.77866226 0.95264608 2.3988028 14.816874
0.94511968 0.97412956 2.0945458 15.581751
1.7546719 0.91130102 2.1756682 12.83875
-2.7151737 1.2856646 2.343297 14.303125
-2.2628827 1.3964667 2.2563975 16.759172
-1.8269643 1.4943626 2.2089434 19.389692
-1.3252587 1.3866259 2.19841 20.238539
-1.035951 1.3897738 2.122818 20.856152
0.91939515 1.3260909 2.1798224 19.247833
1.4043579 1.3145835 2.1554704 17.83675
2.0849581 1.3652351 2.2291312 15.088
-2.1908054 1.6557821 2.2537222 19.541624
-1.9271787 1.6004128 2.3407085 20
-1.5602 1.7777556 2.0508227 23.0592
-1.1839621 1.6741915 2.2635229 22.562626
-0.79463196 1.6847626 2.2945404 22.0665
1.8376538 1.8459119 2.1696486 21.089251
2.0657341 1.6780013 2.2196732 18.087999
-2.4368222 2.1513267 2.3109078 22.054251
1.5039454 2.1388958 2.2454824 23.084999
-14.351531 2.788681 2.2082624 8.0375004
-12.847742 2.7191591 2.1835709 9.0384998
-12.019195 2.766058 2.0207493 10.0385
-10.272736 2.779407 2.3997211 11.0395
-8.8522081 2.769887 2.1150136 12.03975
-8.1273785 2.7906399 2.0214257 13.040125
-7.3705726 2.770421 2.165087 14.041167
-6.9356861 2.7412302 2.3613811 14.54225
-6.3730145 2.7974298 2.2385945 16.0425
-5.7270737 2.724864 2.1588068 16.4431
-5.4161243 2.7341094 2.2336004 17.0445
-5.0661025 2.7727211 2.2467721 18.461166
-4.499579 2.7995758 2.3764076 20.046499
-4.2356772 2.7660084 2.1691308 20.41954
-3.8096769 2.7483084 2.2496452 21.190905
-3.4137993 2.7581582 2.2705193 22.591082
-3.0451696 2.7748561 2.2893999 23.050751
-14.578401 2.8301611 2.1200359 8.0380001
-10.670265 2.8284881 2.0116515 11.0385
-10.088404 2.8168688 2.1245341 11.039
-9.6720514 2.8017004 2.0802886 11.0395
-8.0508204 2.8079519 2.3670666 13.04125
-7.3250747 2.8054025 2.2321565 14.0415
-5.9053845 2.8721437 2.2313259 17.042999
-5.3656831 2.8285835 2.0858326 18.043499
-4.3849602 2.8356457 2.1888015 20.5455
-3.5856528 -0.094734088 2.4177442 2
-3.0043449 -0.057857998 2.6693931 2
-2.4247253 -0.081922621 2.7699108 2
-2.1202974 -0.08679764 2.6026583 2
-0.79279244 -0.063860774 2.7127898 2
-0.26438239 -0.08146365 2.6615119 1.6666666
0.36619982 -0.13171972 2.6510835 1
-2.5521731 0.15017344 2.5769804 4.166667
-2.1076453 0.078734234 2.4882696 3
-1.8210883 0.22285914 2.6194687 5.5
-1.0976086 0.059855532 2.7329817 4
-3.497288 0.64564192 2.627151 8.0509996
-3.0253198 0.79352933 2.5731766 9.052
-2.3619378 0.72400832 2.4175491 10.0545
-1.7816559 0.59207416 2.6878226 9.2217941
-1.0099921 0.46446443 2.6096973 8.5928755
-0.73234063 0.53591251 2.5528412 9.5118885
1.010825 0.56863576 2.6056395 10.082
1.3986288 0.49320769 2.4959614 9.085
2.1597002 0.63105369 2.5922093 9.08675
-3.7103968 0.85407245 2.5820913 9.0500002
-3.2081513 0.81040192 2.5287414 9.0517502
-2.7822304 0.98398578 2.5584767 11.386333
-2.3138573 1.1444973 2.4293032 14.05475
-0.67480677 0.94945949 2.6505942 14.068
0.94754475 0.89615947 2.6176789 12.413333
-3.3805718 1.3128181 2.5404174 13.051001
-2.8678689 1.3404856 2.6380787 14.053225
-2.7798877 1.2388999 2.522614 13.55275
-2.2439146 1.3897604 2.5478165 16.472345
-1.8292905 1.3201487 2.6843314 16.392166
-0.99437213 1.4301287 2.6230025 18.940012
-0.7294094 1.3434161 2.5603065 17.967365
1.4975859 1.3185319 2.4271908 17.086
1.906682 1.3401964 2.4922686 15.086
2.0444272 1.5710777 2.6273913 17.087999
-3.4050376 1.771932 2.6779268 16.21789
-2.8370399 1.7213068 2.6223459 16.90325
-2.6896253 1.6652451 2.5101261 17.053499
-2.3337555 1.6285346 2.4647176 18.388
-1.8634641 1.9689366 2.6325068 22.05825
-1.5121776 1.8419404 2.4298494 22.726667
-0.98826575 1.6886698 2.6747134 21.06525
2.1848979 1.7788615 2.4924035 18.087334
-3.5486205 2.0419147 2.7411165 17.051001
-2.6400404 2.2053123 2.507591 21.72011
-1.8599998 2.1051881 2.6893566 22.669556
1.4187958 2.1449757 2.6031761 22.583874
-13.390861 2.6817036 2.5642681 9.0389996
-12.232981 2.6926641 2.6099577 9.0392494
-11.743675 2.7150154 2.6292033 9.5397501
-11.178815 2.7204332 2.6359627 10.04
-10.13004 2.7919891 2.4083519 11.04
-9.5855589 2.7604854 2.6334233 11.0405
-8.930912 2.7795281 2.4716322 12.040751
-8.6579647 2.7929566 2.7669559 12.0415
-8.3418961 2.7722535 2.6070523 12.87475
-7.4484591 2.7529798 2.6447206 14.0425
-7.0243607 2.746556 2.6097465 14.542875
-6.5764079 2.7468302 2.6129675 15.168438
-5.6520448 2.6940353 2.7075667 16.046249
-5.4460335 2.7105894 2.5501435 16.712
-5.0062604 2.7391157 2.5691507 17.824028
-4.6254234 2.7416134 2.6330161 18.780525
-4.0064812 2.7738845 2.5461574 20.762358
-3.7761009 2.7338669 2.6171329 20.5495
-3.4560573 2.7491252 2.596174 21.69491
-3.0117073 2.6603224 2.5606375 22.468958
-2.5848825 2.7326438 2.7059526 23.054501
2.2035813 2.4713681 2.5995417 22.087
-14.584851 2.8064761 2.5275698 8.0380001
-9.6418943 2.820277 2.4879069 11.0405
-4.4983692 2.823477 2.4785581 20.046499
-4.5461249 -0.042104423 2.9905016 2
-4.1382341 -0.043379251 2.9768724 2
-1.5265051 -0.18603438 3.1081507 1
0.18187679 -0.12095444 3.0052805 1
0.97909337 -0.23481295 2.9958158 0
2.3572462 -0.1986572 2.9425507 1
2.401664 -0.074416868 2.9921761 2
-3.5971491 0.2439786 2.8293607 4
-1.1184748 0.083210468 3.0031004 4
2.366009 0.085831851 3.1417055 4
-3.6344967 0.76764351 3.0107815 8.0515003
-3.1905923 0.77829784 2.9727695 9.0530005
-2.5413117 0.70870745 2.8732209 8.930563
-1.1405855 0.65826976 3.1555007 10.065
0.846416 0.62555259 3.0518148 8.5782499
2.1416652 0.65463239 3.0272975 9.08675
-4.5566053 1.013142 3.1514575 9.0492496
-3.8181481 0.89553428 2.979218 9.0507507
-3.3279302 0.94166934 2.9901125 10.0525
-2.6019669 0.9399823 2.8698738 11.14095
-1.7569273 0.86394733 2.8248122 12.059875
0.91959995 0.89289725 3.154273 11.0785
2.2673759 1.0515277 2.9296856 12.086
-4.1784859 1.472536 3.0503685 12.383167
-3.3712759 1.4235225 2.8650451 13.55175
-1.5275143 1.3755794 3.1380198 16.06225
-0.81562656 1.5281415 2.9937549 19.066999
1.8939668 1.3639224 2.9157512 15.086
-4.7731638 1.8611401 3.1972196 13.54875
-3.8975739 1.7412852 3.0787137 14.05075
-3.271872 1.9217246 2.9120097 16.980822
-2.5461063 1.7376063 2.8555162 17.55525
-0.87139833 1.7867028 2.9881618 21.0665
-0.53203511 1.910377 3.0357912 21.069
2.2559195 1.8710582 2.9459324 17.58675
-4.6163459 2.0667624 3.1598051 15.049
-3.9948828 2.1148517 3.1149714 16.050501
-3.5669932 2.0652757 2.8897212 17.051001
-2.3584607 2.2551322 2.8563156 21.77043
1.3181658 2.1505961 2.9518416 22.08275
-13.414173 2.6685877 3.1911707 9.0395002
-12.282885 2.6529891 3.1800499 9.0404997
-11.50059 2.7375882 2.9791081 10.0405
-10.793733 2.7561076 3.015851 10.0405
-10.142127 2.7575877 3.1014118 11.0415
-8.4125118 2.7744155 2.8912778 12.375666
-7.7765284 2.724206 2.969593 13.043
-7.5706968 2.7125077 3.046742 13.0435
-6.9934788 2.7240455 2.9543972 14.043918
-6.5862813 2.7075012 3.0254962 14.378415
-6.3089876 2.7072968 3.0534754 14.54575
-5.8386192 2.6978962 3.1111145 15.713165
-5.439599 2.7140505 2.9466722 16.380249
-5.0457973 2.6720746 3.0740442 16.598049
-4.5885353 2.7309568 2.8490686 18.381584
-4.2778263 2.710211 2.9393337 18.716
-3.9313202 2.6965921 3.0320654 19.450651
-3.3811398 2.6852634 3.0229511 20.766869
-3.0381079 2.6634912 3.0622869 21.053875
-2.6762381 2.5871298 3.0055163 22.121851
-2.2130713 2.7405267 3.0294034 23.057501
-1.9827318 2.7238431 3.1105499 23.059
0.98502356 2.6012793 3.184011 23.078751
1.5110563 2.5763497 2.9460063 23.082375
2.3169742 2.4864259 3.0090365 20.752583
-5.3742814 2.8176763 3.0744715 17.047001
-0.21188036 -0.10338753 3.3319478 1
-1.1754104 0.60173976 3.3163278 9.0649996
0.78405041 0.68740678 3.205611 9.0775003
2.3893108 0.47821772 3.2137299 7
-5.5517907 1.0559053 3.547523 8.0489998
-1.050261 1.0034214 3.4644458 12.066
0.78171068 0.86647511 3.2054341 11.0775
0.91166925 1.0207291 3.4049826 12.078
2.337569 1.062148 3.3136184 11.418834
2.3156471 1.3169677 3.444418 13.0845
-0.63195229 1.997435 3.2147408 22.068501
2.4444299 1.7658281 3.2494514 15.918917
-6.6611733 2.2267075 3.4082363 12.04575
1.0235198 2.0732644 3.4068286 20.079624
2.4677522 2.1205282 3.2737904 18
-15.275902 2.7772689 3.2450914 8.0395002
-14.416451 2.6551824 3.3541317 8.04
-12.18172 2.6485386 3.4378052 9.0407505
-11.586829 2.704227 3.2304635 10.041
-10.971694 2.7273157 3.3269157 10.04125
-10.765115 2.648427 3.5111527 10.042
-10.104664 2.7350259 3.2836819 11.0415
-9.9991503 2.7007573 3.5141897 11.0425
-8.6192665 2.7520697 3.3081062 12.043083
-7.4935904 2.703104 3.4929125 13.04475
-6.9043469 2.7047958 3.3512802 14.045166
-6.554647 2.702203 3.4878979 14.213082
-6.3132181 2.7016604 3.4105821 14.546249
-5.8318319 2.7037537 3.4185643 15.297376
-5.4646368 2.6861773 3.4315107 15.548375
-4.9667377 2.6404595 3.2711253 16.048874
-4.6111064 2.6387041 3.4305115 16.479214
-4.1449594 2.6740839 3.444437 17.442417
-3.6968572 2.6648042 3.3418357 18.7195
-3.404618 2.6549547 3.3344274 19.053751
-3.0073276 2.6522095 3.4595199 19.8556
-2.6029799 2.6940622 3.3182075 21.056749
-2.1632621 2.7202144 3.3532245 22.201715
-1.7974427 2.7177944 3.3624279 22.727417
-1.0294038 2.7189038 3.5402591 23.0655
-0.47610506 2.6852419 3.570025 23.069
-0.390351 2.677597 3.5804486 23.0695
0.20710555 2.6406126 3.585587 22.948437
0.66850531 2.6497726 3.5799572 22.798443
0.94391263 2.6182494 3.5402551 22.878277
1.4151287 2.5949316 3.3743088 22.748194
1.748847 2.5683482 3.4497581 21.248667
2.264358 2.5367632 3.4741178 19.861973
2.413868 2.4815195 3.3222771 19.7925
3.0455086 2.7696199 3.5656509 19.58675
-5.3118224 2.8361115 3.2726679 17.04775
-5.0589256 2.8142951 3.3921318 17.0495
2.9641061 2.9097648 3.2371569 21.0875
-4.0702381 -0.14668828 3.9243076 2
-2.9976466 -0.10668029 3.9015684 1.5
-2.7101552 -0.140838 3.7890887 1
-2.2336802 -0.056190033 3.9680684 2
-1.90956 -0.099933252 3.940305 2
1.9866223 -0.1023086 3.8012607 1.6666666
2.1422734 -0.097700328 3.6714973 2
-6.8268557 0.39670393 3.9580634 4
-6.2149649 0.13510922 3.9380951 3
-5.9503794 0.11390245 3.9847207 3
-5.5270395 0.25059646 3.9215863 4
-4.6247044 0.38286269 3.9582102 4.3333335
-4.134366 0.26049617 3.9695728 4
-3.8723633 0.18266365 3.9659879 3.5999999
-3.3651469 0.2243489 3.9700775 3.75
-3.0810807 0.12310724 3.9328389 3
-2.4651842 0.28200737 3.9838247 4.5
-2.2145717 0.12777404 3.961431 3.4285715
-1.8998179 0.14867604 3.9506919 3.5
-6.4834433 0.43291289 3.9526911 4
-5.9619861 0.67285889 3.9644699 5.6666665
-5.4428835 0.52064186 3.9601047 5
-4.9987645 0.61952883 3.9601223 5.5
-4.5769768 0.62707388 3.9802251 5.8000002
-4.2260885 0.61081505 3.9867132 6
-3.7916012 0.6628769 3.983896 6.3333335
-3.4460716 0.63500965 3.9909596 6.4000001
-3.0084743 0.46387994 3.9910262 5.5
-2.5846014 0.56164533 3.984076 6.25
-2.1896424 0.53515285 3.9799061 6.3333335
-1.8993268 0.5954923 3.9714029 6.75
2.3527772 0.58688194 3.6752713 8.0854998
-8.4883289 1.0602627 3.9802868 6
-6.6097412 0.93715292 3.960911 6.5
-6.0852504 0.92988235 3.9762368 7
-5.7792225 1.0935574 3.9460807 7.7750001
-5.3925009 1.0255046 3.9501255 7.4252501
-5.0020885 1.0463259 3.9699321 7.6257501
-4.5579515 1.0776827 3.8009233 8.5257502
-4.1193495 1.0190219 3.922471 8.5266247
-3.8395319 1.0616918 3.8895798 8.7769165
-3.3653564 1.0576428 3.9049225 9.0279169
-2.9808817 0.95014346 3.9470141 8.5
-2.6395516 1.0586485 3.9413748 9.5958338
-2.2498276 1.0301844 3.8818963 9.5802002
-1.8524001 0.95514745 3.8677399 9.8308506
2.3037701 0.99202812 3.7727776 10.585
-17.730242 1.4256942 3.8712878 5
-6.8441424 1.3030093 3.9455278 8.0480003
-6.5424767 1.2481805 3.954103 8.02425
-5.4357743 1.5556915 3.9999256 10.0505
-4.5868177 1.4287584 3.8361363 10.192417
-4.3278909 1.5772736 3.7962098 11.0525
-3.8543148 1.3947041 3.9089849 10.693583
-3.3731856 1.4658263 3.9414687 11.778
-3.0528944 1.2643954 3.8123369 10.828
-2.5927186 1.2217782 3.930501 11.02925
-2.1607018 1.2295619 3.935257 11.0605
-1.8319242 1.2471009 3.9311831 11.728667
-1.4496963 1.2865657 3.7229428 14.064
2.2543099 1.3392832 3.88731 13.0845
-8.2114315 1.7878513 3.6691837 9.0445004
-7.865284 1.8183432 3.7950191 9.21175
-5.959208 1.7818758 3.631058 11.0485
-5.4866056 1.6227338 3.6485457 10.0495
-4.9970989 1.7676692 3.8972156 11.3845
-4.6739006 1.7967167 3.9163532 12.052
-4.2398767 1.8225311 3.9381363 12.3865
-3.8204505 1.7288699 3.9461102 12.527
2.1845787 1.6592767 3.9633017 15.084
-7.405623 2.2093239 3.9632413 11.04725
-6.4164686 2.2590413 3.9014544 12.0485
-6.0827999 2.1296387 3.8869526 12.049
-5.7657681 2.1272509 3.9108875 12.52475
-5.0422354 2.2926033 3.9482231 14.025499
-4.6985202 2.141674 3.9525595 13.052
-15.224625 2.7552998 3.6865029 8.0395002
-14.873241 2.6231387 3.8388741 8.0404997
-14.360764 2.6333113 3.7521663 8.04
-11.860436 2.6585505 3.6886315 9.0413752
-11.083486 2.6347144 3.8380511 9.8754168
-10.14845 2.6282008 3.8008006 10.043
-9.9629707 2.6741304 3.8171988 11.042749
-9.4682121 2.694279 3.7925332 11.0435
-9.0924511 2.7268503 3.9323626 11.3775
-8.7025909 2.7047768 3.7221928 12.04375
-7.6615176 2.6179349 3.9854763 12.047
-6.9119387 2.6723669 3.7822478 13.0475
-6.5130281 2.6821954 3.8334568 13.547625
-6.1593423 2.6101868 3.8157375 14.032084
-5.7254114 2.5931923 3.8925428 14.024625
-5.3784132 2.5780616 3.8091588 14.525
-5.1668439 2.6843834 3.8723223 15.05075
-4.2308078 2.5548143 3.6962609 16.151001
-3.8028312 2.6191225 3.8098984 17.27725
-3.3306532 2.6525922 3.7998395 18.3055
-3.0326147 2.6700361 3.8860703 18.8615
-2.6223876 2.6633892 3.8272266 19.529062
-2.180614 2.6572032 3.7027805 20.859798
-1.8015187 2.6655192 3.7595642 21.06175
-1.3735685 2.6724474 3.7516801 22.564169
-0.99465823 2.6756711 3.7812846 22.288334
-0.64664531 2.6562696 3.8735795 22.568439
-0.21080239 2.6500757 3.7427747 22.654167
0.14240699 2.6189044 3.8928053 22.252405
0.51613355 2.6434126 3.8599448 22.575405
0.9330284 2.6334062 3.7943726 22.194265
1.3101511 2.5591741 3.8380504 21.198612
1.7406735 2.5235803 3.6720109 20.331375
2.1166 2.5203614 3.8016083 19.583374
2.4397712 2.4420934 3.7917471 19.085501
-0.76020676 -0.15903491 4.3592257 1
0.28405818 -0.22032391 4.2297254 1
0.64390022 -0.29894716 4.1658173 0
-6.2573543 0.014813274 4.0566525 2
-5.7841167 0.075082064 4.0436292 3
-4.60008 0.18524143 4.0481958 3
-3.360707 0.29644838 4.0328274 4.5
-2.9997044 0.2491924 4.0456657 4
-2.5431685 0.29930508 4.0406818 4.3333335
-2.2260087 0.28290278 4.0171943 4.5
-1.9080839 0.26823795 4.0059857 4
-4.260951 0.62562084 4.0077958 6
-3.7393706 0.65102774 4.0065203 6.25
-3.4129598 0.63077915 4.0087962 6.4000001
-3.0432744 0.56542414 4.0131001 6
-2.6573839 0.69078338 4.0162115 7.3625832
-2.2811837 0.65245336 4.0155449 7
-1.8407369 0.55666107 4.0266633 6.6666665
-4.8377304 0.87634391 4.0034895 7
-3.3519962 1.057284 4.0144186 9
-2.998935 0.96551883 4.0278797 8.75
-2.7636127 0.90425617 4.0275359 8
-2.1998167 0.80818158 4.0306187 8.0301247
-1.8350246 0.85175604 4.1945381 8.3648338
-7.3163853 1.4653325 4.1804881 8
-4.7343469 1.3916702 4.0103703 10.026
-4.3785548 1.3125788 4.0063424 10.053
-3.7771013 1.2487614 4.0139618 10
-3.356101 1.285784 4.012949 10
-2.5919857 1.5195549 4.0429449 12.279562
-2.249213 1.3892431 4.0505161 12.310375
-1.8868802 1.2668533 4.0518827 11.395333
-7.3603621 1.8262775 4.2065725 9.5
-6.9485197 1.870563 4.0204248 10.048
-6.4094572 1.763098 4.0143156 10
-6.297235 1.7405264 4.0143509 10.049
-5.7415843 1.7457908 4.0122199 10.525
-5.4533057 1.9693267 4.0122476 12.0505
-5.1035442 1.9485689 4.0291924 12
-4.5035801 1.904213 4.0294809 12.05275
-3.8091846 1.8596253 4.0406275 13
-3.4499888 1.8676764 4.0438337 13.47775
-2.9220047 1.696259 4.0481758 13.329
-2.6077461 1.7029204 4.0557289 13.5295
-2.1953986 1.9113317 4.069006 15.32198
-1.7931349 1.9311509 4.0752573 16.0625
1.945503 1.790962 4.3403454 14.582
-7.3519702 2.1174996 4.2020144 11
-6.9162073 2.2415195 4.0114851 11.048
-6.4420128 2.0585797 4.0186057 11
-6.381619 2.1856663 4.0054817 12
-5.8309722 2.0964091 4.0197649 11.666667
-4.9632792 2.2978277 4.0364733 13.776
-4.4975734 2.1988521 4.0318465 14.05275
-4.1395082 2.257179 4.0491428 14.55375
-3.8064418 2.1651697 4.0474877 14.5
-3.418788 2.2157609 4.0524864 15.36125
-3.0104504 2.1588688 4.073915 15.833333
-2.5949659 2.2100046 4.068131 16.386642
-2.292382 2.1646562 4.0730953 16.613333
-1.8460292 2.1287496 4.060905 17
2.7296255 2.119493 4.1760087 15.584
-14.646299 2.6260185 4.146688 8.0407505
-12.180507 2.6982043 4.2857475 9.0424995
-11.928789 2.674901 4.1904821 9.0419998
-10.231962 2.6321833 4.3268089 10.0435
-9.5023537 2.6538312 4.08922 11.04375
-9.1939621 2.6469684 4.3068347 11.0445
-5.7148199 2.4627278 4.0320525 13.275
-5.4853697 2.5300868 4.0207787 14.0505
-5.0254068 2.6190352 4.0373931 15.025875
-4.6214566 2.4350536 4.0440049 15.0525
-3.69491 2.5646725 4.051219 16.444084
-3.4600103 2.5665288 4.0638065 16.778126
-2.9750071 2.5406742 4.0591698 17.803688
-2.5956616 2.6208811 4.0290265 18.862957
-2.1917195 2.5959485 4.0559969 19.397083
-1.7888652 2.5982401 4.120491 19.562584
-1.370507 2.6260033 4.3124499 20.136465
-1.069747 2.6252387 4.3209276 20.447495
-0.62554842 2.617933 4.2147508 21.068771
-0.29414052 2.608089 4.1818171 21.267239
0.15577614 2.6177106 4.2411232 21.123074
0.60575616 2.6089303 4.2495794 20.650204
0.97522974 2.5731821 4.2307992 20.464836
1.4132237 2.5013433 4.2075624 19.078751
1.8151636 2.5284429 4.2184095 19.2668
2.2589526 2.5083613 4.2014132 18.782949
2.5724118 2.468883 4.1556416 18.0835
2.9352782 2.7121794 4.0889492 19.0865
2.5522423 2.8405066 4.1272464 20.084999
-0.12358412 0.018201027 4.7700753 3
0.014222771 0.13234732 4.4922934 4
0.018509671 0.52864122 4.4768791 7
1.8904814 0.6729154 4.4961481 8.0815001
0.02143091 0.83465457 4.461226 9.5
0.030362666 1.3658245 4.4712787 13.072
0.032971978 1.6621192 4.45401 14.572
0.042999983 2.0007117 4.5022039 16.572001
2.2307904 2.355638 4.7941179 16.330873
-15.194315 2.5798254 4.5925255 8.0415001
-14.409979 2.6291599 4.4353638 8.0410004
-12.249124 2.6747689 4.6125937 9.0427494
-11.500174 2.625504 4.7455759 9.0432501
-9.6804686 2.6196342 4.5425982 10.0445
-9.4102459 2.6142201 4.6579709 11.045
-9.1622362 2.6148555 4.7951894 11.0455
-1.4329678 2.6661017 4.5641689 19.065001
-0.83341998 2.6423931 4.7631588 19.068001
-0.62636322 2.6055996 4.7313199 19.369083
-0.16749966 2.5877392 4.6239924 19.571125
0.15758377 2.5597105 4.6172152 19.397692
0.64454073 2.5611489 4.6672616 19.141768
0.90853518 2.5476677 4.6001058 19.043049
1.4185405 2.5021996 4.674139 18.478525
1.7381294 2.4891069 4.589148 18.163334
2.271554 2.4893091 4.5370526 17.665792
2.6592615 2.4292741 4.4933796 16.683002
-0.11792627 -0.30281699 5.0253844 1
-19.20437 0.18389806 5.0598202 2
-19.296728 0.9469102 5.1786604 4
1.4112188 1.1530336 5.0814939 10.0785
-0.055527359 1.9380392 5.1063371 15.072
0.56349397 1.9616226 5.1252551 14.629666
1.3461045 1.9140629 5.1976523 15.078
-0.069912791 2.0271649 4.8096876 16.572001
0.79907203 2.0338292 5.1461902 15.0755
1.9382672 2.3908477 5.0280848 16.41275
-19.305138 2.6105952 5.1923404 6
-18.165844 2.678786 4.9133029 7
-14.459581 2.5299172 5.0785813 8.0424995
-12.252899 2.6600645 4.8950257 9.0434999
-9.7067575 2.6619244 4.8234205 10.045
-1.6654578 2.6336784 5.1022034 17.564751
-1.382982 2.6488421 4.958766 18.06575
-0.98819065 2.6287849 4.8665471 18.4674
-0.56117046 2.5780115 4.9912844 18.5695
-0.23069674 2.5637317 5.1577449 18.237751
0.12077907 2.5712695 5.070261 18.37265
0.55540675 2.5428984 5.0807734 17.990896
0.97273576 2.4952247 4.9410872 18.32675
1.3417152 2.4776878 5.0281444 17.410833
1.7916151 2.4899304 4.9492011 17.580166
2.1236646 2.499362 4.9320831 17.081499
2.5671051 2.4709501 4.9390073 16.6831
2.9726245 2.4117575 4.974411 16.083
-1.5720042 -0.21297193 5.395061 1
0.33739898 -0.34493202 5.5511417 0
0.26419899 1.969292 5.5428257 14.57325
-10.127179 2.2609079 5.3078256 9.0454998
2.026907 2.2670336 5.3994646 15.07975
2.562135 2.3806922 5.3512759 15.414749
3.0762174 2.3467188 5.5197802 14.332251
-14.316719 2.5106003 5.4767756 8.0424995
-13.028913 2.5511363 5.5996428 8.0434999
-11.717244 2.6173918 5.3096714 9.0439997
-1.7645102 2.5505095 5.4130168 16.064751
-1.4223839 2.5527151 5.3117871 16.732666
-1.0157831 2.6022151 5.4313245 17.067749
-0.59079713 2.6090472 5.3736424 17.0695
-0.2982074 2.5300472 5.4296932 17.237457
0.19374752 2.5462956 5.4714017 17.322876
0.60021979 2.5016026 5.4773822 16.840809
0.9741357 2.4847538 5.4702339 16.659124
1.4554884 2.4267581 5.4016228 16.327625
1.6189464 2.5054557 5.2506838 17.079
2.2522116 2.4150681 5.4613004 16.080999
-23.667257 -0.30670294 5.767303 2
-0.70917958 -0.25133994 5.8491335 1
0.6439665 -0.024771359 5.9388185 2.5
1.5942957 2.3704576 5.8892651 15.077
2.2073548 2.3755612 5.8125615 15.079124
3.0794916 2.3354187 5.9642243 14.0815
-14.37997 2.5171959 5.8438888 8.0430002
-12.923967 2.537288 5.8250761 8.0445004
-11.699551 2.5998514 5.6133547 9.0445004
-1.7065217 2.5687056 5.874887 15.0655
-1.4405468 2.5786574 5.8818431 16.0665
-0.99568814 2.4912081 5.7671986 16.268049
-0.62855297 2.4872878 5.7032609 16.3195
-0.15113917 2.5037549 5.7417254 16.348974
0.21810427 2.522054 5.8027296 16.272875
0.55817449 2.5454323 5.9701567 16.324123
0.94134629 2.4581563 5.7708225 16.07575
1.3686457 2.494709 5.6791906 16.744165
1.7828177 2.4585693 5.7024636 16.079
2.0579476 2.4584379 5.6750841 16.08
0.74587452 -0.069311708 6.2570009 2
0.58687013 0.62259918 6.0198565 6.5
0.60785228 1.1647661 6.0441761 9
0.63663465 1.5772748 6.1361551 11.0735
0.61179036 1.7218912 6.038969 12.0735
0.61471325 2.098613 6.0177064 14.0735
1.2886207 2.3664021 6.2720332 14.575625
1.861255 2.3489137 6.2075067 14.494583
2.1075799 2.3800006 6.1784921 15.0795
2.6271267 2.3318586 6.1039224 13.913334
3.1170316 2.3252685 6.3721476 13.081
-12.899611 2.5366206 6.019321 8.0442505
-1.6085209 2.5869017 6.0198159 15.066
-1.4396826 2.5700469 6.2148838 15.06675
-1.0088092 2.5831118 6.1693859 15.06825
-0.52535427 2.4284689 6.2982917 15.07
0.35659021 2.4167726 6.0989418 15.0725
0.66673744 2.5744398 6.0669956 16.074499
1.1265218 2.4326768 6.2876201 15.076
1.4116377 2.4126377 6.2817211 15.077
0.89907026 1.1080374 6.7439442 8.0749998
0.94598943 1.34602 6.6746984 9.0752497
-0.8129586 1.9589694 6.4364386 13.069
0.1237036 2.3460147 6.7255793 14.0715
0.53939825 2.3631778 6.7344885 14.406584
0.98863363 2.3441925 6.729476 14.074751
1.3977256 2.3644834 6.6605234 14.076124
1.8265527 2.333961 6.5692277 14.328125
2.1923809 2.3652854 6.5580106 14.07925
2.6256731 2.3248532 6.5369339 13.58
-1.7923924 2.516464 6.688869 14.065999
-1.2812665 2.5564106 6.4022207 15.0675
-1.0951298 2.5377703 6.6173463 14.06825
-0.50643486 2.514183 6.6749516 14.07025
0.16356799 2.4351566 6.4410973 15.0725
0.88596225 2.4501567 6.7804708 14.075
1.2557678 -0.46032929 6.9672771 0
-1.6762462 -0.28164095 6.8832517 1
-0.27290621 1.2651124 7.0550308 9.0710001
-0.10067323 2.363471 7.0550652 14.0715
0.13593748 2.3245554 7.0300536 14.07225
0.68126845 2.3389933 7.0867839 14.074
2.4827225 2.2863131 6.9820642 13.0785
2.9066889 2.3432457 6.8532748 13.081
-1.4424634 2.5393343 7.0223813 13.734
-0.88480276 2.5109432 6.8121438 14.069
-0.6320284 2.498666 7.1777482 13.07
-0.23117971 2.5091801 6.8591723 14.07125
0.14860582 2.476413 6.8597417 14.072499
0.57651407 2.481699 7.0409961 13.573875
-1.1364406 -0.023586702 7.3373795 3
-1.6554769 1.8991992 7.5302262 10.067
1.0268121 2.2324052 7.3146462 13.075
1.3490775 2.3396161 7.2604303 13.075
1.7624755 2.3082862 7.5567231 13.076
2.1875749 2.2510741 7.4047661 12.07725
-1.2928263 2.4986477 7.3736696 13.068
-0.98207569 2.5105493 7.4803543 13.069
-0.25389597 2.4555941 7.5276642 13.07125
0.15600182 2.4598296 7.3654909 13.072499
1.7874818 -0.51464891 7.6083426 0
-1.4428673 1.9583437 7.6896868 10.56775
0.61154103 2.2302558 7.8350315 12.0735
1.0961163 2.3562789 7.6511283 13.075
1.5091268 2.3205085 7.9763589 12.576
1.8601758 2.2539403 7.9283929 12.076
2.009104 2.2511899 7.6868577 12.0765
-1.5864921 2.5213492 7.9411249 12.0675
-0.86067438 2.4362178 7.9234009 12.0695
-0.55924505 2.473532 7.826437 12.403666
-0.33793911 2.4487944 7.7849498 12.071
0.21035615 2.2165382 8.2357283 12.07225
0.45781788 2.2294788 8.0380182 12.073
1.5761056 2.2597756 8.2134714 12.075
1.7854853 2.2706532 8.1435032 12.076124
4.0837851 2.1438911 8.1794071 11.081
-1.3496637 2.4393315 8.2083044 12.06825
-1.0518179 2.4332871 8.020628 12.069
-0.18444534 2.4815137 8.1213818 12.0715
0.094481215 2.4585581 8.1506605 12.07225
0.70604897 2.4166734 8.2078838 12.074
4.1851177 1.486325 8.7933569 8.0804996
-0.40522578 2.2968187 8.5004358 12.0705
-0.15282913 2.190927 8.514349 12.07125
0.18926005 2.3955281 8.6109562 11.0725
2.2466083 2.2525403 8.5529499 12.0775
2.5076659 2.1052854 8.7296295 11.078
3.5579917 2.0963562 8.7514029 10.07925
3.8754704 2.1258929 8.4077911 10.58025
-1.695943 2.4500413 8.5313339 11.0675
-1.1479433 2.4610248 8.6392069 11.069
-0.38640857 2.4034731 8.6088066 11.071
0.35776284 2.436759 8.4274092 12.073
0.56219471 2.4379163 8.4210796 12.0735
0.1452789 1.4439533 9.0396481 9.0719995
3.9809477 1.4394448 8.889842 8.0799999
-0.59603667 2.2765954 8.9922657 11.07025
-0.19991133 2.3839262 8.8409796 11.0715
0.27233884 2.2213111 9.1512966 11.07225
0.60641104 2.3729608 9.1743259 11.0735
1.9691991 2.0783021 9.1274595 11.0765
2.2509177 2.1088173 8.9849539 11.07725
3.3145163 2.0691409 9.0215616 10.0785
3.7467656 1.4772048 9.3670959 8.0802498
-1.3322852 2.3734071 9.3167658 10.56875
-0.99501997 2.3567686 9.2406111 11.0695
0.071019202 2.3533115 9.3885317 10.405499
0.49257535 2.2713623 9.3378143 11.073
1.8222333 2.0695977 9.2788982 10.076
3.327019 2.1140485 9.3972073 10.078751
-0.81450224 2.433475 9.2686443 11.07
-0.23807181 2.3448064 9.9206324 10.0715
0.53043175 2.3298116 9.7119188 10.07325
0.95264864 2.1600115 9.8088217 10.407249
1.4568909 2.0545244 9.6054792 10.075
2.9916065 2.0577097 9.7141943 10.07725
-0.54911715 2.3224635 10.149418 10.07075
2.7397821 2.0188882 10.058537 9.0764999
4.9144363 -0.88575858 10.640626 0
-1.0378739 2.2790532 10.533662 9.0697498
0.24460699 2.2879121 10.441649 9.0725002
0.57297409 2.1507313 10.583817 9.573
2.6074131 2.0212743 10.467052 9.0760002
4.1184831 -0.72576964 11.192127 0.5
4.4141188 -0.79599667 10.860607 0
4.8889956 -0.0028730296 11.194576 2
5.4366994 -0.17589149 11.020832 2
5.1647387 0.013140593 11.141589 2
1.6708926 1.4618981 10.886503 8.0749998
-1.4439284 2.2541649 10.944147 9.0690002
3.4151857 -0.95346177 11.572415 0
-0.0037178528 2.2734165 11.372071 9.0719995
3.5992353 -0.99364871 11.954997 0
3.4586289 -0.54468948 11.709707 1
4.5750012 -0.47532845 11.731812 1
3.4910569 -0.11623417 11.788368 2
3.3046618 0.49337929 11.975758 4.5
4.3917069 1.652673 11.628797 8.0784998
2.2538106 -1.1047765 12.138687 0
3.6370807 -0.28289387 12.128372 1.6
3.3231332 0.37441128 12.007446 4
3.1403708 0.64797133 12.0714 5
3.1287048 0.91265148 12.097905 6
3.3551657 1.1882181 12.001973 6
3.1517053 1.2222142 12.062024 6.5
3.2766397 1.2678061 12.134238 6.5
2.4536405 -1.1036873 12.45864 0
-1.3720762 2.2277215 12.683631 8.0695
0.83253527 2.108551 12.509879 8.0734997
2.2953825 -1.0093663 13.130419 0
3.2158675 -0.58943397 12.984342 1
3.7951505 -0.32585719 12.840717 2
-1.1115402 2.2206507 12.948234 8.0699997
0.30655015 2.0723789 13.022748 8.0725002
0.54769582 2.0911949 12.845917 8.073
3.001935 -0.29128173 13.34866 2
1.2787265 1.8116533 13.41378 8.0734997
-0.60386634 2.2136459 13.546324 8.0710001
0.10028327 1.814918 13.894518 8.0714998
-0.30628231 2.1840069 13.654953 8.0714998
-1.3289242 -0.090593934 15.185097 2
-0.55333084 -0.087726772 15.149052 2
0.2935971 -0.065248638 15.196074 1
-0.96647877 0.24185051 14.83137 3
-0.59402955 0.33234853 14.964037 3
0.31674731 0.074743032 15.191503 2
2.3283064e-10 0.14238492 15.300299 3
