# .PCD v0.7 - Point Cloud Data file format
VERSION 0.7
FIELDS x y z intensity
SIZE 4 4 4 4
TYPE F F F F
COUNT 1 1 1 1
WIDTH 467
HEIGHT 1
VIEWPOINT 0 0 0 1 0 0 0
POINTS 467
DATA ascii
-1.3380258 1.9317561 -2.8670659 20.01
-1.477213 2.5309322 -3.1573393 23.01
-1.6472057 1.4526597 -2.6989079 17.012501
1.1296859 1.9535007 -2.5118446 22.634251
-1.5706036 2.0776105 -2.4605742 23.013
1.1357565 2.0716269 -2.5847955 23.134501
9.896616 2.1917851 -2.4467118 9.1134996
11.759133 2.0233591 -2.6302845 8.1129999
2.6794991 0.32865721 -2.1554527 5.5
4.1138959 0.11456183 -2.2522709 3.5
1.8980869 0.64267302 -2.1635795 9.6274996
2.2722416 0.71512491 -2.197207 9.7255993
2.5613222 0.70423216 -2.1203375 9.4387951
2.8710244 0.75512379 -2.0161192 9.1219997
3.9785061 0.72838289 -2.3020058 8.1199999
4.2230816 0.62102032 -2.1789439 7
1.6553795 0.9093619 -2.0745654 13.1285
2.2678597 1.0327023 -2.1250894 13.073083
2.5749764 0.94255054 -2.1344059 11.59915
3.9050703 1.0122482 -2.2405615 9.9133329
4.0624166 0.91835129 -2.1752763 8.9954004
1.8522981 1.4941839 -2.0584266 18.793833
2.2311275 1.2788087 -2.1559095 15.464857
2.5356917 1.3174565 -2.0695598 15.18675
3.9265621 1.4799585 -2.1096194 13.245999
4.1147132 1.4678162 -2.032043 13.1185
1.1296659 1.7396924 -2.0658083 23.1325
1.3348081 1.8031404 -2.0746608 23.130875
1.8025076 1.8457806 -2.1033928 21.827747
2.0855842 1.8354485 -2.0675249 20.834232
3.7670157 1.7259827 -2.1871085 14.746666
6.5360222 1.7919893 -2.3032782 11.11575
2.1764359 2.2218986 -2.0498505 23.12525
3.396641 2.3074813 -2.2207203 19.12125
3.7077012 2.3023064 -2.1213331 18.869875
5.1962247 2.373533 -2.1618581 16.117001
5.2604375 2.3110919 -2.123018 15.11675
5.9937873 2.3067155 -2.0505314 14.1155
6.0146208 2.3267763 -2.2086382 14.116
6.4506521 2.2736142 -2.1253786 13.11525
8.9082069 2.1734633 -2.3010135 10.11375
10.240456 2.0982549 -2.1733007 9.1127501
11.782261 2.0671151 -2.114522 8.1120005
2.648293 2.4761002 -2.0885639 23.123249
4.5842381 2.4289551 -2.1450248 17.118
-1.6354216 0.30393428 -1.6709379 7
-1.5594169 0.39508402 -1.9369649 8.0155001
1.4481401 0.35188597 -1.8773962 7.4811668
2.8903685 0.1931784 -1.9510638 4.5
-1.6376501 0.46270555 -1.6299725 9.0089998
-1.5140153 0.56561953 -1.8021855 10.197842
1.4539661 0.60562414 -1.8856659 10.6661
1.6708605 0.55560821 -1.8094113 9.6268749
2.7821825 0.59879696 -1.9701765 8
2.9150589 0.68471473 -1.9450439 8.7475004
-1.5208486 0.97003835 -1.7049772 15.849999
1.0024269 1.1202331 -1.8952105 18.382812
1.3678064 1.0093693 -1.8569945 16.129416
2.6905091 1.0501302 -1.9844604 12.333333
2.8041286 1.0761839 -1.9505827 12
4.1871309 1.0421917 -1.9659796 9.618
1.0685335 1.3326902 -1.8414217 21.131916
1.2259941 1.3964939 -1.8704234 20.797335
2.3704622 1.5402374 -1.9927377 17.5
2.6262598 1.4304545 -1.9313378 16.154249
2.9266701 1.3059536 -1.8959279 14.454501
4.07658 1.5244864 -1.9358516 13.059
2.2966075 1.8476766 -1.9464619 20.686874
2.5532424 1.7650232 -1.8886927 19.081499
2.9545822 1.6018598 -1.896152 16.121
3.8782341 1.7702509 -1.9507151 15.265583
4.021153 1.6816094 -1.9183981 14
3.8459651 2.3082559 -1.8837516 18.9184
4.062149 2.3398783 -1.7293797 18.4505
4.5137296 2.3785996 -1.8257387 17.616751
5.0177894 2.3120749 -1.8356174 16.115999
5.4445553 2.3426342 -1.9163387 15.11575
5.7472191 2.2955053 -1.7785147 14.781499
6.1562939 2.2855299 -1.7308295 13.61425
6.5487585 2.2998381 -1.9334054 13.1145
6.8572412 2.2632642 -1.693767 13.1135
7.3742599 2.2416368 -1.7288853 12.11325
9.397645 2.1574392 -1.892644 10.1125
10.360492 2.0923247 -1.8444304 9.1120005
11.408324 2.077559 -1.749012 8.1114998
2.6934192 2.4595163 -1.9865217 23.122499
3.0093269 2.4855666 -1.8780607 22.704084
3.4229226 2.4963441 -1.7530972 21.7188
5.1106124 2.4718783 -1.7459831 17.115499
-1.6374094 0.070791423 -1.2551996 4
-1.5627762 0.36510321 -1.3652426 8.3461676
-1.63755 0.46373644 -1.4232018 9.2696257
-1.5343878 0.54197919 -1.3248512 11.073029
-1.6308689 0.95087165 -1.3481407 16.414112
-1.5591303 0.97716367 -1.4015617 16.90064
-1.5180085 1.3452142 -1.3443106 21.652716
19.039923 1.8538269 -1.2723234 6
4.1511559 2.3445091 -1.4200069 18.448832
4.4384265 2.3706756 -1.3631864 18.11475
5.0084362 2.3007724 -1.3691415 16.447416
5.552916 2.3197749 -1.3705562 15.1135
5.8129044 2.2528219 -1.4415412 14.1135
6.0449839 2.2903252 -1.2229314 14.1125
6.5180073 2.2575879 -1.3857049 13.11275
7.553544 2.2184572 -1.5203561 12.1125
7.8372731 2.2096326 -1.2180605 11.1115
10.047691 2.118259 -1.4559252 9.1112499
3.0283203 2.4538121 -1.3792419 23.11775
3.415889 2.4883394 -1.4249345 21.950335
3.7300801 2.4482877 -1.2910435 20.9156
5.1486363 2.4554875 -1.5066235 17.1145
-1.714896 0.14484063 -0.92841828 5
-1.6766731 0.59101307 -0.99726892 11.982066
-1.5395416 0.6637677 -1.1204678 13.646563
-1.6498835 1.019599 -0.9635548 18.554583
-1.5834571 1.0517089 -1.0315292 19.22275
-1.617753 1.2728797 -1.0369031 21.448429
-1.5825473 1.2700484 -0.97868162 22.023312
14.427187 1.8931556 -0.96006507 7
3.9489641 2.3964224 -0.97051907 20.113501
4.0821023 2.3692801 -0.99287778 19.280085
4.5877428 2.3308964 -0.97613269 17.862749
5.0063787 2.3412218 -1.0084717 16.779167
5.3827858 2.308475 -1.0044352 15.712199
5.6186795 2.3142841 -0.99688566 15.112
6.189014 2.2876253 -0.9681769 14.1115
6.7000566 2.2499411 -1.0378879 13.1115
7.56181 2.222718 -0.92395884 12.11075
7.8557529 2.1687527 -1.0427787 11.111
8.0429525 2.1665559 -0.88626498 11.1105
9.9419737 2.1417127 -0.99723756 9.1102505
3.1794226 2.4665186 -0.93120426 23.1145
3.3646991 2.4582884 -1.0536762 22.44825
3.7592983 2.4432094 -1.0008534 20.780584
-1.6469586 0.12649207 -0.64769369 4.7142859
-1.5833348 0.078686617 -0.41047376 4
-1.6762435 0.57781112 -0.59079319 12.686762
-1.6937727 0.99288142 -0.60339075 18.95717
-1.638077 1.2506695 -0.62192035 22.645834
-1.5805868 1.2958328 -0.77768195 23.025499
20.908688 1.6856011 -0.43551764 5
3.9974177 2.3975 -0.52881312 20.111
4.1520081 2.3524764 -0.60214859 19.092583
4.9773965 2.3504891 -0.60902208 17.11075
5.2990303 2.3247814 -0.59389287 16.1105
5.6261163 2.295274 -0.62964433 15.1105
6.3537178 2.276978 -0.5648424 14.110001
6.754972 2.2267218 -0.76278818 13.1105
6.8768535 2.2428989 -0.61074471 13.11
7.7485685 2.2115636 -0.59829557 11.60975
8.295825 2.1633809 -0.56902158 11.1095
9.5851383 2.143997 -0.43828762 10.109
10.251392 2.1005921 -0.58279324 9.1092501
3.8686497 2.461725 -0.61876804 20.926249
4.0027337 2.4177418 -0.79976273 20.112499
-1.5582379 0.29218125 -0.15474135 8.2578926
-1.6454227 0.61331743 -0.2301719 13.908538
-1.5841695 0.47850224 -0.14994107 12.124167
-1.6935734 1.0082573 -0.20545614 19.944458
-1.6884279 1.2254161 -0.24009551 22.699417
4.2291727 2.3318744 -0.23918475 19.252108
5.0830588 2.3460488 -0.14596941 16.858625
5.419383 2.3075643 -0.17808947 15.708699
5.6841469 2.2110915 -0.19448483 14.608749
6.443542 2.240984 -0.14849843 13.441833
6.9334097 2.2008607 -0.17253625 12.6085
7.5722914 2.2449284 -0.18839754 12.1085
7.9530272 2.1588862 -0.36179519 11.109
8.231617 2.169301 -0.099057235 11.10825
8.8158588 2.1747277 -0.030053012 10.108
10.103151 2.0927169 -0.25154018 9.1084995
10.708936 2.0344908 -0.031951826 9.1079998
3.3948843 2.4735451 -0.15860397 23.108999
3.830672 2.4706748 -0.21644695 21.359249
4.0431199 2.4188204 -0.18821089 20.108999
-1.6429371 0.32150829 0.34124222 8.7073336
-1.4799501 0.30479568 0.17221572 9.0802917
19.439819 0.21169007 0.21281685 3
-1.6352093 0.65536797 0.21496053 14.938975
-1.5714426 0.59635037 0.1532933 14.177083
-1.1564258 0.49181765 0.28270882 15.0415
-1.6905938 1.0015169 0.18970084 19.803581
19.506716 0.83370197 0.32924482 4
-1.6733391 1.2201468 0.22027111 23.028751
19.42602 1.4510781 0.36614993 5
4.227931 2.3222625 0.15820496 18.984001
4.4266725 2.2832022 0.37749135 18.106001
5.3444657 2.2736061 0.19132732 15.857124
5.719151 2.1919909 0.26594904 14.5069
6.5291386 2.220154 0.20787258 13.10725
7.0629139 2.2103903 0.14942609 12.1075
8.8811455 2.1482174 0.27307588 10.10725
9.9215384 2.1116896 0.21126151 9.1075001
3.2737453 2.4267235 0.3177616 23.105751
3.8190649 2.4716587 0.21098216 21.440001
5.2690067 2.4274211 0.3259533 17.106501
-1.6432508 0.32693401 0.60470623 8.67735
-1.5787747 0.32256919 0.55562103 8.7937498
19.389765 0.26343328 0.42840397 3
-1.6694603 0.60818696 0.56090999 13.399694
-1.514565 0.59281605 0.5833376 13.907977
-1.6729172 0.94588524 0.60684139 18.404888
19.409206 1.0566168 0.62759155 4
-1.6452895 1.2353489 0.64003831 22.533438
-1.5897603 1.251096 0.69010675 23.022999
19.449837 1.4420193 0.62401259 5
3.1792326 2.3855722 0.549537 23.104
4.2416601 2.3129754 0.5900116 18.9048
4.4928308 2.2792683 0.6818375 17.8545
5.1254458 2.3815451 0.72156692 17.10475
5.4100232 2.2971849 0.61203212 15.855374
5.8232298 2.2193208 0.59910059 14.5056
6.7072792 2.2308974 0.64780259 13.10575
7.1098642 2.1688545 0.44541487 12.1065
7.3780928 2.2007673 0.79339468 12.1055
8.1254263 2.2164125 0.69125897 11.106
8.6132326 2.1937277 0.5554437 11.1065
9.0083008 2.1208572 0.67088425 10.10625
10.943419 2.0186443 0.4727222 8.1070004
3.192744 2.423871 0.77277708 23.102501
3.427557 2.4563642 0.67569089 22.770166
3.6557364 2.4817452 0.43547124 22.105249
5.2185307 2.4115171 0.50681865 17.105751
-1.6355819 0.33085126 1.0365062 8.0128365
-1.5836856 0.34751579 1.0095978 8.6616249
-0.63861287 0.19183025 1.1026783 7.4200001
-1.6589427 0.57631105 1.0238247 11.857048
-1.5627421 0.52752602 1.0642799 11.439699
1.5740411 0.79863834 1.1938164 15
1.72094 0.63346684 1.1555294 12.538834
2.1693065 0.57217038 1.1795831 10.0965
3.1622403 0.63592881 1.08982 8.7670002
-1.6284969 1.0098075 0.95223516 18.670807
-1.54352 1.10396 1.0510293 20.120745
1.5100509 1.049094 1.1799103 18.8195
1.8431301 0.88482243 1.1367007 15.27075
2.0566924 0.92710507 1.0914261 15.09675
3.0443485 1.0160036 1.1338478 12.510944
19.44327 1.1612887 0.93756962 4
-1.6045606 1.2530454 0.85175145 22.380501
-1.5543814 1.3236883 1.0150378 22.627708
1.4978771 1.3819274 1.1424206 23.093
1.709388 1.3117254 1.1476519 21.094376
2.0258276 1.5910459 1.1613595 22.096001
2.9497678 1.3811873 1.1194359 16.041292
19.39559 1.4051579 0.86970818 5
2.6391182 1.8404329 1.1631991 21.098438
2.8212643 1.7632179 1.0862736 20.099501
2.6505542 2.0589523 1.166013 23.098499
3.9658046 2.3777666 0.91116303 20.102751
4.1909328 2.2960305 0.93984872 18.436251
4.663805 2.3049083 1.0276973 17.103001
5.1957603 2.3103933 1.1469901 16.103001
5.3555188 2.2805545 0.93492651 15.604
5.9124684 2.2385249 1.0372037 14.104
6.2703853 2.2223761 0.95121849 13.1045
6.7628317 2.1937568 0.88462931 13.105
8.2248545 2.2203128 0.88740116 11.1055
9.1394787 2.1084447 0.97334313 10.1055
9.2098913 2.0996633 1.188329 10.105
3.1134181 2.4143145 0.96960878 23.101
3.3357387 2.4462678 1.032082 22.601101
3.7851613 2.4328995 1.0933431 20.768166
-1.6415461 0.22389726 1.2943275 6
-1.5606586 0.33931002 1.3195263 7.7012501
-0.69299841 0.29416269 1.3744154 8.5612497
1.179137 0.3047365 1.498909 8.0872498
1.387812 0.3405138 1.3450277 8.3246956
1.7523417 0.32825166 1.254171 7.44525
2.0078912 0.11610748 1.2331245 4
-1.6207364 0.59583747 1.2999829 11.686858
-1.5251521 0.61603808 1.4011728 11.88184
1.183875 0.64862853 1.508926 13.295542
1.3539225 0.57836682 1.3899775 11.923896
1.7494924 0.59563857 1.2548238 11.397837
2.1269908 0.57630748 1.2179778 10.096
3.1100531 0.63818145 1.2698829 8.8242493
3.2174776 0.70564377 1.245056 9.0994997
-1.6048265 0.88198286 1.22609 16
-1.5179818 1.0063777 1.402052 17.364937
1.1512779 1.0159156 1.484555 18.574499
1.326207 1.014339 1.3228937 18.638014
1.7775551 0.97408533 1.2255248 16.229334
3.0219965 0.97277123 1.2853898 12.115582
-1.4496192 1.3512623 1.3804165 21.942305
1.1767348 1.2369944 1.3946341 22.199165
1.3837641 1.288757 1.2716465 22.329687
1.6227192 1.3010435 1.2396019 21.093
2.7187996 1.4385687 1.3641502 17.072876
2.8809285 1.4199206 1.2810094 16.455713
2.329149 1.943126 1.3715961 23.095751
2.6136069 1.7791252 1.2775239 20.331251
2.5320065 2.0269125 1.2864014 23.097168
4.9762564 2.3322539 1.2591227 16.602249
5.5346913 2.2641153 1.219241 15.103
3.5252504 2.4860148 1.3163028 21.599751
3.6462057 2.4727681 1.2317455 21.1005
1.1164873 0.30749577 1.7452081 7.0678
-1.470073 0.55674511 1.7992953 10.171635
1.1109754 0.63215858 1.7898713 12.084715
1.2380615 0.61948806 1.740085 11.576556
-1.4099658 1.0070267 1.7558568 16.240406
1.1190406 1.0345131 1.8149132 17.32029
1.2485596 1.0977647 1.7400706 18.08625
-1.3752025 1.3176261 1.6706613 20.3895
1.2730204 1.4487518 1.9324628 20.807528
-1.6701908 1.8093387 1.9122777 23.0555
-1.3372873 0.63494062 2.0389602 11.058667
1.0762565 0.45614851 2.1166236 9.0827503
1.2656608 0.95358497 2.260704 14.083667
1.1277133 1.317508 2.2723603 18.0825
1.2533659 1.3268439 2.3986344 17.083
-1.6691962 1.8509421 2.2582419 21.557375
-1.6377885 2.0772891 2.2978961 23.057751
-1.5808028 2.123168 2.3818018 23.0585
1.0854479 0.20535541 2.6022699 5
1.0625724 0.62148464 2.540199 9.5810003
1.2068309 0.54783535 2.5662332 9.0819998
-1.6875201 1.0829014 2.6678979 13.059
-1.4290054 1.0970209 2.7511129 13.561
1.1498709 0.95963597 2.452292 14.082
-1.6447525 1.4572968 2.5920184 17.059
-1.4380261 1.3931146 2.7766759 16.061001
1.3487507 1.2342297 2.4396162 16.0835
-1.6362432 1.7930942 2.4595315 20.5585
-1.4094201 1.7920818 2.6728604 19.894167
-1.1633564 1.8600203 2.7654924 20.7295
-1.3865516 2.1180692 2.5409465 23.060501
1.2768977 0.36782265 3.1952467 6
-1.5259799 0.60762703 2.8016386 9.0605001
1.3061097 0.67861652 3.0424333 8.7910004
-1.442865 1.0414127 2.9989688 12.261701
1.1471339 1.100166 3.1206484 13.08
1.3150233 1.0219723 3.0648105 12.414584
-1.424062 1.3468771 2.8193259 15.561251
1.1183004 1.3525534 3.0571156 15.08
1.307536 1.4806322 2.9484437 16.414833
1.04979 1.7526627 3.0894296 18.47945
1.2460166 1.6256511 2.9893274 18.080999
-0.83929068 2.3279505 3.1487887 23.066
-0.50348407 2.2917461 3.1619275 23.068335
0.62090677 2.2829845 3.0968528 23.076498
0.9176985 2.3328977 3.0548387 23.078625
1.2959998 2.3304405 2.9780285 22.831375
1.2989388 0.2529662 3.2107286 5
1.0811337 0.71725011 3.2437356 9.4126673
-1.7039698 1.3867517 3.4834232 14.0615
-1.3854135 1.4367172 3.5715251 14.0635
-1.4846129 1.7324697 3.3783636 17.0625
-1.2863138 2.3576417 3.4255171 21.063749
-1.0623633 2.3380258 3.3923275 21.440001
-0.67207408 2.3448291 3.4244342 21.942499
0.25824764 2.3325608 3.3563299 22.07375
0.70133072 2.383378 3.5171211 22.0765
1.1731799 2.3935137 3.201267 23.08
-0.32940638 2.4425585 3.3647978 23.06975
0.0048183734 2.4345262 3.3355806 23.072001
-1.6646383 0.82013613 3.6007829 9.0620003
-1.6228057 1.6537535 3.6927021 15.0625
-1.3930998 2.3053002 3.977828 19.064251
-0.96250409 2.3348234 3.965296 19.733168
-0.58510971 2.3664122 3.9143581 20.193562
-0.21783279 2.3678379 3.8485482 20.737333
0.23110852 2.3882918 3.9456999 20.07325
0.91920871 2.3783443 3.8860688 20.07725
-0.15037005 2.4545414 3.6722419 22.070999
0.16664676 2.4178269 3.8732233 20.739584
0.627042 2.4142168 3.7366629 21.57575
0.80671453 2.4164844 3.6236482 21.077
-1.2544665 0.79427814 4.3546448 8.0655003
-1.3109362 1.5161223 4.3553448 12.81525
-1.410527 1.9146905 4.3268723 15.564751
-1.5095788 2.2476959 4.3131533 17.564251
-1.0100068 2.3268003 4.0250125 19.066332
-0.79317379 2.3424728 4.037467 19.067499
-0.12646939 2.367722 4.0439067 20.071251
0.19629237 2.2935584 4.2630548 18.673
0.63345701 2.2738681 4.2219424 18.646786
1.0054789 2.2346525 4.2689528 17.82725
-1.6999941 2.4973302 4.3789082 18.063499
-1.3981719 1.018142 4.4653859 9.0649996
-1.3599219 2.1264586 4.518609 16.56525
-1.0295867 2.2471206 4.7044344 17.066999
-0.55732322 2.1988227 4.6818447 17.06925
-0.3084102 2.2045805 4.7189574 17.070499
0.20145094 2.1614711 4.5266519 17.073
0.53808385 2.2032049 4.5326514 17.407999
0.86208218 2.1841393 4.5552177 17.07625
-1.8382277 2.5532625 4.4597559 18.063
-1.2776254 2.2529991 4.8222747 16.066
-0.93158191 2.2654428 5.0012608 16.567749
-0.55065179 2.2043993 5.0849681 16.0695
-0.20575352 2.232734 4.920702 16.404333
0.15391849 2.2540429 5.0177584 16.572668
0.5949803 2.2656989 5.0070558 16.407999
0.98831034 2.2178586 5.0899425 15.826375
1.2861595 2.2466025 4.9877634 16.077749
-1.3693335 2.2252569 5.4833641 14.637786
-0.95928413 2.1820138 5.4921031 15.068
-0.51666367 2.1960633 5.3904819 15.06975
-0.22432707 2.2009096 5.2814312 15.321001
0.20529236 2.1827967 5.4503961 15.072833
0.61761373 2.1778958 5.5258927 15.0745
0.9545067 2.1927798 5.3180466 15.076
1.3683444 2.2061458 5.3238273 15.07775
-1.0210477 2.1434157 5.862772 14.068
-0.62651032 2.1647031 5.8430538 14.0695
-0.18097676 2.1738074 5.6601448 14.07125
0.19616565 2.1576931 5.7122183 14.07275
0.63430804 2.1549218 5.6974125 14.0745
0.93755668 2.1377249 5.6081686 14.07575
-0.97977018 2.1127539 6.0299196 13.06825
-0.65835023 2.1191123 6.1027923 13.0695
-0.37430054 2.1548679 6.0227766 14.0705
0.0085864468 2.1646373 6.378293 13.072
-0.85269034 2.0896237 6.6461229 12.069
-0.5767374 2.0874116 6.6672745 12.07
-0.27693468 2.0751977 6.6470051 12.071
0.18306896 2.105602 6.6086173 12.4726
0.45445001 2.1039448 6.6673074 12.5735
0.88992321 2.1031876 6.7057819 12.075
1.3563632 2.0995078 6.7316628 12.0765
-1.0715358 2.1061738 7.0913887 12.0685
0.6892063 2.121758 6.8890185 12.07425
1.0721236 2.0351796 6.8384461 12.0755
1.3731387 2.0941715 6.8178992 12.0765
0.6510216 2.0158975 7.316175 11.074
0.80297214 2.0320735 7.2040243 11.0745
-0.58242595 2.063185 7.7556372 11.07025
0.26815614 2.0158 7.7345619 11.07275
1.1112803 1.9763376 8.276392 10.075
1.2833107 1.9918448 8.1720543 10.0755
-0.52834952 2.003185 8.275136 10.0705
-0.35110202 2.0610998 8.1091251 11.071
1.4451305 2.0052199 8.030179 10.076
1.6102747 2.0111477 8.0528383 10.0765
0.11497007 1.9694324 8.6709404 10.07225
0.66646719 1.9920888 8.4680729 10.07375
-1.0234454 2.0153177 8.6776867 10.06925
0.92823094 2.0020866 8.4426174 10.0745
-0.69848603 1.9565988 9.0358591 9.4034996
-0.27811822 1.9695697 8.8633652 10.07125
-1.3087252 1.9080756 9.3729696 9.0687504
-1.0037513 1.9319754 9.2464495 9.0695
-0.29695126 1.9566394 9.3078556 9.07125
0.12553883 1.9363868 9.4916534 9.0722504
0.52741146 1.9036367 9.5241051 9.0732498
0.86885303 1.9324917 9.5702639 9.0740004
1.7030267 1.8442506 9.5612974 9.0760002
-0.43129438 1.2717044 9.9497414 7
1.5314566 1.8386282 9.8659019 8.0754995
1.3249123 1.8140118 10.123259 8.0749998
-1.0246464 1.8684636 10.502641 8.0697498
-0.68843943 1.8598748 10.754694 8.0705004
-0.47310311 1.861719 10.933411 8.0710001
-0.23094133 1.8296599 11.010238 8.0714998
0.014466449 1.7953362 11.126385 8.0719995
0.29745457 1.7869067 11.847942 7
0.52536625 1.8226304 11.893495 7
0.015755728 1.6709119 12.167488 7
0.61421192 1.6040838 13.863267 6
0.3530004 1.5846682 14.092828 6
0.018650388 1.5609558 14.504922 6
-0.66401517 1.5117676 15.406763 6
0.19308153 1.4996003 16.520601 5
0.75095159 1.4849232 16.940836 5
-0.41218165 1.1429943 21.329382 4
