# .PCD v0.7 - Point Cloud Data file format
VERSION 0.7
FIELDS x y z intensity
SIZE 4 4 4 4
TYPE F F F F
COUNT 1 1 1 1
WIDTH 422
HEIGHT 1
VIEWPOINT 0 0 0 1 0 0 0
POINTS 422
DATA ascii
-1.7366524 2.4799237 -3.7245202 20.01
-1.960336 2.5016737 -3.4055352 21.011999
-1.3001736 2.5212572 -3.35007 23.008499
11.49603 1.9563601 -2.9437456 8.1137505
11.570526 1.9624941 -2.5368974 8.1129999
8.6068926 2.1451592 -2.5071929 10.1145
9.3360929 2.0848842 -2.6938739 9.1145
10.179478 2.002733 -2.7130864 9.1140003
7.1572556 2.2102437 -2.2284615 12.115
7.2344637 2.1714478 -2.1073225 12.1145
8.6957884 2.1027126 -2.3239958 10.114
8.9826183 2.0894737 -2.0879593 10.11325
9.7004738 2.0556116 -2.2543597 9.1132498
10.481756 2.0123322 -2.0449929 9.1125002
10.834825 2.0352845 -2.1501687 8.1125002
0.63243133 1.2770253 -1.6835536 22.552458
11.279266 1.9709435 -1.9511558 8.1120005
5.0232878 2.3325071 -1.7038064 16.115499
5.5271592 2.2020352 -1.7078501 14.7149
6.2862535 2.2097166 -1.818637 13.114499
7.4871178 2.1412849 -1.8992599 11.11375
7.810967 2.1565104 -1.733549 11.113
9.0801105 2.13027 -1.7908942 10.1125
10.499211 2.0425494 -1.8420907 9.1120005
4.9543996 2.4283209 -1.6637434 17.115499
-1.9731487 0.0993466 -1.227221 3.75
-1.9450312 0.58530986 -1.2679144 10.41815
-1.8934962 0.88794726 -1.2073687 15.023
0.76591617 0.99537492 -1.4253469 20.695156
0.81294781 1.1597996 -1.3652005 23.13175
19.439449 1.075272 -1.4172258 4
0.7559464 1.2485977 -1.5103389 23.133375
19.53451 1.6280737 -1.3419311 5
19.636713 1.6662824 -1.2863307 5
2.4931748 2.0041423 -1.2277832 23.1185
3.9244728 2.3523123 -1.4529442 19.449499
4.1855602 2.3137126 -1.333251 18.5151
4.6745377 2.3258533 -1.2537941 17.114
5.017169 2.3455377 -1.518289 16.61475
5.2773509 2.2993484 -1.3243324 15.780334
5.6260142 2.2429802 -1.5035449 14.114
6.1507287 2.2667725 -1.3503102 14.113
6.5173583 2.1801808 -1.4319528 13.113
6.9646668 2.193264 -1.2993176 12.11225
7.9065056 2.1194363 -1.5713751 11.1125
8.1635799 2.1157999 -1.3400862 11.11175
8.7182493 2.1325345 -1.3193976 10.1115
8.9251518 2.1378877 -1.5547235 10.112
9.9247818 2.0973086 -1.2898501 9.1110001
10.169375 2.0635698 -1.5521487 9.1114998
3.1238821 2.4360771 -1.2841382 23.117001
3.2929342 2.4543648 -1.2356213 22.116249
3.7736559 2.4330409 -1.3226473 20.490749
5.0355735 2.4238079 -1.2330031 17.113501
-1.9729725 0.284942 -1.0326581 6.743269
0.71640933 0.27008796 -0.91334617 10.07538
-1.9431574 0.63386518 -0.99536067 11.623682
-0.32693583 0.54446769 -0.96744382 19.0075
0.74410975 0.63933665 -0.95178843 18.278717
0.83442557 0.63275796 -0.81529647 18.62575
1.7354991 0.57863355 -1.0812624 11.8967
-1.9131807 1.0085225 -0.9492355 16.834843
0.78461891 0.87435657 -1.0889038 21.796333
0.80835629 0.91266274 -0.96638155 23.128
1.5093312 1.0849358 -1.0410793 20.121876
1.6577954 0.93896955 -1.0419226 17.09075
-1.8448522 1.3161284 -0.95565319 20.855198
1.3808529 1.2260466 -1.0105858 23.122499
10.641481 1.9381505 -1.0256535 8.1102505
3.1470475 2.3968742 -0.99256319 23.115
4.1870751 2.3153977 -0.99944484 18.668945
4.7687988 2.291966 -1.0542495 17.113001
4.9045792 2.3062205 -0.91155136 16.862249
5.3753924 2.2769909 -1.0381206 15.44575
5.9457302 2.2566223 -0.90623701 14.1115
6.0326533 2.275419 -1.0572582 14.112
6.7267766 2.1801207 -1.1892121 13.112
6.8733568 2.2001288 -1.046368 12.1115
8.5901308 2.1357126 -1.0224965 10.11075
10.129427 2.0181384 -0.98888206 9.1102505
3.0699458 2.417871 -1.151167 23.116249
3.3886263 2.4417534 -0.9751516 22.558891
3.7664657 2.4479761 -0.96304679 20.86375
-1.950859 0.27858788 -0.58561349 6.671
0.75144345 0.29703364 -0.78420341 11.459833
-1.9412891 0.57262927 -0.56113237 11.386584
0.75952238 0.53829283 -0.78770715 17.459749
0.82829058 0.42620152 -0.79371351 14.1255
-1.8935269 1.049446 -0.71234399 18.223461
-1.8386739 1.3423296 -0.632608 22.314178
11.297001 1.9033346 -0.49327207 8.1090002
3.1499829 2.3774767 -0.55177128 23.112
3.4144857 2.3974524 -0.66622096 22.112499
3.9242017 2.3979414 -0.42556173 20.1105
4.2080426 2.3164425 -0.6414032 18.825787
4.5251017 2.2772822 -0.53618085 17.61075
4.990942 2.3245287 -0.65147144 16.861
5.2323222 2.2995975 -0.57307893 16.1105
5.8052998 2.2411265 -0.62762761 14.6105
6.5106001 2.1906285 -0.55812663 13.110001
7.2467699 2.1254501 -0.47279754 12.1095
8.6789513 2.1286747 -0.74065834 10.11
8.9341536 2.1207242 -0.57400972 10.1095
10.085345 2.0204308 -0.64499527 9.1094999
3.1818371 2.4046485 -0.6976769 23.113001
3.4299743 2.4264612 -0.564174 22.445084
3.8359764 2.4304581 -0.57713985 20.911449
-1.8906792 0.30759162 -0.21742591 7.775125
-1.8905573 0.58453649 -0.16350268 12.226922
-1.8420821 1.1007453 -0.19621737 19.957394
-1.7908453 1.2628744 -0.1691148 22.60705
10.382519 1.9753054 -0.23010643 9.1084995
11.612155 1.889153 -0.24784936 8.1084995
3.2346535 2.3573089 -0.35543433 23.1105
3.9377551 2.3877606 -0.14811 20.358875
4.2268758 2.3128495 -0.18828228 18.809052
4.6061187 2.2474289 -0.29674608 17.109501
4.9879785 2.3039176 -0.21418197 16.775665
5.3705211 2.2627778 -0.17014715 15.608749
5.7465601 2.2125158 -0.30813038 14.60925
6.2610497 2.211796 -0.13310829 13.6085
7.6918721 2.1712577 -0.16433427 11.1085
8.7774172 2.1250186 -0.37151095 10.109
8.8191338 2.1262224 -0.17720734 10.1085
9.9673309 2.011106 -0.39903122 9.1090002
3.4299831 2.4161363 -0.24188809 22.609625
3.8095822 2.4557176 -0.2898069 21.109751
-1.766706 0.30221727 0.16105227 7.8504605
-1.5449566 0.36673972 0.30387884 9.5404997
-1.7863514 0.63681078 0.18830539 13.652248
-1.5292692 0.42229232 0.28374106 11.04025
-1.8016309 1.0130135 0.17021061 19.150879
-1.7565441 1.2400359 0.18537843 22.497482
9.7181234 1.9920442 0.01296895 9.1079998
10.56367 1.9332463 0.23721416 8.1075001
3.1512783 2.3651006 0.35284796 23.105499
3.9506185 2.3762176 0.092585109 20.1075
4.0998473 2.3385892 0.24832842 19.535215
4.4326353 2.2627046 0.15224853 18.10725
5.0330377 2.26829 0.173871 16.60725
5.5402193 2.2438622 0.18402797 15.10725
5.9436116 2.2022629 0.27189258 14.107
6.1756859 2.1984558 0.21955436 13.60725
7.741178 2.1297772 0.17986517 11.107501
8.7858868 2.1077142 0.11613327 10.10775
8.8298845 2.101831 0.39717802 10.107
9.7335396 2.0033944 0.22975475 9.1075001
3.469332 2.4836419 0.19246228 22.940084
3.8403292 2.4885783 0.0030046287 21.108
-1.6805832 0.2981562 0.57925707 7.7296362
-1.5007191 0.34884778 0.52508587 9.3625002
-1.7132509 0.5879333 0.58884084 12.662224
-1.5159432 0.56723249 0.52684075 13.543709
-1.6942087 1.021971 0.60985047 19.397984
-1.6706719 1.2843273 0.54053664 22.948854
-1.5967879 1.2528183 0.78837603 22.773251
3.4680815 2.3920901 0.65087235 22.10375
3.917068 2.3827868 0.74525422 20.10375
4.1530499 2.2872341 0.60958314 19.180944
4.5580306 2.2476606 0.60244334 17.105
5.1700654 2.2587745 0.79487193 16.1045
5.2446952 2.2546403 0.58533263 16.105499
5.739255 2.2198787 0.55845147 14.7058
6.2156935 2.1821675 0.55083299 13.606
6.4297662 2.1560907 0.64085162 13.10575
7.4781628 2.1604342 0.50620186 12.1065
8.0808659 2.1024768 0.52905172 11.1065
3.398977 2.4029658 0.60958672 22.604
-1.6371645 0.30785942 0.9046883 7.8646255
-1.5757289 0.28431582 1.13238 7.3030276
-1.636366 0.60307479 0.92036515 12.504036
-1.5826705 0.61434621 1.1351277 12.5
-1.6189926 1.0126613 0.92580569 18.885111
-1.5371152 1.0612993 1.067621 19.633656
-1.6064531 1.2330947 0.82270122 22
-1.4869623 1.2739894 1.0429264 22.506901
3.0473366 2.3272448 0.88982379 23.1015
3.7899241 2.3918464 0.84001505 21.103001
4.1657534 2.2577343 0.9579277 18.402851
4.6759377 2.2704587 0.88188821 17.10375
4.9790792 2.2676997 1.0647752 16.503201
5.3829818 2.2386653 0.9531737 15.104
5.7043781 2.2006855 1.0743299 14.10375
6.1933165 2.1964808 0.96722293 13.6045
6.5649257 2.1489449 0.86441308 13.105
6.8898005 2.1826663 0.93061048 12.105
3.5121326 2.4401636 1.1133189 21.601
3.6862662 2.4149363 1.0214561 21.101833
-1.4843394 0.18830697 1.4258497 5.3684211
4.4754295 0.20153587 1.5730284 4
-1.4906881 0.67756784 1.3222979 13.093932
-1.417006 1.079486 1.336445 19.163465
4.540596 1.0001043 1.5528688 9.1005001
5.3414364 0.97531003 1.4299326 8.1020002
-1.3806204 1.3443958 1.3833735 22.182999
4.3861609 1.2076179 1.5988576 11.1
4.5734296 1.2207209 1.5689274 11.1005
5.1097598 1.2772377 1.5023128 10.1015
5.4688425 1.2416558 1.413553 9.6022501
5.0123763 1.7012511 1.5442138 12.767833
5.438838 1.8030262 1.4364215 12.801001
5.6223874 1.6603593 1.3732054 12.1025
2.6611433 2.2631128 1.4585414 23.0965
3.0443692 2.3705854 1.4461508 22.597874
3.7246785 2.3679569 1.4194583 20.099701
4.1721725 2.235163 1.4427024 17.767082
4.5956016 2.280457 1.3498197 17.1015
4.9517007 2.2683811 1.3760641 16.3018
5.4292169 2.1693349 1.3973659 14.611452
5.6938796 2.2116735 1.2735405 14.103
3.1472702 2.4142904 1.3034292 23.099001
3.2251725 2.4187624 1.2639577 22.099501
-1.3355101 0.17066722 1.7500231 4.8666668
2.9737031 0.20759323 1.9097699 4.4000001
3.3638201 0.21266778 1.8073901 4
4.2545838 0.22940035 1.7008725 4.1666665
4.4007993 0.22665714 1.6227667 3.5
-1.2859744 0.59690398 1.7955278 11.079533
-1.1999106 0.70808494 1.9757066 12
2.7948904 0.703107 1.9970925 9
2.936892 0.56276184 1.9393591 7.5
3.2185168 0.69731456 1.8723179 8.0959997
3.9505367 0.66221583 1.8128204 7.5489998
4.1278572 0.75531566 1.7764764 8.0494995
-1.2749503 1.0315522 1.7646704 17.014708
-1.1867152 0.93570662 1.9522141 15
2.7677252 0.98537135 1.9819856 11.5
2.9767525 0.97220057 1.9148669 11.230167
3.3498356 0.80494469 1.8422294 9.0965004
4.1115918 0.86117119 1.7849633 8.6213884
4.4131064 0.90190578 1.6051699 9.1000004
-1.2617509 1.3415233 1.7003851 21.09605
-1.1856738 1.3211139 1.8595695 20.059
2.724689 1.3296585 1.9796318 14.666667
2.9427631 1.4075296 1.9457598 14.770375
3.8535309 1.4846454 1.8769065 13.25
4.1382241 1.379492 1.7452273 12
4.4093132 1.5085754 1.6114951 12.6
3.5047102 1.9002478 1.9848988 17.048
3.8491728 1.8079575 1.8495575 15.545455
4.1420145 1.7939438 1.6889962 14.833333
4.7496157 1.9812185 1.6107839 15.1005
2.600791 2.2895818 1.7052948 23.094749
3.1847906 2.3910499 1.7529784 22.0965
3.5036793 2.2567418 1.955193 19.048
3.7614439 2.3097956 1.7160765 19.407084
4.1298862 2.2052786 1.6881131 17.566252
4.7672672 2.2497303 1.6186018 16.1005
3.422375 2.4227915 1.9443049 20.798
-1.2161461 0.27968618 2.0194082 6
-1.0559635 0.22108904 2.1665266 5.3076925
-0.56201291 0.031355638 2.2734296 3
1.8970693 0.16734891 2.26157 3.8
2.2079957 0.15953842 2.2690279 3.8
2.5712409 0.19238037 2.1571736 4
2.8067949 0.16809063 2.0173979 4
-1.2194872 0.4609209 2.0158587 8.5
-1.0296489 0.49795136 2.2107806 9.0721359
1.737511 0.68294877 2.334625 10.111821
2.2107108 0.61670554 2.2985671 8.5555553
2.5958805 0.59777135 2.1391432 8.1538458
2.8097026 0.57982409 2.0129058 7.6666665
-1.1552815 0.96548885 2.0541816 15.170313
1.8691624 0.90944791 2.376364 12.315375
2.2183862 1.0336711 2.2902873 12.6
2.5423815 0.98962682 2.1316426 11.866667
1.8729153 1.4361694 2.3820317 17
2.2155788 1.3701963 2.2447557 15.833333
2.6511264 1.4385455 2.0426631 15.618179
-1.2994834 1.893249 2.2447698 23.059999
1.8503695 1.8362566 2.3151851 20.5
2.2479665 1.8082857 2.1364968 19.983072
2.5638165 1.8539834 2.0407896 19.342625
3.0080802 1.9461721 2.0214713 19.0945
1.5747397 2.0454342 2.3807633 23
1.7108444 2.0679195 2.3067243 22.924166
2.1979764 2.2345452 2.1234417 22.8904
2.5840194 2.2129087 2.0685887 21.842529
3.1202917 2.1958406 2.059819 20.094666
3.1371069 2.4452221 2.0113003 22.094999
3.2490785 2.4348595 2.0259857 21.095249
-0.005173679 0.021545418 2.4755309 3
1.734532 1.148782 2.5797305 13.98
-1.2213894 1.5957586 2.6047451 19.062
-1.165989 1.3703821 2.7493277 16.5315
1.6860371 1.445226 2.5175171 16.991583
-1.2303088 1.8338084 2.5552506 21.56175
-1.1309596 1.9556948 2.7198696 21.875498
1.5848166 1.9979653 2.408725 22
1.6795614 1.7270766 2.4459257 19.917751
-1.2293837 2.0197899 2.4864514 23.061501
-1.163697 2.0956419 2.5854461 23.041498
1.5086411 2.2889974 2.7267628 23.083626
-0.31878293 0.24941614 2.8829701 5
-1.1063582 0.68595654 3.0354874 9.2978745
-1.1218408 0.99264622 2.9338074 12.4225
1.6960056 0.991359 2.9433479 12.084
-1.0391948 1.3613662 3.0326369 15.538462
-0.97436154 1.8254935 3.0334649 19.464901
-0.94331419 2.1775589 2.9849312 22.315001
-0.61261344 2.2635708 3.0403278 23.067499
0.16540852 2.278481 3.124176 23.07325
1.0493962 2.2964928 2.8964868 23.08
1.3400683 2.3124146 2.9713707 22.581749
1.6431147 2.3339598 3.0222542 22.083502
-0.91732299 0.26166937 3.3994644 4.8571429
-0.96669817 0.63092011 3.2990782 8.1574993
1.8353565 0.69020784 3.5529916 8.0830002
-0.90637583 1.0129147 3.3164432 11.8
1.8409911 0.97730243 3.5433137 10.5
-0.89970404 1.3840501 3.2874627 15.283
1.8409996 1.3387043 3.3849926 13.042
-0.89040941 1.6154727 3.2705359 17.066
-0.58106393 2.3596067 3.5135708 21.818249
-0.054957572 2.3245857 3.3612051 22.404999
0.63438177 2.3857696 3.5961735 21.076
1.1617402 2.3430023 3.4230115 21.0795
1.472414 2.360903 3.4702935 21.081249
1.6072525 2.3495212 3.2700779 21.0825
1.8756819 0.78230304 3.6177347 9
-0.81937939 2.3717728 3.8538854 20.567249
-0.52291083 2.383992 3.7009697 21.402166
-0.22366399 2.3812671 3.9130113 20.320751
0.07371214 2.3889492 3.6436794 21.5725
0.46586287 2.3784065 3.955914 20.074749
1.0317377 2.351876 3.8269579 20.006641
1.3824042 2.3225596 3.7977304 19.496708
1.7863129 2.2692578 3.8076763 18.748751
2.1377888 2.2494969 3.9128633 18.0835
-0.33452651 2.4023318 3.7197561 21.07
0.72316265 2.4121597 3.6865003 21.0765
1.9835608 1.582242 4.0646038 13
-0.6237424 1.8085395 4.2876363 15.546
-0.38876128 1.8500508 4.2544074 16.07
1.5620474 1.6763406 4.2945566 14.08
1.812445 1.7091583 4.1790919 14.317668
-0.60394996 2.2734318 4.2403269 18.455099
-0.14714628 2.2896934 4.2250338 18.821251
0.24806337 2.2805378 4.2119317 18.634428
0.58473223 2.3011506 4.1510191 18.825251
0.97584361 2.2604904 4.1457772 18.493999
1.3120418 2.2299421 4.1785626 17.954
1.8177341 2.2023523 4.2036781 17.281399
2.13678 2.1523039 4.1116123 17.083
-0.59044749 2.2225423 4.4788198 17.069
-0.11012489 2.2239752 4.6438847 17.071499
0.28545076 2.1881294 4.5754519 17.0735
0.61772549 2.2958243 4.7038646 17.408335
0.89042968 2.2380717 4.5362906 17.0765
1.4313725 2.1596053 4.567688 16.412333
1.6652633 2.1270671 4.6137328 16.08
-0.57659137 1.2158142 5.1518221 10.0695
-0.56690705 2.0064971 5.0499525 15.0695
-0.15115289 2.2187908 4.8768597 16.404669
0.1866423 2.2487895 4.9679646 16.322876
0.6376211 2.2096868 5.0925179 15.874901
1.0202225 2.2175372 4.9903898 16.076668
1.9764585 2.1725688 5.1104879 15.0805
-0.36463985 1.618377 5.5558453 12.0705
-0.070021614 2.2053277 5.3784499 15.07175
0.23622133 2.1770303 5.5024567 15.073001
0.52286768 2.1871443 5.4108067 15.07425
1.0368556 2.1908088 5.2529025 15.0765
1.4500012 2.1785972 5.4541497 14.578
1.7708718 2.1751907 5.3826957 14.412666
-0.65927225 2.1439242 5.878243 14.0695
-0.1983375 2.1531811 5.7735939 14.07125
0.24695772 2.1331751 5.771894 14.073001
0.6210795 2.1691556 5.7397532 14.0745
1.017574 2.1278055 5.7908292 14.076
1.2508551 2.1589341 5.6354737 14.077
2.2362747 2.0891178 5.7966437 13.0805
-0.078969501 2.1379755 6.1941004 13.07175
1.4932443 2.1174836 6.2065177 13.0775
1.7750471 2.0885696 6.2507892 12.828375
2.0439515 2.0955069 6.0283346 13.0795
0.13891511 2.0883267 6.5937586 12.5725
0.5712378 2.0472646 6.6539974 12.407333
1.0903004 2.0241675 6.7061181 12.07575
1.3665129 2.0319967 6.5544724 12.07675
1.7535977 2.0761945 6.5478292 12.078
2.1514828 2.0939977 6.6060419 12.07925
2.4461908 2.0583887 6.7638259 11.58
-0.013705876 1.4174221 7.1277757 9.0719995
-0.013108287 2.0348399 6.8019357 12.072
0.92600781 2.0399222 7.0872369 12.075
2.1370168 2.0235145 7.0938263 11.078751
-0.013888603 0.46133867 7.2274113 4
-0.01410245 1.1569211 7.3440108 8.0719995
-0.014005758 1.8525603 7.2912889 11.072
0.63528049 2.0357904 7.4166422 11.074
0.97731447 2.038414 7.5151696 11.075
1.8108097 2.0200994 7.4359794 11.077499
1.5284109 1.9994065 7.715837 11.0765
0.32766306 2.0280273 7.6940179 11.073
0.50197148 2.0467858 7.7335882 11.0735
1.3706924 2.0008795 7.8318033 10.076
2.1127207 2.0067778 7.9170818 10.078
0.97426492 1.9721143 8.1437111 10.07475
0.35346806 2.0327673 8.2966776 10.073
2.9031916 1.9295076 8.5574894 9.0795002
0.55734217 2.020102 8.5856895 10.0735
2.3039417 1.8997343 9.0564184 9.0777502
2.679574 1.9342619 8.8606625 9.0787506
1.7432692 1.8448629 9.4101067 9.0762501
2.0559628 1.8868866 9.3069077 9.0769997
0.93931496 1.8797795 9.7980099 9.0742502
1.3953824 1.8545146 9.6682253 8.7419996
3.0559072 1.8722881 9.7047224 8.0790005
0.98193538 1.8492973 10.184912 8.0742502
1.3263557 1.8753644 10.059526 8.0749998
1.7585371 1.8516701 10.136384 8.0760002
2.023083 1.8552839 10.303496 8.0764999
2.5168738 1.7508181 10.376539 8.0775003
2.9862444 1.7794921 10.273984 8.0784998
2.2829738 1.840872 10.415596 8.0769997
2.8689876 1.8119432 10.744868 8.0780001
3.3517179 1.6884946 11.539472 7
2.5598264 1.7587306 11.704844 7
2.8242657 1.5982004 12.779634 6
3.9251425 1.5411875 13.543 6
4.9568419 1.3469387 17.06472 5
