# .PCD v0.7 - Point Cloud Data file format
VERSION 0.7
FIELDS x y z intensity
SIZE 4 4 4 4
TYPE F F F F
COUNT 1 1 1 1
WIDTH 737
HEIGHT 1
VIEWPOINT 0 0 0 1 0 0 0
POINTS 737
DATA ascii
3.4802895 3.9185262 -6.0127277 19.132
4.5384912 3.8917165 -5.8970628 18.129
3.0245068 3.8668141 -5.7997937 20.132999
3.4819202 3.8805773 -5.7290273 20.1315
3.5201366 3.8741615 -5.5152869 20.131001
3.7223475 3.8404438 -5.5883727 19.130501
3.8727386 3.8443606 -5.5417309 19.129999
4.0213366 3.8467364 -5.4890203 19.129499
4.2081795 3.8815327 -5.485127 19.129
4.2929106 3.8318903 -5.3592777 19.1285
3.5856299 3.9060757 -5.3861179 20.130501
4.41083 3.8116574 -5.2611737 19.128
3.6085317 3.8962228 -5.164854 21.129999
4.5566707 3.8138745 -5.1948743 19.127501
4.5212178 3.8658369 -4.9287233 20.127001
1.9215975 3.9333642 -4.9364471 23.1355
3.6601689 3.9103217 -4.9788361 21.129499
2.0189934 3.8840716 -4.8832946 23.135
4.2383423 3.8760669 -4.8308749 20.127501
2.8751707 3.8752618 -4.7535167 22.6315
2.9900625 3.87428 -4.702467 22.131001
3.676105 3.9032416 -4.7877216 21.129
2.9402268 3.88376 -4.6069565 23.131001
3.0887897 3.894604 -4.6089082 23.130501
3.133424 3.869674 -4.6922631 22.130501
3.696471 3.8440297 -4.6008725 21.1285
3.1912153 3.8631024 -4.5696502 22.129999
3.3146641 3.8445518 -4.5270686 22.129499
3.5035121 3.87745 -4.5518432 22.129
3.6086934 3.859139 -4.5068817 22.1285
3.8350067 3.8341057 -4.5601015 21.128
3.751507 3.8504148 -4.4761014 22.128
3.8885224 3.8355 -4.4340787 21.127501
4.0255408 3.8321218 -4.3881726 21.127001
3.7135875 3.8843601 -4.2283978 22.127501
3.1843791 3.8833144 -4.1275549 23.129
2.0069392 3.351934 -4.0617094 23.133499
3.2696741 3.8554394 -4.0731635 23.1285
3.3820913 3.8314593 -4.0242329 23.128
3.5382762 3.8616936 -4.0227122 23.127501
2.0634506 3.3365884 -3.9640601 23.132999
2.1851943 3.3471401 -3.9776514 23.1325
3.6333668 3.8324823 -3.9735653 23.127001
3.772613 3.8321619 -3.943862 23.126499
3.9073031 3.8437517 -3.9174201 22.125999
2.2439992 3.3406031 -3.8893096 23.132
1.0558267 0.65824372 -1.73985 13.1315
1.1146322 0.69222009 -1.7543055 13.131
1.1373211 0.74632859 -1.7365956 14.13075
1.2034761 0.74546915 -1.7176962 13.63
0.85247684 1.1534435 -1.7300525 20.133499
0.9439711 1.271331 -1.7164825 21.1325
0.89288449 0.62736708 -1.6195432 13.1325
1.1285653 0.67373949 -1.6902567 13.1305
1.2116491 0.62764776 -1.647994 12.1295
1.2457011 0.7283048 -1.695555 13.1295
1.3560059 0.74947762 -1.6499438 13.62825
0.78479367 1.1520658 -1.6811702 21.134001
0.97166061 1.2517642 -1.6767502 21.132
1.1689063 0.76679492 -1.5202584 15.129
1.2449067 0.77567178 -1.4793122 15.128
0.032822419 0.96663731 -1.477872 21.143499
0.78078377 1.0765309 -1.4921461 21.132999
0.77831876 0.25112757 -1.342286 8.132
0.95720679 0.28459501 -1.3619055 8.1300001
0.9986797 0.30592617 -1.362675 8.1295004
0.25926721 0.40700877 -1.3049167 12.1395
0.92588425 0.42318553 -1.3219702 11.13
1.0802742 0.42332906 -1.3709005 10.12875
1.1215391 0.40392587 -1.3327771 10.128
0.79251015 1.0618937 -1.367231 22.132
0.082428493 0.26628467 -1.2552578 9.1424999
0.1131392 0.27510217 -1.2610734 9.1420002
-0.04124938 0.37870938 -1.260698 12.00075
0.081262514 0.3533456 -1.2355205 12.1425
0.10847527 0.3554365 -1.2358855 11.642
1.0769911 0.31886074 -1.2781326 9.1280003
0.026766658 0.54853541 -1.1260118 17.143499
-0.02466407 0.67507184 -1.1420529 20.0005
0.024968728 0.66505086 -1.1188773 20.143499
0.61033046 0.68997234 -1.1050532 19.1325
-0.049812738 0.79690379 -1.1630747 22.000999
-0.03598528 0.48218262 -1.085094 16.00075
0.1380758 0.4564763 -1.0084468 16.3409
-0.034822304 0.51026672 -1.0859209 17.00075
0.048580945 0.57865024 -1.0823232 19.143
0.13544315 0.53753781 -1.0243499 18.140999
-0.2998319 0.68932259 -1.0234594 21.0065
0.071592532 0.65155077 -1.0899968 20.1425
0.13652091 0.63474917 -1.0419459 20.141001
-0.32038125 0.71001112 -1.0128098 22.007
0.049749266 0.75789219 -1.0801191 22.643
0.166252 0.72673649 -1.0766761 22.140501
0.21506497 0.7176553 -1.0805385 21.1395
0.14235705 0.80809712 -1.0784756 23.141001
-0.33964393 0.28390539 -0.96561718 11.00775
-0.29645517 0.2828545 -0.94208205 12.007
-0.28397018 0.31992397 -0.96772349 12.0065
-0.33089286 0.48810485 -0.97315913 17.0075
0.16137165 0.48081285 -0.9767257 17.390249
-0.34228879 0.57545936 -0.97269076 19.00775
0.17618872 0.53761446 -0.99587035 18.639999
-0.32633948 0.6278863 -0.95726734 21.0075
-1.9621369 0.77169287 -0.91323459 13.526
-0.32567367 0.7071563 -0.96287239 22.0075
0.58462185 0.70261967 -0.91431421 21.131001
0.66313046 0.80418789 -0.90414745 23.129499
-1.9585555 0.94413215 -0.91033179 16.025999
-1.9563842 1.0398502 -0.91025811 17.525999
-1.9447216 1.2067161 -0.90719974 19.025999
-0.36893275 0.35186663 -0.86987239 14.009167
-1.948482 0.43246281 -0.82879198 9.0267506
-0.37888446 0.43497804 -0.860425 16.676168
0.38996321 0.47145522 -0.83532846 18.134001
0.40401009 0.44945478 -0.86599797 17.134001
-1.9620428 0.53720635 -0.86035359 10.359834
-0.36926544 0.56380677 -0.85790926 20.342667
-1.9622058 0.67619127 -0.84599775 12.693334
-0.35328346 0.64203954 -0.87686598 22.008751
-0.36804369 0.70453101 -0.88676441 23.009001
-1.9600036 0.83540612 -0.83458328 15.026751
-1.9724296 0.95194602 -0.87170303 16
-1.9650722 1.0488791 -0.80621195 17.2635
-1.9859327 1.1487112 -0.82170063 19.027
-1.9703304 1.2897168 -0.86223102 20.026501
-1.9746242 1.3200852 -0.81481457 20.527
-1.9596213 1.4830918 -0.82601565 22.360168
-1.9528058 1.503546 -0.85887033 23.026501
5.2826347 2.6849725 -0.80605441 18.1115
5.3492246 2.6350636 -0.80829692 17.1115
5.3203435 3.1580305 -0.81351304 20.1115
-1.6185009 0.25751609 -0.71846133 7.5132499
0.75513148 0.44725239 -0.72245133 16.1255
-1.9557962 0.52345484 -0.74329853 10.361
-0.41108045 0.57311594 -0.74841607 22.011499
0.67374706 0.58091521 -0.70133269 20.126499
-1.9860752 0.63016301 -0.75105155 12
-0.41586566 0.60556126 -0.71740961 23.011999
0.67867279 0.62721515 -0.70770609 21.126499
-1.9895729 0.84613395 -0.74571496 15.02775
-1.9771441 0.94041675 -0.71805519 16.528
-1.9294934 1.0796516 -0.74579024 18.0275
-2.0090964 1.1540673 -0.731062 19.028
-1.9617326 1.138974 -0.76050925 19.0275
-1.9675088 1.2313063 -0.7489984 19.514
-1.988286 1.3483056 -0.74820095 21.02775
-1.9878818 1.4162036 -0.77120245 22.0275
-1.993114 1.5177552 -0.74809176 23.02775
4.8182302 1.862052 -0.73556834 14.1115
4.8271313 2.0377131 -0.74497068 15.1115
5.2908063 2.682251 -0.70337999 18.111
0.72626495 0.27362528 -0.66227025 11.125
-1.9676555 0.35533041 -0.64125574 8.0142498
0.73318344 0.35766217 -0.64207196 14.1245
-1.9686042 0.44356391 -0.66906601 9.0284996
0.73652184 0.47417206 -0.65805614 17.12475
-1.973738 0.54011607 -0.65177095 10.5
0.65786475 0.57124555 -0.60258824 21.125
0.74094248 0.50140083 -0.67706752 18.125
-1.9840131 0.61179775 -0.63507235 11.714286
0.66739142 0.64755899 -0.63801354 22.6255
-2.0032046 0.87376261 -0.62649953 15.029
-1.952866 0.91256535 -0.61762989 16.028999
-1.9658957 1.1606565 -0.64097559 19.528749
-2.0056858 1.2347525 -0.65858042 19.5145
-1.9848779 1.5451425 -0.65026748 23.028749
4.7546034 1.8632846 -0.63286769 15.111
4.7782679 2.0491867 -0.62810546 16.111
5.0550132 2.3409295 -0.65838349 17.111
5.2582955 2.8869884 -0.69190186 19.111
-0.84943938 0.361314 -0.51466298 13.5235
0.71314347 0.39822233 -0.5965417 16.124001
-2.0608041 0.40611723 -0.59925777 9.0295
0.70917583 0.47354707 -0.54177266 18.622999
-2.0071635 0.54577398 -0.59531051 11
-1.9959812 0.55089998 -0.55211288 11.014999
-0.96877766 0.59690404 -0.52835637 19.0245
-0.71855891 0.57483506 -0.53981584 21.02125
-0.65722865 0.57476574 -0.52770376 21.7705
0.64703977 0.57152927 -0.56606209 22.1245
0.72801238 0.52254546 -0.56883645 19.623249
-1.9662787 0.66032398 -0.56807458 12.5
-0.91484469 0.66752946 -0.52465713 21.024
-0.8019017 0.66708362 -0.50907922 23.023001
-0.77092445 0.65055728 -0.50177211 22.522751
-0.90557867 0.76529264 -0.52060509 23.024
-2.019078 1.3812764 -0.58899724 22.029499
-1.9992359 1.3333532 -0.5317831 21.030001
-1.959751 1.4820757 -0.54562283 23.029751
4.7663655 1.8950322 -0.52630264 15.1105
4.8214884 1.8429985 -0.52987552 14.1105
4.7772336 2.0694156 -0.52706921 16.1105
5.0164366 2.3212726 -0.53894997 17.1105
5.2283759 2.6495926 -0.57590753 18.1105
5.2819452 2.8617182 -0.57443833 19.1105
5.2750106 3.0383856 -0.57936668 20.1105
-1.6481177 0.27570349 -0.44203368 8.0299997
-0.75341707 0.55941844 -0.48974115 20.522751
0.71361488 0.53091866 -0.49691221 20.122
2.921329 0.55821955 -0.45335397 9.1114998
-1.6439203 0.79936868 -0.43973088 17.030001
-2.0255306 1.3887427 -0.49695042 22.0305
-2.0176954 1.4623452 -0.46772668 22.53075
-2.0641823 1.5745256 -0.45894489 23.031
4.7437758 1.9248874 -0.41671038 15.11
4.7747331 2.0485806 -0.42103586 16.110001
5.0406194 2.3265378 -0.43531755 17.110001
5.235734 2.5844984 -0.40457532 17
5.2390718 2.6480374 -0.42523178 18
5.2679653 3.0911651 -0.4481948 19.5
5.1602693 3.2082016 -0.47392806 21.036667
-1.4204934 0.18053736 -0.31024751 6.5
-1.4097384 0.25806224 -0.30890688 8.0310001
-1.4308807 0.30198795 -0.31807274 9.0310001
0.84588522 0.49173728 -0.32911369 19.116501
-1.6405869 0.56080043 -0.34337011 13.03125
0.77311963 0.59613132 -0.31910735 23.117001
2.8687778 0.54661059 -0.3794277 9.1110001
2.9155669 0.54846287 -0.3761296 8.1110001
-1.6369103 0.61751825 -0.34240958 14.03125
0.83048618 0.62489891 -0.31373423 22.782999
2.9472506 0.60648149 -0.32298219 9.1105003
-1.6157573 0.75903881 -0.39412498 16.0305
2.3722544 0.7130332 -0.31002939 12.111
-1.626727 0.83111101 -0.3404175 17.53125
-1.6338234 0.95178241 -0.33832955 19.348999
-1.5775641 0.92234629 -0.36677086 19.03075
2.6933708 0.96057308 -0.34807307 14.111
-1.6332301 1.0409452 -0.35815328 20.890438
-2.0442832 1.3857422 -0.35552493 22.032
-2.0358593 1.4179604 -0.35468146 22.032
5.2750192 2.4118347 -0.35414886 16
5.2711873 2.9973259 -0.37496594 19
5.2531023 3.0648348 -0.35530728 19.5
5.0712357 3.2306871 -0.34002817 21.109501
-1.3813586 0.19796419 -0.2499952 7
1.0546221 0.18316673 -0.25593999 8.1134996
-1.3764119 0.22439888 -0.2457135 7.8659997
1.0058435 0.23909055 -0.2665076 10.114
-1.4121256 0.38744435 -0.28086331 11.0315
-1.3980938 0.31152159 -0.24565509 9.0319996
-1.4051757 0.47319031 -0.23209004 13.032249
0.84456521 0.49407271 -0.28551081 19.115499
1.0513774 0.48943114 -0.25693464 16.113501
-1.6492624 0.59799373 -0.23165698 14.03275
0.87571424 0.54828501 -0.28436503 20.11525
0.99424529 0.57183778 -0.26590306 19.114
1.0417588 0.54665929 -0.26507199 18.11375
-1.6483757 0.60592163 -0.28731155 14.032
0.85714573 0.62241 -0.28295618 22.115334
0.96696454 0.62987608 -0.26779681 21.11425
-1.6454352 0.86204225 -0.25900152 17.865751
-1.6554158 0.95605505 -0.2257717 19.516312
2.6511626 0.93507314 -0.23049548 13.61
-1.6390122 1.0314711 -0.27470243 20.698832
-2.0166335 1.3275628 -0.26782095 21.033001
-2.0562429 1.4335574 -0.24777964 22.033251
-2.0707104 1.5242927 -0.22220008 23.033501
5.2241888 2.9458225 -0.23618755 19.108999
5.2631531 3.1364069 -0.25321499 20.054501
5.059926 3.2675519 -0.25589937 21.054501
-1.664552 0.14563349 -0.1089529 5.5
2.1760316 0.1067785 -0.19037195 4
-1.6507273 0.2634747 -0.10944485 7.6780834
-1.6426015 0.34707198 -0.13918482 9.0340004
-1.4463449 0.31275672 -0.19024892 9.033
-1.6442659 0.45606804 -0.11875872 11.367667
-1.4789468 0.43744025 -0.19301502 12.033
2.1274245 0.40137735 -0.13983636 9.1094999
-1.6395468 0.57168579 -0.14412799 13.434
-1.6755701 0.62618357 -0.12468975 14
-1.6934764 0.7946105 -0.13950007 17
-1.6682827 0.86212909 -0.14195944 18.141937
-1.6647056 0.90214002 -0.16243181 19.033751
-1.6699029 1.0356283 -0.1634146 20.533751
-1.7063853 1.1437123 -0.14873199 22.034
-2.0797489 1.4527757 -0.13493423 22.5345
-2.0908496 1.5103359 -0.18364908 23.034
5.2194581 2.3869126 -0.10601463 17.1085
5.1919808 2.5458062 -0.14117497 17.333334
5.2350936 2.5243709 -0.1953449 17
5.1951962 2.6180027 -0.11162941 18.1085
5.2387223 2.9261749 -0.11897538 19.1085
5.2423868 3.0978098 -0.11277493 20.1085
5.0588517 3.3461196 -0.11230823 22.1085
-1.6727433 0.28133166 -0.033275962 8.0354996
-1.6763842 0.45608833 -0.064121 11.035125
-1.667428 0.52592456 -0.049470209 12.26775
2.1262286 0.60424501 -0.08969862 11.109
2.138272 0.71652687 -0.089522615 13.109
-1.7012402 0.82396907 -0.03778927 17.0355
-1.6859868 0.87290484 -0.071203619 18.035
2.1413112 0.84522325 -0.09279938 14.609
-1.7001052 0.9371869 -0.07298588 19.035
-1.7171695 1.0732729 -0.035889041 20.5355
-1.6820874 1.0502863 -0.082365707 20.5175
-2.1148205 1.4600744 -0.0449926 22.0355
-2.0869892 1.4579083 -0.059838727 22.702002
5.2149611 2.3849382 -0.045987122 16.75
5.1618648 2.6036437 -0.061958142 18
1.1283019 0.029675901 0.0017943431 3
4.5553403 0.15880144 0.087741777 4
-1.7119991 0.28699449 0.078695007 8.0369997
-1.6824421 0.34718251 0.038887613 9.0365
-1.6781451 0.44738916 0.040760227 11.0365
-1.7099847 0.53578049 0.094646186 12.666667
-1.6685247 0.52551079 0.039795343 12.0365
-1.6681252 0.62036097 0.049212217 14.01825
-2.0907838 0.90570319 0.047059719 16.036501
-2.0700924 1.052231 0.05080409 17.845499
-2.0696709 1.1930969 0.091368519 19.537001
-2.1050811 1.2959206 0.048989587 21.036501
-2.0415368 1.2369916 0.043600537 20
-2.1043034 1.3630826 0.093097948 21.037001
-2.0814877 1.3776275 0.070327431 22.036751
-2.100029 1.4885309 0.0050821607 23.035999
-2.1288638 1.5205338 0.094262913 23.037001
-2.0959556 1.5645318 0.04601844 23.036501
4.6745248 1.9530241 0.096052848 15.1075
4.7077327 1.9475679 0.0065976097 15.108
5.1648083 2.3346317 0.06838578 16
5.2569404 2.4006021 0.027570637 16
5.2143669 2.8894196 0.0071586738 19.108
5.1924157 3.0617311 0.0050513246 20.108
5.0405731 3.4074161 0.00090876035 22.108
5.0780988 3.6710768 0.0029336503 23.108
-1.7145349 0.17952105 0.13084047 5.5
-1.6989201 0.24646544 0.10018667 7
-1.7182182 0.32478946 0.13116987 8.685667
-1.6873993 0.37743685 0.10988682 10.0375
-1.7037793 0.46341178 0.1121206 11.0375
4.5511379 0.43174627 0.10073767 5
-1.7227447 0.54408407 0.1100681 12.185417
-1.6538312 0.53760171 0.10718385 13.0375
-1.7958953 0.64660442 0.1993216 14.0385
-1.7920055 0.76508486 0.19868983 16.0385
4.5907593 0.77773184 0.1438168 8.05375
-1.7826586 0.86995232 0.19867589 17.0385
-2.0921276 0.94733363 0.10059298 16.5
4.5962276 0.97397834 0.13447671 9
-1.8052123 1.0575066 0.19854571 19.5385
4.6019177 1.1077516 0.15871072 10
-2.0560291 1.3483884 0.13409114 21.0375
-2.116796 1.5196903 0.13815127 23.0375
5.2176723 2.3867371 0.13698669 16.666666
5.1981721 2.8628113 0.10728538 19.1075
5.1724262 3.0371723 0.10471094 20.1075
5.0313964 3.4655702 0.11351031 22.1075
5.0721326 3.6298907 0.11664724 23.1075
4.4924822 -0.11578977 0.23541431 1
4.5323329 -0.073917128 0.26678014 1
-0.97450668 0.0089203417 0.26053613 3
1.3947164 0.0075190663 0.28830898 2
-1.3882647 0.15180795 0.27898139 6.0192308
4.5431204 0.14846519 0.23584382 3.5999999
-1.3882146 0.28273609 0.24178155 9
-1.4018793 0.32359797 0.29509884 9.5
-1.3697014 0.4809334 0.27513021 13.0405
-1.8054937 0.54674727 0.22119945 12.03875
-1.3843774 0.51949883 0.27871892 14.0405
-1.8046178 0.67366064 0.23315883 14
-1.7801193 0.79644728 0.22935514 16
4.5761433 0.78925467 0.22609554 8
-1.7918978 0.89919055 0.29675388 18
-1.8166258 0.93780768 0.2526378 17.5
4.5988674 0.99971068 0.25746804 9.25
-1.802871 1.0176421 0.22234607 19.0625
-1.7839212 1.0939949 0.23948674 20.5
-1.810396 1.1530817 0.23912157 20.789
-1.8147074 1.2353735 0.25966027 22.039249
-1.8146199 1.3556052 0.24321656 23.039
-1.7931473 1.3294123 0.23595612 23.039
4.5886021 1.4089484 0.28130999 12
4.6552615 1.9539143 0.20700695 15.607
5.1709533 2.3626308 0.22972541 16.5
5.1651297 2.6327019 0.20653293 18.166666
5.05797 3.5796759 0.2136113 23.107
1.7600198 -0.0093581304 0.34863871 1
-1.4136496 0.03963533 0.31139097 3.5
-1.4091548 0.26759481 0.37838939 8.0419998
-1.3792886 0.26851755 0.33915934 8.5415001
-1.3950341 0.31395799 0.37451264 9.0419998
-1.4037946 0.43776065 0.31940806 12.18725
-1.3886725 0.44599232 0.32146993 12.291527
-1.5986861 0.58185548 0.35670093 14.041
-1.3910168 0.51301372 0.33864182 14.0415
-1.6159242 0.70483989 0.31953165 16.040501
-0.90228254 0.71951127 0.39674735 23.0455
-1.3463025 0.84864068 0.36246312 20.042
-1.2238256 0.84945297 0.38974932 22.042999
-1.8471689 0.92239851 0.33007523 17.040001
-1.8313668 1.0548711 0.32389209 19.040001
-1.5444828 1.0416117 0.38137037 21.5415
-1.830521 1.1746346 0.32643414 21.040001
-1.5195687 1.1450385 0.37635848 23.0415
-1.8195657 1.2163603 0.32048187 22.040001
-1.8178358 1.305819 0.31951296 23.040001
4.6072092 1.356467 0.35497367 11.8
4.632422 1.4978874 0.35709551 13
4.6228642 1.8998735 0.3031525 15.1065
4.6258888 2.0310321 0.30126071 16.106501
5.1422935 2.7757766 0.3868092 19
5.1445732 2.8979793 0.30302241 19.5
5.1578379 2.9352913 0.30058119 19.666666
5.1784296 3.005374 0.3380993 20.106501
5.0063648 3.5432806 0.32270041 22.606501
-1.2792017 0.050823361 0.42476043 4
-0.92595488 0.17735007 0.4600575 8.0465002
-0.8749088 0.16864359 0.48144159 8.0475006
-1.4170017 0.27507812 0.44451144 8.0430002
-1.3422683 0.20362882 0.44084698 7
-0.88093024 0.28302792 0.45954776 12.047
4.4978118 0.22698681 0.4552083 4
-1.42614 0.32246402 0.45835578 9.2713747
-1.3917527 0.37076902 0.42000404 10.709332
-1.2782458 0.33250648 0.49788025 10.0445
-0.90473765 0.31595725 0.49677935 12.0475
-1.4128726 0.47941089 0.43896228 12.52125
4.5399189 0.46103674 0.47503603 5.5
-1.4286091 0.51999652 0.46655792 13.5
-1.8123569 0.73057425 0.46865958 15.04175
4.5440044 0.87275553 0.47377804 8.5
4.5570025 0.95345569 0.4845382 9
-1.5391256 1.0426512 0.4121488 21.042
-1.5505202 1.1551759 0.44656044 22.642399
4.6070518 1.881757 0.40605271 15.106
5.1582193 2.3693619 0.40070182 17
5.1586609 2.7713184 0.45542538 19.106001
5.1591907 2.9850168 0.44515496 20.106001
5.0373411 3.4908938 0.44768125 22.106001
4.9992929 3.6552887 0.4495604 23.106001
1.7755128 -0.020754479 0.53541607 1
-0.86657673 0.18849492 0.50255567 9.0480003
0.984146 0.19626144 0.54278952 8.0965004
-1.4077892 0.37360334 0.51380461 10.544
-1.215468 0.33424988 0.55733138 10.379167
-1.1895397 0.34180474 0.58916545 11.0465
-0.87236172 0.31250441 0.51616389 12.04825
0.9776029 0.32832032 0.53900594 12.0965
-1.4295989 0.43758449 0.55620891 11.711166
0.76539713 0.4726961 0.52073163 18.094332
0.89485556 0.464901 0.54246157 16.095501
0.95596075 0.47699246 0.55221879 16.096001
1.0110674 0.47377506 0.55450404 15.0965
1.2789618 0.44460317 0.59553874 12.098
0.68170071 0.53996009 0.50268137 21.0935
0.72966111 0.53482169 0.51474488 20.094
0.88830775 0.56828594 0.54056817 19.095501
-1.4524764 0.61742091 0.55068558 15.04425
0.90503901 0.66759473 0.55319071 21.095501
-1.8481587 0.73481983 0.55289435 14.292624
-1.5638098 1.1730146 0.53141212 22.543501
-1.4466887 1.1119928 0.52772725 23.044001
1.4634422 1.1068951 0.57167768 23.099501
4.5453634 1.1118722 0.59341741 10
4.5420952 1.2559116 0.59979749 11
4.5841002 1.3960119 0.5149312 12
4.6186109 1.5505373 0.50592703 13.1055
4.6088824 1.7614536 0.51059741 14.1055
4.5747304 1.8630824 0.50476027 15.1055
5.1180892 2.3432913 0.595348 16
5.1062107 2.5964 0.5906595 17.6
5.1104164 2.7231216 0.59972638 18
5.1392198 2.9589906 0.56843799 19.605499
4.9843774 3.4277687 0.53968453 22.105499
4.9808431 3.6986079 0.54438061 23.105499
4.5529351 -0.054575291 0.64393216 1
-0.80620503 0.063163526 0.69879019 4.5
-0.77836066 0.17444357 0.62703043 8.0515003
4.5852947 0.16013914 0.61618376 3.4444444
-0.78112108 0.2421004 0.62953132 10.0515
-1.4452926 0.38573474 0.64009577 10.0455
-1.2674569 0.30768171 0.6270684 9.0465002
-0.84738845 0.34606364 0.63808137 13.05075
-1.4481984 0.45321536 0.63906163 11.7955
-1.8450905 0.73524642 0.64392346 14.377
-1.1022824 0.81735611 0.66927665 21.0485
4.617321 0.88694805 0.60673457 9
4.5334382 0.95474577 0.69630086 9.1044998
1.5888478 1.0916731 0.62111151 21.099501
1.7645204 1.062825 0.60482049 19.1005
1.4616129 1.1035757 0.60914522 22.099001
1.6727753 1.1096201 0.60972857 21.1
-1.5588224 1.22628 0.62649989 23.04475
2.1133575 1.2513041 0.67151344 19.101
4.5666008 1.3787982 0.64405733 12
4.5571976 1.5840087 0.61711192 13
4.6287446 1.7702858 0.60305947 14.105
4.6037717 1.8565781 0.6123032 15.105
5.1499991 2.3609385 0.62372255 16
5.1093554 2.9335251 0.67332786 19.105
5.0742269 3.1539598 0.67389297 21.105
4.9971976 3.4069076 0.6546849 22.105
-0.82048494 -0.0035121143 0.79983163 2
-0.80567545 0.043132484 0.70116818 4
-1.336589 0.39469424 0.70042807 11.047
-1.2830931 0.34732336 0.70725757 10.0475
-0.29759514 0.59505969 0.77042037 23.063499
0.29984948 0.60727036 0.77144802 23.0805
-1.8441621 0.7088269 0.71714753 14.0445
-1.7477466 0.80714571 0.72473401 16.045
-1.4839312 0.82173586 0.77734256 17.047001
-1.0276837 0.83920527 0.74026012 22.050251
-0.97917503 0.84174132 0.75170773 22.551001
4.6484361 1.292882 0.72106934 11.1045
4.982245 1.2553442 0.77668142 10.1045
5.1085429 2.9216082 0.79040629 19.1045
5.0325446 3.189333 0.76745409 21.1045
4.9668093 3.3567965 0.76430148 22.1045
4.9345436 3.6920569 0.75620544 23.1045
4.5481339 -0.023236379 0.83570963 1
-0.82580709 0.063724838 0.81071883 4
4.5777321 0.22296347 0.81616211 4
-1.3811625 0.39162925 0.88445735 10.049
4.6123519 0.36707583 0.83324581 5
-1.6791471 0.46705031 0.87628204 10.047
-1.5519845 0.44727871 0.88016707 10.7145
-1.4850951 0.48792362 0.89808482 11.0485
-1.3884469 0.42936778 0.88874871 11.049
-1.2884187 0.45229632 0.89964974 12.05
-0.3335548 0.47215632 0.87871271 17.730333
-0.31008497 0.50341088 0.85160226 19.063999
0.29077873 0.55875319 0.85720915 20.746168
-1.6301447 0.65560627 0.88410395 13.690332
-1.8753408 0.72344983 0.82402277 14.0455
-1.6383169 0.73561466 0.89168549 14.77375
-1.5420771 0.75243491 0.89555264 15.524
-0.88761693 0.7911067 0.81618053 22.052999
-1.7541023 0.80446446 0.86743009 15.0465
-1.6373466 0.80439967 0.8532241 16.015501
-0.95793784 0.83812881 0.82363141 22.05225
-0.84689099 0.84964228 0.88497841 22.054501
-0.73927683 0.85221326 0.88619053 23.056
4.9745746 0.87874895 0.87913525 8.1040001
4.4969597 0.92605102 0.89328659 9.1035004
4.5669875 0.91009462 0.80136406 9.1040001
4.632297 1.0855215 0.81873924 10.104
4.668746 1.3526347 0.83032721 11.604
5.0136261 1.8917284 0.88326395 14.104
4.5220685 2.0496025 0.89239883 16.1035
5.0987463 2.3550777 0.86600041 16
5.131259 2.3668692 0.86476278 16
5.0769792 2.5690832 0.84935111 17.5
5.0845575 2.658211 0.87172443 18
5.1043549 2.6681247 0.89264613 18.104
4.9120755 3.1987102 0.87081832 21.104
4.9058251 3.2958608 0.86790419 22.104
4.9715657 3.6956615 0.87676889 23.104
-0.71473849 0.19635777 0.97840607 8.0574999
-0.68628687 0.19272751 0.98534662 8.0579996
-0.54184151 0.18898016 0.99009854 8.0605001
-0.42739463 0.12774202 0.9870314 6
-0.19728602 0.17474455 0.98589331 8.0675001
-1.0260534 0.22664492 0.90432692 8.0524998
-0.94468993 0.25596407 0.92482942 8.5419006
-0.83666021 0.2457169 0.95412362 8.9305
-0.74478018 0.24595001 0.96262449 9.3068752
-0.69178259 0.2916519 0.9929105 10.058
-0.56328136 0.26193231 0.9935711 9.7268333
-1.2871406 0.39558795 0.90632749 10.05
-1.1350237 0.38052082 0.92590588 10.718333
-1.0306127 0.37412769 0.94811946 11.0265
-0.96925461 0.3371245 0.95105505 10.55375
-0.86298335 0.34724757 0.96570921 10.861166
-0.74789715 0.32704043 0.97694373 11.057
-0.68354696 0.33041805 0.99222112 11.528999
-1.3594841 0.44696039 0.90967709 11.5495
-1.2229507 0.46048033 0.91818351 12.05075
-1.1237942 0.45323259 0.93909562 12.276
-1.0723743 0.49086884 0.94515681 13.0525
-0.9531796 0.45825601 0.95724201 13.360084
-0.83598381 0.44978479 0.97605675 13.55575
-0.76633632 0.42032832 0.98933041 13.306875
-0.65508008 0.44259474 0.99842787 13.725334
-0.33092421 0.46839347 0.91448081 17.063999
-1.2993135 0.50494361 0.91267115 13.05
-1.1115239 0.56227434 0.93376839 15.052
-1.0863378 0.5550769 0.95486146 14.0525
-0.96746027 0.55879235 0.96748817 15.174247
-0.85077763 0.5436976 0.97933799 15.4556
-0.76558757 0.56616437 0.99029231 16.36175
-0.66319352 0.53830671 0.9937765 16.5585
0.28604874 0.5758996 0.90308207 20.079
-1.4478755 0.67191559 0.90238094 14.54875
-1.3486753 0.6648823 0.91495025 15.001024
-1.2426109 0.64988261 0.92774594 15.52525
-1.1375613 0.65574503 0.94264865 16.385168
-1.0338446 0.63397396 0.95684123 16.443249
-0.97302884 0.62187445 0.97345221 16.554001
-0.8329652 0.60756576 0.99393451 17.056
-0.79630882 0.60013777 0.99140644 17.056499
0.27894393 0.65468216 0.95659786 22.078501
-1.453617 0.75763106 0.90439832 16.54875
-1.3496591 0.74900937 0.91806155 16.716333
-1.2666914 0.75287265 0.93135786 17.050499
-1.1808515 0.74543732 0.94971132 17.5515
-1.0523113 0.71267682 0.96550035 17.719666
-0.92552769 0.73191625 0.98191321 18.65225
-0.86475807 0.70595926 0.98577875 19.0555
-0.73855537 0.74009472 0.99795008 20
4.3688717 0.79293108 0.96842778 8.1029997
-0.94648027 0.82410288 0.96337831 20.387499
-0.83473653 0.84625483 0.91242838 22.055
-0.72720844 0.85016835 0.90667671 23.056499
-0.65256995 0.85102886 0.97497123 23.0585
4.6632719 1.3587861 0.92246461 11.6035
5.0689955 2.4600661 0.90819073 17
5.112123 2.9130695 0.90904456 19.104
4.9649906 3.3066123 0.99359548 21.1035
4.9602542 3.6581643 0.99032927 23.1035
0.11470292 0.099014737 1.0724682 5.2857141
-0.54079664 0.15479657 1.0017536 7
-0.42929721 0.18420687 1.0077144 8.0627499
-0.36477152 0.15703538 1.0223886 7
-0.28282648 0.19900984 1.0485379 8.066
-0.13906653 0.18024917 1.0563819 8.0690002
0.060203034 0.1786201 1.0746938 8.0732498
0.23143253 0.1792815 1.0954815 8.0767498
3.9930089 0.15226506 1.0612414 4
4.0027428 0.15771931 1.0789145 4
-0.56192625 0.22881317 1.0023859 8.7801247
-0.43716019 0.28169623 1.0187168 10.729333
-0.24147798 0.2412132 1.0397284 9.8167496
-0.13969149 0.23606424 1.0544072 9.5154305
-0.069669858 0.2544108 1.0657314 10.237166
0.036796648 0.23820472 1.0729725 9.703167
0.11786512 0.22220927 1.0852486 8.875
4.0325055 0.27624047 1.0682929 4.6666665
-0.67181927 0.31802404 1.0049988 11.0585
-0.54337227 0.34391147 1.0122305 12.0607
-0.43166083 0.34266683 1.0172746 12.364584
-0.25695756 0.33515096 1.0392791 12.700043
-0.13458401 0.3337248 1.0587316 12.6691
-0.057255026 0.34146997 1.0737745 12.57075
0.023368711 0.34322646 1.0806549 12.5725
0.1686125 0.33305955 1.0892613 12.0755
4.0464888 0.31606361 1.0598141 5
-0.71042985 0.42576066 1.002998 13
-0.67237866 0.48786268 1.0093662 15.058499
-0.54447895 0.46073839 1.0289551 14.7275
-0.46142554 0.46134907 1.0223747 15.06225
-0.31648466 0.4603937 1.0445465 15.565249
-0.25072381 0.44897425 1.0495827 15.316625
-0.14589612 0.44240203 1.070124 15.068899
-0.065280251 0.45979485 1.0813386 15.470599
0.04410857 0.44153476 1.0915099 15.272901
0.14071254 0.40435711 1.0881317 14.075
-0.64725184 0.5564667 1.0111967 16.679438
-0.53756404 0.56220537 1.02408 17.530437
-0.48018005 0.54760778 1.0318465 17.062
-0.32722151 0.50100029 1.0449696 17.065001
-0.24220799 0.55246484 1.0629637 17.924
-0.17186102 0.5465222 1.0751773 17.575981
-0.068379171 0.54978079 1.085176 17.784857
4.0546784 0.52657193 1.0775311 6
-0.6385473 0.67606723 1.0262547 19.05925
-0.5746125 0.66257763 1.0246152 19.060249
-0.47825372 0.65769064 1.0391985 19.812126
-0.32679278 0.63246465 1.0536308 19.68235
-0.24388689 0.63898593 1.0654562 19.7335
-0.1446918 0.64472806 1.0807973 20.068916
-0.066003904 0.63354272 1.0893011 19.903917
-0.8204006 0.74910045 1.0074993 19.723
-0.73297626 0.73149312 1.0124034 19.857599
-0.64260727 0.74123895 1.022917 20.3794
-0.54192752 0.72336346 1.0332013 20.727583
-0.47940019 0.76666725 1.0313987 22.062
-0.328004 0.72377366 1.0593377 21.6651
-0.25525659 0.75145066 1.0751866 22.066641
-0.15581535 0.72874475 1.084219 21.951027
-0.058702774 0.73810554 1.0888969 22.070749
0.28379086 0.75812936 1.0654991 22.077999
-0.81106353 0.80150425 1.0091268 21.056499
-0.77465999 0.82603025 1.0098369 21.056999
-0.64284384 0.83300173 1.0325809 22.05925
-0.56695628 0.80321735 1.0354346 22.060499
-0.23853232 0.81399977 1.0816236 23.066999
4.091135 0.97057098 1.0956546 10.102
4.7134237 1.1449525 1.0633157 10
4.7189002 1.3317463 1.0863855 11.5
5.08114 2.4533525 1.00384 17.1035
5.0624514 2.6269531 1.0114956 18.1035
5.0656862 2.8799787 1.0018376 19.1035
4.9272423 3.2656369 1.0848935 21.103001
4.8795705 3.3208358 1.0853966 22.103001
4.9106693 3.6032159 1.095871 23.103001
0.073307648 0.35277188 1.1033419 12.5735
0.15538417 0.37734613 1.1118596 12.741833
0.23813871 0.34547192 1.1125046 12.1384
0.056162186 0.4575614 1.1078393 15.406499
0.15602869 0.44230404 1.1179922 14.741834
0.24778676 0.42516023 1.1214377 14.077
-0.024814496 0.59590793 1.1047783 19.071501
0.064205378 0.56647247 1.1078776 17.873301
0.15829654 0.5407095 1.1173282 17.157057
0.23702466 0.52801418 1.1271014 16.371666
4.0629363 0.52850109 1.1006638 6
-0.024757303 0.63107216 1.1019665 20.071501
0.061406039 0.65861177 1.106461 20.501858
0.16896987 0.66275918 1.1283908 19.870876
0.21252029 0.66980338 1.1335413 20.038
-0.071078457 0.7737751 1.1069374 22.570499
0.048979905 0.77431744 1.1264358 22.073
0.14847222 0.78364897 1.1253992 22.575001
0.23955233 0.74714857 1.1397427 21.57675
4.1169176 0.73958695 1.1081382 8.1020002
-0.025120821 0.80378056 1.1193572 23.071501
0.023919722 0.80920458 1.1202208 23.0725
0.16822734 0.80612022 1.1426885 22.408667
0.24473575 0.84562427 1.1480678 22.7435
4.6845641 1.1443193 1.12323 10
4.6926198 1.3609711 1.1408695 11.666667
4.7348461 1.8290751 1.1510158 14.1025
4.7073631 2.0668535 1.183368 15.5
4.7268987 2.1879263 1.1710674 16.5
4.7425175 2.279974 1.1437336 17
5.0502825 2.361989 1.117938 16.603001
4.748795 2.4642339 1.1401075 18
4.7277608 2.582176 1.178248 18.666666
5.016696 2.6301653 1.1063793 18.103001
4.7680583 2.722522 1.127887 19
4.7097955 2.8193393 1.1663184 20
5.0784755 2.8693461 1.1320777 19.103001
4.7524414 2.9830716 1.163547 20.5
4.6528254 1.3653243 1.2615328 11.25
4.6701236 1.4292645 1.2649894 12
4.70506 1.8403602 1.2405791 14.25
4.7112951 2.1278238 1.2474766 16
4.7155876 2.5015371 1.2997526 18
4.706646 2.8808665 1.2623063 20.101999
4.7523513 3.133733 1.2337235 21.033998
4.7068014 3.3578963 1.2555783 22.101999
4.6985145 2.2306309 1.3101559 16.5
4.6875238 2.4405501 1.3553017 17.550751
4.6896601 2.6709161 1.3560131 19.050751
4.7474461 3.1092696 1.3773462 21.1015
4.7259722 3.4566116 1.3812524 22.6015
