# .PCD v0.7 - Point Cloud Data file format
VERSION 0.7
FIELDS x y z intensity
SIZE 4 4 4 4
TYPE F F F F
COUNT 1 1 1 1
WIDTH 190
HEIGHT 1
VIEWPOINT 0 0 0 1 0 0 0
POINTS 190
DATA ascii
3.4802895 3.9185262 -6.0127277 19.132
3.0245068 3.8668141 -5.7997937 20.132999
3.4819202 3.8805773 -5.7290273 20.1315
4.5384912 3.8917165 -5.8970628 18.129
3.5528831 3.8901186 -5.4507027 20.130751
3.797543 3.8424022 -5.565052 19.130249
4.1741424 3.8533866 -5.4444752 19.129
4.41083 3.8116574 -5.2611737 19.128
1.9215975 3.9333642 -4.9364471 23.1355
2.0189934 3.8840716 -4.8832946 23.135
3.6343503 3.9032722 -5.0718451 21.129749
4.2383423 3.8760669 -4.8308749 20.127501
4.5389442 3.8398557 -5.061799 19.627251
3.0364816 3.8767803 -4.6556268 22.547417
3.4090881 3.861001 -4.5394559 22.12925
3.7427177 3.8544054 -4.5609593 21.461584
2.0069392 3.351934 -4.0617094 23.133499
3.1843791 3.8833144 -4.1275549 23.129
3.3966806 3.8495309 -4.0400367 23.128
3.7135875 3.8843601 -4.2283978 22.127501
4.0255408 3.8321218 -4.3881726 21.127001
2.1642148 3.3414438 -3.9436738 23.1325
3.7710943 3.836132 -3.9449492 22.793167
1.0658458 0.67957979 -1.7081102 13.33125
1.2542081 0.7127248 -1.6777973 13.129313
0.78479367 1.1520658 -1.6811702 21.134001
0.85247684 1.1534435 -1.7300525 20.133499
0.95781589 1.2615476 -1.6966164 21.13225
-0.04124938 0.37870938 -1.260698 12.00075
0.096326366 0.31254223 -1.2469343 10.51725
0.77831876 0.25112757 -1.342286 8.132
1.0109591 0.30312732 -1.3342377 8.4625006
0.25926721 0.40700877 -1.3049167 12.1395
1.0741509 0.50430888 -1.3864765 11.628938
1.2449067 0.77567178 -1.4793122 15.128
0.032822419 0.96663731 -1.477872 21.143499
0.78664696 1.0692123 -1.4296886 21.6325
-0.32225052 0.30963761 -0.93632376 12.257605
-1.9587169 0.60438836 -0.86209452 11.40148
-0.25429782 0.61483717 -0.99002618 19.934525
0.13388759 0.59728593 -1.0413238 19.329435
0.53298742 0.61401558 -0.96178848 19.1325
-1.9623926 0.99614161 -0.8577944 16.92655
0.14235705 0.80809712 -1.0784756 23.141001
0.66313046 0.80418789 -0.90414745 23.129499
-1.9604206 1.3606312 -0.85382634 20.993235
5.3159294 2.660018 -0.80717564 17.6115
5.3203435 3.1580305 -0.81351304 20.1115
-1.7424964 0.30393872 -0.6057294 8.0283327
-0.84943938 0.361314 -0.51466298 13.5235
0.72419733 0.34316993 -0.63362795 13.791167
-2.0339837 0.47594559 -0.59728414 10.01475
-1.9091066 0.58651841 -0.60352665 11.832758
-0.89777571 0.67420244 -0.52067447 21.523874
-0.62117922 0.58970898 -0.58747643 21.810125
0.70073771 0.54075462 -0.62552708 19.71559
2.921329 0.55821955 -0.45335397 9.1114998
-2.0061505 1.0139149 -0.67878079 17.0285
-1.9627842 1.0130663 -0.70477921 17.361418
-2.027349 1.401499 -0.53002989 21.73015
-1.9815754 1.4143285 -0.67273533 21.885641
4.7549148 1.8944014 -0.52529359 15.1105
4.8198595 1.8525252 -0.6327219 14.111
4.7767448 2.0557277 -0.5254035 16.1105
4.9848003 2.2566133 -0.59440541 16.61075
5.2527518 2.6599605 -0.56817311 18.073833
5.2708044 2.9695642 -0.57347542 19.458
5.1533346 3.2090173 -0.46208361 21.055
-1.6531352 0.2854296 -0.099760339 8.025938
-1.407144 0.28865296 -0.26216769 8.8415003
1.0302328 0.21112864 -0.26122379 9.1137505
2.1760316 0.1067785 -0.19037195 4
-1.6485889 0.57954347 -0.20832276 13.353004
-1.4420612 0.45531529 -0.21255253 12.532625
0.77311963 0.59613132 -0.31910735 23.117001
0.92312694 0.55768991 -0.28348738 19.744562
2.1910448 0.60879558 -0.15727174 11.359626
2.9105318 0.56718498 -0.35951316 8.7775002
-1.6679085 0.9591819 -0.18424526 19.385544
-1.5775641 0.92234629 -0.36677086 19.03075
2.1413112 0.84522325 -0.09279938 14.609
2.6722667 0.94782311 -0.28928429 13.8605
-2.0662374 1.4411345 -0.20793575 22.274416
5.2243576 2.3886237 -0.079224065 16.804249
5.1935883 2.5819044 -0.1264022 17.720917
5.2350936 2.5243709 -0.1953449 17
5.2453241 3.034621 -0.21102817 19.587
5.0624847 3.2779777 -0.24103379 21.331749
1.7600198 -0.0093581304 0.34863871 1
4.5323329 -0.073917128 0.26678014 1
-1.7016643 0.31883556 0.096042313 8.6297998
-1.3948963 0.25816429 0.34665534 8.0409908
-0.97450668 0.0089203417 0.26053613 3
1.1283019 0.029675901 0.0017943431 3
1.3947164 0.0075190663 0.28830898 2
4.5431204 0.14846519 0.23584382 3.5999999
-1.7180319 0.57405162 0.1431576 12.979194
-1.4187936 0.48721287 0.31828424 13.05894
-0.90228254 0.71951127 0.39674735 23.0455
4.5838056 0.7799319 0.16676629 8.05375
-2.0711675 1.039929 0.062976204 17.6525
-1.8149185 1.0506729 0.26186123 19.299999
-1.4085448 0.97118592 0.37748533 21.667
4.5988674 0.99971068 0.25746804 9.25
-2.0922239 1.4128109 0.075210087 21.92164
-1.8119752 1.2885141 0.27576554 22.63945
4.6072092 1.356467 0.35497367 11.8
4.6631289 1.9416587 0.16396338 15.3072
4.6258888 2.0310321 0.30126071 16.106501
5.1709533 2.3626308 0.22972541 16.5
5.2176723 2.3867371 0.13698669 16.666666
5.1651297 2.6327019 0.20653293 18.166666
5.2569404 2.4006021 0.027570637 16
5.1798563 2.9804759 0.17114563 19.819233
5.2143669 2.8894196 0.0071586738 19.108
5.0340762 3.4989858 0.1626827 22.48225
5.0751157 3.6504836 0.059790444 23.10775
-0.82048494 -0.0035121143 0.79983163 2
1.7755128 -0.020754479 0.53541607 1
4.5529351 -0.054575291 0.64393216 1
-1.3469468 0.33077356 0.5441528 9.6317501
-0.90756363 0.24188656 0.53832895 9.9313335
-0.77974087 0.20827198 0.62828088 9.0515003
0.98087442 0.26229089 0.54089773 10.0965
4.5852947 0.16013914 0.61618376 3.4444444
-1.837442 0.72736686 0.59565622 14.438969
-1.4312036 0.4934085 0.5247761 12.718683
-0.29759514 0.59505969 0.77042037 23.063499
0.29984948 0.60727036 0.77144802 23.0805
0.72558635 0.51582593 0.51271933 19.760611
0.93104613 0.5303098 0.54858863 17.4958
1.2789618 0.44460317 0.59553874 12.098
4.5333934 0.4570803 0.49550903 5.5
-1.7477466 0.80714571 0.72473401 16.045
-1.5168149 1.060914 0.53903824 21.263781
-1.0363804 0.83276755 0.72041488 21.883249
1.5046343 1.1007146 0.60064477 22.099335
1.7186478 1.0862225 0.60727453 20.10025
4.5452204 0.95410073 0.59041953 9.0522499
-1.5588224 1.22628 0.62649989 23.04475
2.1133575 1.2513041 0.67151344 19.101
4.6170487 1.4131438 0.58064252 12.07
4.982245 1.2553442 0.77668142 10.1045
4.6046362 1.8266313 0.5273546 14.7054
5.1180892 2.3432913 0.595348 16
5.1324358 2.6838593 0.52304244 18.353001
5.103847 3.0237389 0.65311235 20.021749
4.9964314 3.4205916 0.60158807 22.105249
4.9715595 3.6819847 0.58338213 23.105333
4.5481339 -0.023236379 0.83570963 1
-1.3341515 0.3936086 0.89539242 10.0495
-0.96679056 0.30749604 0.93898523 9.7226114
-0.60248858 0.26486468 0.99570912 9.8388948
-0.16814952 0.25188059 1.0474226 10.077598
0.12377911 0.28903455 1.0926046 10.852386
3.9930089 0.15226506 1.0612414 4
4.0325055 0.27624047 1.0682929 4.6666665
4.5856166 0.21729028 0.81098497 4
-1.6918815 0.65970284 0.87254798 13.404132
-1.3800536 0.59918046 0.90765715 13.876618
-0.98485994 0.60721856 0.95712692 16.179537
-0.61861694 0.5860073 1.0154181 17.370438
-0.19367737 0.58580554 1.0499644 18.812807
0.16529642 0.59425181 1.0826366 18.742779
4.1801562 0.68636328 1.0513657 7.4016666
-1.6793008 0.8029992 0.85095739 15.697667
-0.87942183 0.83192664 0.91870868 21.521151
-0.68391925 0.83594328 0.97428179 22.391291
-0.13182656 0.80889016 1.1004903 23.06925
0.1456276 0.82031631 1.1369923 22.741556
4.091135 0.97057098 1.0956546 10.102
4.5952024 1.0164967 0.90915495 9.5778751
4.9745746 0.87874895 0.87913525 8.1040001
4.6748796 1.3574638 0.96455377 11.624722
4.7348461 1.8290751 1.1510158 14.1025
5.0136261 1.8917284 0.88326395 14.104
4.6244836 2.1187644 1.031733 16.30175
5.0745144 2.3585334 0.99196923 16.3015
4.7277608 2.582176 1.178248 18.666666
5.0683241 2.5895355 0.97274244 17.782801
4.7524414 2.9830716 1.163547 20.5
5.0420899 2.965276 0.97844452 19.603626
4.9194069 3.2972364 1.0079474 21.603374
4.9474964 3.6523473 0.98765635 23.1035
4.6736994 1.3884027 1.2386487 11.5
4.7053599 1.8555094 1.265956 14.5
4.7112951 2.1278238 1.2474766 16
4.6976376 2.5346596 1.3405396 18.067667
4.7365761 3.062604 1.2787095 20.826374
4.7163868 3.407254 1.3184154 22.351749
