# .PCD v0.7 - Point Cloud Data file format
VERSION 0.7
FIELDS x y z intensity
SIZE 4 4 4 4
TYPE F F F F
COUNT 1 1 1 1
WIDTH 1052
HEIGHT 1
VIEWPOINT 0 0 0 1 0 0 0
POINTS 1052
DATA ascii
2.0483785 0.27726832 -2.5704372 5.5
2.043577 0.48535502 -2.4672258 7
2.0671113 0.32264915 -2.2716675 6
2.0375431 0.47911805 -2.2377772 7.5
2.0306349 0.31965184 -2.0743737 6
2.0733452 1.4585719 -2.0984416 17.5
2.1621587 2.1047947 -2.0329475 17
2.0288343 0.52643394 -1.918291 8.5
2.0928497 0.76260257 -1.9171475 8.5
2.0861492 0.83126998 -1.9079568 9.5
1.9919879 0.24595484 -1.6944789 5
2.0089014 0.3499139 -1.7116073 6.5
-1.2008736 0.58013302 -1.6003374 12
-1.1889493 0.65423357 -1.6055776 13
2.0715294 0.69707155 -1.6416813 8
2.0909245 0.93593788 -1.683799 10.75
2.0454378 1.0933602 -1.7643161 12.25
2.0425923 1.2596611 -1.7272002 14.833333
2.0329075 1.4911071 -1.6558913 19
-1.1882446 0.51492399 -1.5967945 10.5
1.970076 0.48573738 -1.4736539 9
2.1191344 0.53369415 -1.4720064 4
1.9887177 0.7995199 -1.4192468 13
2.1010473 0.63459891 -1.4487973 5
-1.0510098 0.90829265 -1.538992 11.5
2.1008637 0.96409166 -1.4977529 8.5
2.0387444 1.1450508 -1.5474401 13.25
1.9982877 1.3784884 -1.4811047 19
2.1087797 1.9682751 -1.5560459 18
2.0930386 2.0545597 -1.5039175 19.25
-1.2080015 0.16089177 -1.3052138 5
1.9533305 0.11872023 -1.2996918 4
-1.1981651 0.26300827 -1.3214943 7
1.9795557 0.29424512 -1.2648 6.5
-1.2008116 0.42106897 -1.3255863 10
-1.1954732 0.51201057 -1.3488506 11.5
2.0039608 0.58376086 -1.3641192 10
-1.2038597 0.62859255 -1.3820786 13
-1.1950074 0.64279771 -1.3729892 14
1.9887786 0.70546162 -1.3241677 12
2.0833571 0.6668644 -1.3418097 8.25
-1.2153453 0.90944266 -1.2906035 18
1.9839069 0.9092235 -1.2470437 14.5
2.0727093 0.92448652 -1.2637191 8
2.0435021 1.0861591 -1.2313911 11.5
1.9738772 1.3366961 -1.2489842 19.5
2.0567243 1.2406518 -1.2491142 12.75
2.0294425 1.5007989 -1.2679663 11
2.0996649 1.9560721 -1.3052971 19
-1.2063357 0.3244912 -1.0729872 9
-1.194476 0.3774128 -1.1368215 10
1.9605125 0.34016666 -1.0577704 7
-1.2054671 0.4581719 -1.080801 11.5
-1.1956346 0.52107418 -1.0801828 13
1.9301363 0.45675117 -1.0190755 9.5
2.086273 0.52812535 -1.1376275 4.3333335
-1.2147725 0.72432125 -1.0076674 16.5
-1.1495481 0.61381233 -1.1158152 7
1.9630445 0.77474201 -1.0170046 13
2.0440216 0.60647267 -1.1637731 5
-1.1710362 0.92870522 -1.1780398 11
1.9819411 0.93324101 -1.1848959 15
2.0780482 0.86111414 -1.135956 8.5
2.0555403 1.2827339 -1.0302639 12.833333
2.0281084 1.4823749 -1.0229765 13.25
2.1087193 1.9073772 -1.1586674 19
-1.2438875 0.12915461 -0.85045445 5.5
-1.2071298 0.25604278 -0.92851347 7.5
-1.1470824 0.52817959 -0.8081575 7
1.9457656 0.46204323 -0.89208674 9
-1.081955 0.71556795 -0.90027797 11
1.9300969 0.61288393 -0.94919366 11.5
2.034277 0.74071431 -0.85196346 7.25
-1.0699214 0.83370745 -0.99179161 12.5
1.9412143 0.88033849 -0.8910141 15
-1.0946643 1.0497236 -0.90375257 16
1.9310119 1.0382822 -0.85288602 17
2.0125015 1.0913876 -0.92353541 11
2.0808823 1.3177193 -0.80651188 15
2.0436656 1.5367467 -0.90956289 14.666667
2.0589385 1.6436999 -0.91377586 17.75
2.0486407 1.9350917 -0.90309644 18.5
1.9265887 0.1905558 -0.61775601 5
-1.2306951 0.33324584 -0.67947006 10
-1.1690243 0.39704186 -0.78707367 5
1.9205348 0.29079342 -0.79783827 7
-1.2268378 0.52720523 -0.76279604 13.5
-1.2303026 0.63562137 -0.66193354 16.333334
-1.1371031 0.72343659 -0.62988591 11.5
1.9083208 0.6642096 -0.65831369 13
2.0700569 0.70373869 -0.68621039 7.0666671
-1.2279799 0.92344844 -0.75462937 21
2.0967226 1.1967863 -0.74061668 13.5
2.0515535 1.2453229 -0.74308163 11
2.0251491 1.485185 -0.70788074 13.5
2.0694792 1.799328 -0.70336914 20
2.0519779 1.8626155 -0.78861439 20.5
2.019618 2.0109248 -0.78642845 17.5
-1.2627676 0.15565117 -0.52306736 6
1.9477415 0.092889547 -0.49864614 4
-1.2559934 0.20753524 -0.46273357 7
-1.1883566 0.38340425 -0.5884406 5
-1.1615604 0.46648178 -0.57805163 6.5
-1.2244097 0.6732896 -0.59208441 18
-1.1433383 0.69233465 -0.43408409 10.833333
2.0546377 0.72072643 -0.44363976 7
-1.2330598 0.93274021 -0.52542049 18.25
-1.1330776 0.83906251 -0.56028187 14
1.9426323 0.94746053 -0.50618422 13.5
2.0331459 0.81441951 -0.49279267 8
-1.2048246 1.0726435 -0.54971439 16
1.916536 1.1390276 -0.50552732 19.5
2.0323019 1.252589 -0.48110893 12.25
2.0370395 1.5093652 -0.4543325 16.166666
1.9959632 1.6553829 -0.52929491 18
2.0215404 1.8956453 -0.52938575 18.666666
1.9115583 0.38589463 -0.37713912 9
-1.178773 0.52265865 -0.30539188 6.3888893
2.0651703 0.51509881 -0.3166678 5
-1.2583385 0.68662578 -0.3203145 18.666666
-1.1303619 0.70260972 -0.28665349 13.166667
1.9874139 0.61165738 -0.3175571 4.5
-1.2537557 0.8432892 -0.35995555 21
-1.1394378 0.88771385 -0.32955095 16.533333
1.9516693 0.93551809 -0.25403836 13
2.0138388 0.82376671 -0.35510314 6.5
-1.2120951 1.1630062 -0.31129092 19
2.0099552 1.1100661 -0.30100498 11
-1.2185651 1.2566991 -0.3023923 20.5
1.976921 1.313555 -0.32999784 15.5
2.0667095 1.3437297 -0.33831376 16.5
2.0401533 1.7610573 -0.34661222 21
1.9831995 1.809963 -0.35640711 20
2.0147872 1.8896995 -0.25036287 18.5
-1.295234 0.092589006 -0.021661026 4.5
-1.1225169 0.38314122 -0.027097106 8
-1.2114742 0.59716296 -0.14613342 7
-1.1763817 0.48088863 -0.14598006 8
1.9879454 0.48278037 -0.13238984 4.5
2.0147417 0.51976252 -0.12198019 6
-1.2113907 0.66218984 -0.062265158 8.5
-1.0976074 0.76704746 -0.074890435 17
1.9777291 0.64222503 -0.11237806 6.5
2.0212867 0.79626948 -0.19897348 9
-1.1886084 0.87775886 -0.030058742 12.5
1.9431928 0.87892222 -0.045138311 13.25
2.0202751 0.9230479 -0.12294477 12
1.9208215 1.1123638 -0.06100795 15.5
2.0200624 1.1679895 -0.121768 11
1.9710422 1.368508 -0.14695597 14
2.000957 1.2521479 -0.12706643 14.5
1.9739113 1.5224689 -0.091935188 17.875
2.0062585 1.488598 -0.016976357 12.5
1.9680095 1.6885352 -0.14073342 20
-1.278253 0.20229325 0.019015443 8
-1.1104466 0.25980651 0.16638829 5.5
1.8402971 0.28922391 0.074654125 8
-1.2124635 0.44242144 0.15116566 8
-1.1595587 0.52341837 0.058117162 10.5
1.9717025 0.42747134 0.12375599 4
-1.2217016 0.70353425 0.14266188 13.5
-1.1005715 0.62966967 0.12648171 14.5
-1.3002703 0.85369575 0.042481005 21.5
-1.1351621 0.89441657 0.02072823 19.25
1.9842129 0.95426095 0.15636587 9.5
2.0432112 0.88165361 0.044722825 8.5
1.9902338 1.01772 0.053265572 14
1.9565712 1.2770072 0.10679039 13.5
2.0046036 1.2214181 0.034605384 10
1.9734446 1.5437384 0.090237498 18.833334
1.9881139 1.7706767 0.016247749 18
1.9498507 1.9053665 0.11527908 18.299999
-12.479655 2.0467682 0.1714468 7
-1.2972968 0.19916442 0.24943981 7
-1.2948645 0.32035822 0.3451423 10.25
-1.1296953 0.36132795 0.22234303 8.5
-1.2171706 0.47353604 0.21377838 6
-1.1160111 0.47231108 0.24878618 11
1.9628748 0.50882632 0.32673836 6
2.0257981 0.47289091 0.23797578 5
-1.2555826 0.6760605 0.32986706 16
-1.158323 0.6647715 0.35480943 13.125
1.8852494 0.68862456 0.28246248 11.5
-1.2591208 0.9070937 0.26059306 18.333334
-1.1139765 0.90399265 0.34294882 13.75
1.8684709 0.96187615 0.3930316 18
-1.2253814 1.0649731 0.34888196 19.166666
1.9346256 1.1190466 0.28456351 15.666667
1.9584442 1.2277917 0.30044737 14.666667
2.1646941 1.2158784 0.35267246 7
1.9256761 1.4831017 0.37034899 19.5
1.9576035 1.6659683 0.36363089 16
-12.498468 2.3324404 0.22257817 8
-12.473764 2.5512209 0.29175043 9
1.8917097 0.10203335 0.51674438 4.5
-1.2429949 0.33800149 0.49149963 6.8125
1.8349657 0.35667884 0.46902686 9
2.0405576 0.3776986 0.57840395 4
-1.2552489 0.5163126 0.49607536 9.8666668
1.9578817 0.53506064 0.48814625 5.5
-1.2249209 0.72653544 0.50931716 13.625
-1.1476904 0.71540469 0.48589858 17
1.9395196 0.68128836 0.53691399 6.75
-1.2247632 0.8731519 0.51687729 15.5
-1.1297342 0.98156774 0.5507828 9
1.9427041 0.90263736 0.44264263 8.666666
2.0021615 0.89420551 0.4877013 7
-1.2529676 1.0480051 0.50829542 19
1.9459106 1.0579736 0.48258591 11
-1.2803631 1.3952265 0.52793229 20
1.902989 1.2799647 0.48518056 17.125
1.9343405 1.4641889 0.52914798 16.875
1.9606588 1.7174562 0.54893816 17
1.94893 1.8026086 0.57072574 18
1.8365829 0.18417239 0.69780242 5
-1.3420177 0.34412724 0.77677411 9.5
-1.1719502 0.22979046 0.62572694 5.25
-1.2980094 0.45578757 0.69108891 9.5
1.9650664 0.51095778 0.70502824 4
-1.2556093 0.67142856 0.71918184 12.366667
-1.1801944 0.64522797 0.67556185 15.5
1.9436023 0.78230399 0.68247759 6
-1.2161009 0.89137805 0.6890533 18.0625
1.937947 0.94842553 0.61037564 12.75
-1.2448671 1.0208826 0.72187352 22.75
1.9215785 1.0997889 0.65266663 14.625
2.1094468 1.1745211 0.62542391 7
1.8608686 1.2862798 0.7311213 18.583334
1.9184431 1.5340292 0.66434044 18.5
1.8584954 1.6458074 0.7565918 20.5
-1.2517861 0.36894733 0.90878272 6.75
-1.3275712 0.46362582 0.87171912 11.5
-1.1895224 0.46548641 0.93077964 11.444444
1.8201982 0.44001839 0.8583473 9
-1.2882932 0.71994954 0.91248178 15.5
1.9246938 0.66106492 0.89437795 8.5
-1.2722753 0.91581082 0.91624939 19.462963
-1.165138 0.93534547 0.80484933 10.25
1.9150641 0.89868021 0.92956382 8.5
-1.3152969 1.0726268 0.90089309 20
1.8985611 1.1095914 0.86591268 14
2.0435448 1.0385259 0.91541749 7
1.8904243 1.2933959 0.86650795 16.333334
2.0378265 1.2260898 0.93418854 9
1.9183912 1.5379337 0.86547148 20
1.9026356 1.6551292 0.83061719 18
-1.3947325 0.15057445 1.1767139 5
-1.28834 0.28154793 1.1231774 6.022222
2.0254586 0.37690276 1.1788042 5
-1.2898244 0.48376387 1.1578611 10.708333
-1.1861905 0.51256871 1.0254555 13
1.8070328 0.57637894 1.0872871 11
-1.3151438 0.68882322 1.103941 13.9
1.7874689 0.7105093 1.0773402 13.333333
1.8802723 0.66405421 1.1363825 8
-1.4014269 0.86217648 1.1422579 17
-1.2901386 0.91586387 1.1235898 18.6
1.7948943 0.95658588 1.1077479 16
1.8997533 0.95753944 1.053061 13.25
-1.2852548 1.0859519 1.1045995 19.194445
1.7792616 1.1035509 1.0925096 18
1.8165004 1.0005867 1.1159067 17
-1.2715853 1.2042041 1.1228114 22
1.8753366 1.3002445 1.051499 15.555556
2.035078 1.5792005 1.0767615 13.5
-1.4030271 0.066150308 1.2426589 4
1.7844292 0.16607842 1.3707483 5
-1.4180137 0.29397121 1.260726 7
-1.1923327 0.29537195 1.2577887 7.5
1.7599093 0.31603953 1.3461703 7
1.9312308 0.29616824 1.3894062 4
-1.3265891 0.48051795 1.3245007 9.7777777
1.7762032 0.43082288 1.2102138 9
1.8503228 0.48886904 1.273694 6.6666665
-1.3074117 0.64479959 1.3560197 13.166667
1.8962564 0.70169473 1.2947122 10.833333
-1.4090142 0.93456745 1.3465571 17
-1.2931887 0.97246259 1.3477606 20.1
1.8732167 0.89639646 1.3524619 12.5
-1.406725 1.0795046 1.3164332 19.333334
-1.314297 1.1060516 1.3027939 20
1.9035919 1.1263144 1.2438241 16
-1.2635911 1.2058675 1.3668771 20.5
1.8884518 1.3272765 1.2815698 17.375
2.3749845 1.3996741 1.3344162 8
1.8664451 1.5068471 1.2646693 20
1.9536804 1.654985 1.3212225 15.75
-1.2507582 0.10815123 1.4684813 3.5
-1.4070185 0.29302815 1.5134715 7
-1.2977356 0.30251482 1.5191455 6.9444447
1.8989162 0.33887219 1.4553343 4
-1.4180495 0.54054785 1.4819403 10.5
-1.2786993 0.52822548 1.4742259 11.333333
1.8658662 0.54418498 1.5054601 8
-1.2990472 0.71637195 1.4887908 14.797618
1.8064481 0.71376973 1.4943076 12
-1.2989666 0.97438037 1.4765259 17.542858
-1.1738816 0.98031521 1.5012281 13
1.8960984 0.90478641 1.5491474 10.5
-12.03984 1.1051044 1.4227061 5
-1.3068097 1.0249343 1.4742843 19.833332
1.8846787 1.0856736 1.5067081 13.285714
2.387841 1.0404688 1.5872273 5.5
-12.010475 1.3641987 1.5185485 6
1.8488168 1.3140714 1.5208158 18.75
1.8281376 1.4493729 1.4135945 20
1.8551688 1.7085173 1.444857 21.5
-1.406376 0.1397686 1.6813196 4.5
-1.3192977 0.30120689 1.7451245 5
1.92598 0.39397544 1.6459934 5
-1.410579 0.58330142 1.6073767 11
-1.3168153 0.54306984 1.6854806 10.9
1.7722294 0.47889638 1.6743636 9
1.8903806 0.51295805 1.7046494 5.75
-1.4081885 0.64225864 1.6040819 12
-1.2994789 0.69168872 1.6537842 13.166667
1.7862736 0.68745393 1.683532 11
1.8826954 0.65929091 1.6690818 9.25
-1.3058113 0.94514322 1.6398524 17.5
1.8633872 0.91213703 1.7699318 11.583333
-1.3275846 1.0997133 1.6837044 21.1
1.8568355 1.1230183 1.6988128 13.75
2.374217 1.1943374 1.6456833 7.5
1.8715242 1.2544041 1.7223066 15.666666
1.7894833 1.5278825 1.6734798 20.5
1.8457692 1.4771191 1.6879547 20.4
2.376024 1.4049302 1.73197 10
1.8082961 1.6488687 1.7079358 22
2.3533726 1.7859803 1.7591412 14
-12.076723 1.8310232 1.6834006 7
-12.160467 2.2214615 1.763361 8
1.7759613 0.30930996 1.9147871 6
1.8313987 0.39117342 1.8490691 4.5
-12.800558 0.49875256 1.9424459 4
-1.2902246 0.56524843 1.9368674 11
1.7985284 0.57495379 1.824491 7
1.8527712 0.49417391 1.8174257 6.3333335
1.7576344 0.67057562 1.9156691 11
1.8409294 0.70765758 1.9008555 8.125
1.8402309 0.92835796 1.9195168 12.1
-1.4606743 1.1450276 1.9844065 16.5
1.7877661 1.103738 1.9210066 15.5
1.8326424 1.1025443 1.9090608 14.333333
1.770472 1.2923245 1.9382682 17
1.8384774 1.3777413 1.8985481 18.5
1.7803543 1.4602118 1.9538039 19
1.8308463 1.4715712 1.8607696 19.5
1.7749732 1.6609561 1.9457487 22
2.3428977 2.0421941 1.8892144 16.5
-1.4488357 0.1548911 2.0305235 4
1.7450594 0.19715317 2.1199217 5
-1.4419613 0.28406522 2.0291383 6
-12.917586 0.55017257 2.0135241 5
-1.2883859 0.46968201 2.0461488 9.5
1.7987598 0.56012642 2.1206028 6
1.8225287 0.49352661 2.1053531 5.6666665
1.8051761 0.73027438 2.0640347 8
1.8110012 0.98873246 2.0943773 11
1.8012917 1.1420231 2.1621716 13
-12.806418 1.5458781 2.1819839 7
1.7719138 1.4971991 2.1091225 19.875
1.8481698 1.4506314 2.0954792 18.75
1.8672098 1.6031235 2.1506767 20
2.3404655 2.2332616 2.0086024 18.5
1.7238655 0.2841067 2.38799 5.5
1.7620651 0.49128872 2.269923 7.25
-12.1512 0.90921438 2.3571525 5
1.7805883 0.98823607 2.2452512 12.5
1.8019625 0.88665229 2.210691 11.5
1.7798843 1.0952375 2.3078103 13.5
1.7648666 1.353851 2.3122909 16.75
1.735618 1.5322945 2.3667712 18.5
1.716853 1.6629198 2.3252926 20
-12.824871 1.9535538 2.2385397 8
1.7068564 0.16699865 2.426018 4
1.7125807 0.31947064 2.5877118 6
1.7250564 0.46721667 2.5023208 6.5
1.7384322 0.67293072 2.5129247 9
-1.4518991 0.92784965 2.4284778 13
1.7410449 0.88569331 2.5080185 12
-12.31982 1.0652363 2.4726033 6
-12.350804 1.522652 2.5471582 7
1.7101375 1.4766452 2.5554185 17.5
1.7237558 1.9349992 2.5811417 21
1.7228014 2.0918417 2.5566411 22
1.7223209 0.68475515 2.6335845 9
1.7184333 1.1115963 2.621588 13.5
1.7189971 1.3173137 2.6328311 15.5
-12.186497 1.744559 2.6827593 8
-12.044718 -0.081915587 3.4390855 4
-12.225227 0.88101614 3.4737892 6
-3.5308576 -0.203899 3.7729058 3
-12.099696 0.3419477 3.6759734 5
-4.4520645 0.23493019 3.717607 6
-4.5303035 0.49393976 3.7489026 7.5
-12.089988 0.70957768 3.7989931 6
-12.265678 1.3158399 3.6506295 7
-12.200137 1.6856571 3.7689786 8
-1.5121056 -0.22358766 3.8658397 1
-3.8021219 -0.0087203085 3.8296425 4.5
-3.3098972 -0.00031206012 3.9433146 5
-3.1947513 -0.092851132 3.9248691 4
-2.7582197 -0.075161904 3.9069576 4
-2.3698783 -0.071722627 3.958781 4
-1.9594531 -0.13445279 3.8452435 3
-1.7378434 -0.10990785 3.8517351 3
-1.5615145 -0.0049527586 3.8691912 5
-1.3884622 -0.12503305 3.896153 3
-1.1634393 -0.054470032 3.8936424 4.4000001
-0.68027186 -0.005397141 3.9412925 5
-0.36223963 -0.052344322 3.9572573 3.75
0.72938454 -0.0051476657 3.9518161 4
-3.7575881 0.15376386 3.8935697 5.5
-3.5804756 0.186263 3.923945 6.5
-3.2992291 0.13438293 3.9902148 6
-3.1989686 0.10199484 3.9635134 5
-2.8456762 0.05134207 3.9437158 5.5
-2.4872279 0.014847219 3.9496222 5.5
-2.2181253 0.053804308 3.992528 6
-1.8943228 0.13680008 3.9335279 7
-1.7232955 0.079809666 3.8966408 6
-1.3467128 0.12691694 3.9673395 7
-0.8595897 0.065614462 3.9468009 6
0.19297394 0.052673489 3.9668276 5.25
0.58303201 0.00026601553 3.9636109 4
-3.3423874 0.27096602 3.9856477 7
-1.5134954 0.29432988 3.9865549 10
-3.6969337 0.43699753 3.9751086 8.25
-4.6254721 0.81700861 3.8082232 9.5
-12.16172 1.1783854 3.9511623 7
-4.7191501 1.0372699 3.8555965 11
-4.5240626 1.1216336 3.9387488 12
-4.7393379 1.4198705 3.9414663 13
-4.5211215 1.4138842 3.9991331 14
1.7321044 2.6539984 3.9356563 20.5
-4.5301638 0.19173039 4.0926232 4
-4.1228948 0.1251564 4.1683297 4
-3.1237421 0.17143914 4.0218401 6
-2.6814663 0.19410923 4.0056877 7
-2.1570718 0.12210259 4.0738645 6
-1.8052154 0.18808453 4.1331024 6
-1.7878731 0.11905539 4.167757 6.5
-1.4337335 0.070122927 4.043467 4
-0.89855039 0.076501146 4.0532694 4.5
-0.14629725 0.073877931 4.0168357 6
0.087985724 0.13214067 4.0317116 7
0.53874224 0.11098723 4.1272726 4
0.76775873 0.096426904 4.0242472 5
-4.6616502 0.3775031 4.1296916 5
-4.3545084 0.32018477 4.1226978 5
-3.1719553 0.36071917 4.037694 8
-2.7194142 0.2554656 4.0178628 7
-2.5430396 0.25832263 4.0311465 8
-2.365202 0.28083822 4.068727 8
-2.1931853 0.32055923 4.0666571 9.5
-1.9101831 0.26022044 4.0689526 8.25
-1.7742313 0.36979598 4.0959449 7.5
-1.4585965 0.3675395 4.1301446 8
-1.3169032 0.3826842 4.0587001 11
-0.91845131 0.25642446 4.1025143 6
-0.49776113 0.35505652 4.1452694 7
-0.16903818 0.28928769 4.1370783 7
0.088634074 0.26021504 4.1163764 6
0.27032256 0.29359099 4.160625 6
0.47209686 0.3181361 4.0719671 9.5
1.1094856 0.33888516 4.1598277 7.5
-4.6275573 0.52089667 4.1185784 6
-4.2940392 0.482182 4.1315575 6
-3.3781281 0.45518604 4.0246272 8.5
-3.1800702 0.50595438 4.0710416 9
-2.7079298 0.5089606 4.1083322 9.5
-2.4741182 0.43854252 4.112134 9.75
-2.2150869 0.46503899 4.1177001 11.5
-2.0480545 0.52643991 4.1983457 11
-1.8124204 0.4808774 4.0859203 9
-1.4666315 0.48257843 4.0720201 11.333333
-1.0705799 0.49950227 4.1072474 14
-0.77611911 0.56124425 4.1597362 15
-0.54468411 0.5091753 4.1584997 14
0.13978299 0.46661961 4.1138883 12.5
0.49768293 0.59036714 4.1684418 13.5
1.2553358 0.48672563 4.1780772 10
1.5182477 0.40495428 4.1648397 8
1.6271077 0.45474288 4.1902475 9
2.1721296 0.41604197 4.1714091 7
2.8922811 0.42337793 4.1977086 6.5
-4.6966214 0.75511068 4.1704974 7.5
-4.061944 0.79080009 4.152359 9
-3.6060414 0.60258746 4.1211672 10.5
-3.3494561 0.65546632 4.1013579 10
-3.036571 0.6150527 4.1866274 12
-2.5589609 0.65025496 4.1684742 12
-1.9065243 0.74667335 4.1713409 15.5
-1.4685389 0.68429387 4.1361446 16
-1.2945015 0.61757922 4.1251936 15
-1.1605295 0.6776346 4.1736374 16
-0.57435107 0.72088325 4.198431 17
0.14205322 0.61733115 4.1716423 14.5
-4.0903902 0.89402461 4.0999823 10.5
-3.621527 0.83198142 4.1570263 12
-4.8031025 1.0864482 4.1678853 9
-4.7722178 1.1278858 4.1483521 10
-4.0385098 1.0509971 4.1103859 12
-2.4652388 1.3914175 4.1875229 16
-4.3425736 1.4806645 4.0393329 13
-4.3263707 1.6563594 4.1025281 15
1.7020152 2.6481247 4.0117846 20
-1.337642 -0.041579127 4.203989 4
-1.1599437 -0.0018793046 4.3351669 2
-0.8943069 -0.053298041 4.2896085 4
-0.53658301 -0.10554308 4.3142285 3
-3.7425694 0.14560926 4.2425656 4
-2.8330607 0.16368298 4.3335071 4
-2.585284 0.00058093667 4.2200885 3
-1.4194055 0.075066239 4.2266011 5.5
-1.3452628 0.1059627 4.3666434 3
-0.67215991 0.14811939 4.3662305 7
-0.37241393 0.071752697 4.3919911 6
-4.1653075 0.3075273 4.2011395 5
-3.3372331 0.23358418 4.2513099 5
-2.92712 0.3522805 4.3125567 5
-2.6317322 0.32611042 4.2582197 5.5
-2.2289453 0.26399463 4.3288713 5
-2.1353672 0.25436926 4.2964625 5.3333335
-1.4557471 0.22913706 4.2869287 6
-0.68806273 0.26251665 4.3893342 5
-0.27543405 0.32238007 4.3829379 5
-4.154902 0.5344851 4.2207327 6
-3.756484 0.43713146 4.2509894 6
-3.3021522 0.46873832 4.3188543 6.25
-2.8858707 0.56187671 4.3279958 7
-2.2217498 0.4713425 4.2964382 6.5
-2.0705357 0.51880372 4.2400103 10
-1.8485205 0.42374322 4.2487502 9.5
-1.5668982 0.44220397 4.3246589 10.5
-1.332779 0.45618069 4.3630071 6
-1.0377958 0.45883918 4.2764354 10.75
-0.94903141 0.55939972 4.2516823 7.5
-0.18887353 0.51052934 4.396502 7
1.1441443 0.5598774 4.222003 11.25
1.4691533 0.59535325 4.2610321 11
1.8255943 0.59797221 4.2502985 10
2.3795133 0.5061754 4.2065916 8
2.418695 0.5748753 4.239821 9
-4.1742544 0.74627042 4.3370004 7.5
-3.7651503 0.7719065 4.3009825 8
-3.011348 0.7244091 4.211482 13
-2.8596702 0.79892671 4.395472 9
-2.6586595 0.66540521 4.2984638 7.5
-2.4567614 0.63169575 4.2468638 10
-2.2571752 0.67079949 4.2126131 13.5
-2.06019 0.62848377 4.2388268 12
-1.6430508 0.64139748 4.3370194 10
-1.5830374 0.71663141 4.352221 13
-1.2766459 0.62441391 4.3381143 8
-0.20712522 0.76273 4.2000008 17.5
0.080856174 0.72743905 4.2068596 16
1.0729103 0.62493676 4.3802423 11
1.5925473 0.78765035 4.294333 13
1.6965435 0.71104288 4.2724628 11.5
2.1832292 0.60919785 4.2395282 9
-4.1612945 0.90686303 4.34233 9
-3.6469131 0.95008647 4.357182 9
-3.4686406 0.8107124 4.3770499 8
-3.2521372 0.98592085 4.363802 10
-3.0174689 0.84655637 4.3402877 9
-2.9956157 0.88261402 4.2512145 14
-2.6759343 0.88826591 4.3069654 10
-2.4030824 0.82076097 4.24476 15
-2.2592721 0.9493888 4.3814034 10
-1.8049244 0.86255729 4.2365999 17
-1.7797974 0.95494223 4.2492647 18
-1.46131 0.89472747 4.2022905 18.5
-1.3085215 0.92348886 4.2264299 19
-1.1102422 0.86574996 4.2407155 19
-0.25413844 0.87553978 4.2544527 19
0.097188383 0.91811579 4.2778521 19
1.4879866 0.95910883 4.3636446 15
1.6705323 0.91892302 4.3497291 14
2.3810561 0.94572604 4.3479581 12
2.4047096 0.80275786 4.3034644 10.5
-4.1878381 1.1826918 4.3448949 10
-3.9491355 1.1973603 4.3829775 10
-3.459779 1.1820261 4.3169899 11
-2.6646824 1.0905983 4.3672209 14
-2.3727465 1.1569278 4.3327327 16
-2.1422808 1.1086679 4.3369379 19.25
-1.8855906 1.1135194 4.393002 16.5
-1.4331884 1.0048336 4.2361917 20
-1.3267368 1.0212743 4.2587519 20.5
-0.93998909 1.0468433 4.2934093 22
-0.43969771 1.0564754 4.3071437 22
-0.27165958 1.0350245 4.2744365 21.5
0.072833687 1.06849 4.3176427 21
-4.5091 1.2058556 4.2052746 10.5
-4.2820382 1.2812304 4.2346382 11
-4.1304908 1.307447 4.3568459 11
-3.7163539 1.2788006 4.3449192 11.5
-3.270334 1.2043109 4.3516479 11.5
-2.6409953 1.2261236 4.381712 15.5
-2.3679414 1.2389059 4.3858509 14.5
-1.8542862 1.3194728 4.309165 19.25
-1.2033106 1.3241854 4.3032484 18
-0.8297925 1.328185 4.3881826 18
-4.7638788 1.4810325 4.2030306 11.5
-4.2590337 1.5325534 4.2463899 12
-3.6375957 1.5162024 4.2226052 15
-2.7254119 1.5064104 4.3730574 14
-2.4586515 1.5752131 4.2318673 17.5
-1.787541 1.4799774 4.2170153 18.5
-1.1787422 1.5704687 4.2578754 20
0.38152355 1.4428337 4.3562136 19
0.43239695 1.4491696 4.341187 19
0.94142759 1.5277337 4.3839083 18.333334
1.537683 1.5009242 4.3982821 17
-4.8131914 1.704303 4.2485833 13
-4.4468694 1.6794078 4.2682734 13
-3.6630936 1.646327 4.2541418 16
-1.5089092 1.7181669 4.3631091 21
0.88806224 1.7251695 4.3921137 20
1.29 1.6294271 4.3862944 19
1.4857073 1.6122466 4.3453999 18
-4.7885542 1.9776762 4.2346807 14
-3.6575437 1.828758 4.2613707 17
-2.6842799 1.9528821 4.3558331 17
-1.4791567 1.8571132 4.3583136 22
1.400269 1.8573984 4.37778 16
-4.8288169 2.1608129 4.2655072 15
-4.2940927 2.0133708 4.2821331 14.5
-2.4018805 2.0464571 4.3664436 18
-4.3301673 2.3095703 4.2925615 16
-2.3281915 2.2588904 4.2169018 19
-1.9046441 2.2773275 4.2577195 20
-1.9136091 2.5471735 4.2493639 21.5
-1.8129801 2.6875091 4.3544464 23
-0.037570819 -0.074522614 4.4273815 4
-0.24546833 0.1387423 4.4961901 6
-0.038352117 0.079839915 4.441689 5.5
0.27289206 0.16756636 4.568758 7
0.40822816 0.0083045661 4.5624418 4.5
0.73142695 0.043587908 4.5369768 1
-0.84197915 0.2984466 4.4120913 9
-0.60611147 0.31354201 4.4437642 9
-0.35867375 0.2260893 4.4772172 8
0.14691699 0.30314064 4.5176926 6.5
0.3545782 0.29322159 4.4384422 4.5
0.67071742 0.3809315 4.5307732 5
-4.6321521 0.55171931 4.5161095 7
-4.3478265 0.45368204 4.4791651 6
-0.85509104 0.50372136 4.4505033 11
-0.49114722 0.45449021 4.4821224 11
-0.059355721 0.59821111 4.435709 8
0.029899916 0.52280289 4.5306296 7
0.23532672 0.55353379 4.5187788 7
0.44331896 0.45690781 4.4836164 9
1.2395149 0.56958938 4.5416994 6
-2.6732996 0.73383319 4.5998898 9
-1.1886826 0.65665579 4.4277725 13
-0.87438607 0.60934651 4.4787369 12
-0.42159534 0.66091609 4.5871873 12.5
0.096781082 0.62869167 4.454412 8
0.41964808 0.68648756 4.4744072 8
0.71191162 0.73728341 4.4930539 8
-4.889966 0.98191237 4.4609284 9
-4.615684 0.85541975 4.5314436 8
-4.1813664 0.92686331 4.580162 9
-1.9184655 0.99155104 4.4622808 11
-1.1045983 0.91373873 4.5877833 16
-0.60245383 0.94322443 4.4529428 11
-0.21986453 0.81087619 4.4658928 9
0.29318234 0.95367014 4.5030346 10.5
-1.4972285 1.1100296 4.4830294 11.5
-1.0897186 1.077538 4.5777955 17
-0.94229794 1.1211765 4.5819964 12
-0.67878646 1.1400731 4.4469099 12
0.25265071 1.1461835 4.51688 12.5
0.71459061 1.085353 4.5304179 13.5
0.88872844 1.0664293 4.5189915 13.666667
1.2576162 1.1245058 4.5316601 14.25
1.862053 1.1295403 4.4452 15.5
2.2526481 1.1826791 4.4199772 14.5
3.1393366 1.099287 4.4345512 8.75
-3.4651511 1.3816711 4.4786386 17
-2.9193316 1.3685076 4.4491868 13
-2.0664709 1.3673158 4.4017606 14
-1.8717352 1.2104257 4.4010997 18
-1.7566206 1.3526025 4.4056959 13.5
-1.5231738 1.282552 4.5186348 19.25
-1.1352278 1.2931459 4.5410805 16.5
-0.93121845 1.2867489 4.470015 13.5
-0.74122953 1.2871001 4.4439535 14
-0.27853647 1.2687311 4.5064478 13
0.15797335 1.3934498 4.5555916 14
0.66290069 1.3077667 4.5888376 13
0.8113538 1.2224983 4.5719442 12
1.1741369 1.3306834 4.4865465 19.5
1.4586302 1.3656557 4.4777622 19
1.7780861 1.3812962 4.5044293 18
1.8249458 1.2990049 4.5205307 17
2.3250322 1.3408997 4.4844661 16
-3.6327274 1.5689105 4.4411402 18.5
-3.4507735 1.5028805 4.5010471 18
-3.1322117 1.4356577 4.4080024 12.5
-2.3326635 1.455514 4.4075041 13.5
-2.0508251 1.5737822 4.4074159 15
-0.93856949 1.5462143 4.4872661 16
-0.23949027 1.5282683 4.4995089 19.5
0.28659078 1.5835896 4.5855227 15
1.2694819 1.5284009 4.4218578 17.5
1.4446455 1.4853894 4.506052 20
2.0387282 1.5790716 4.5483046 19
2.5699477 1.5997882 4.5753579 17
-4.096343 1.688184 4.4131327 13
-2.658361 1.6784577 4.4087405 17.5
-2.3589818 1.7189672 4.4248633 15.5
-1.8766422 1.6485846 4.4495406 15.666667
-1.263847 1.6872189 4.4836049 16
-1.1127243 1.7722287 4.4766335 17
0.97781444 1.7008379 4.4022021 20
1.4686441 1.6630324 4.4967465 15
1.8576393 1.738693 4.549931 14.5
2.0085022 1.740779 4.4185963 17.5
-2.6518905 1.8350288 4.4297233 19.666666
-1.8786626 1.8553653 4.4647713 17
-1.5733054 1.8398054 4.4481344 17.5
-1.0761293 1.9331517 4.4862761 18.5
1.9708583 1.9466305 4.4066911 19
-1.8684211 2.0036883 4.4550195 18
-1.7647256 2.1733873 4.4708109 19
-1.3286173 2.1233242 4.4950938 19.5
-0.66737044 2.1683025 4.565979 20
-0.31666204 2.1003921 4.5639591 20
-0.17664085 2.1403239 4.5827723 20
-2.2716687 2.3472018 4.5093079 20
-1.8055069 2.3671539 4.5491467 20
-0.60945982 2.2623422 4.5707345 21
-1.9012324 2.487864 4.5099134 21
-1.3427076 2.4619908 4.5813484 21.5
-2.3591435 2.6069307 4.452652 21.5
-1.8634202 2.6331205 4.459918 22
-1.2717575 2.6930361 4.4442048 23
1.4478362 -0.068264008 4.6262927 0
1.8372595 -0.043250933 4.6908274 0
2.3217635 -0.071766824 4.6695747 0
0.48135376 0.1529344 4.6164179 6.5
1.1650267 0.12728012 4.7330713 5
1.4891931 0.095691025 4.7923489 5
2.7289701 0.19505781 4.6265898 3
-3.5839953 0.36195946 4.6544228 6
-0.62073004 0.36684313 4.7756529 6
-0.058166608 0.37943926 4.6114836 9
0.25319141 0.32997045 4.619925 8
0.49190354 0.2881093 4.6576481 8
1.1562934 0.36549953 4.7961617 7.6666665
2.08341 0.39544153 4.6032538 5
3.1013865 0.22780393 4.6350617 3
3.4468575 0.24703555 4.7305121 3
5.4722762 0.33946091 4.7740498 3
-4.1543388 0.55325705 4.639801 6.5
-3.3129699 0.42804381 4.6625795 6.5
-3.1267502 0.58431911 4.6590948 7.5
-2.868176 0.5799433 4.7563591 8
-2.7199445 0.52503228 4.6304197 7
-2.100776 0.59801316 4.664022 8
-1.7125545 0.59739053 4.6751337 8.5
-1.2109718 0.43388018 4.7387476 7
-0.60786521 0.42069322 4.7934279 7
0.24250872 0.47680375 4.6491661 10.5
1.0879974 0.58469576 4.6062818 7
3.0194168 0.47334492 4.6376677 4.5
4.6640301 0.53348851 4.7398028 4
-3.634213 0.76427424 4.6396294 8.5
-3.2220812 0.76170063 4.6435041 9
-2.9607885 0.72590888 4.7338586 9
-1.2006569 0.61762631 4.7345624 8.5
0.22825028 0.69323266 4.6458263 12.5
0.97709417 0.71267402 4.6511722 8
-4.2509818 0.81982684 4.6238794 8
-3.6639616 0.96900356 4.6231308 10
-2.2967877 0.80139339 4.688622 10
-1.6863023 0.83393824 4.7059622 10
-0.1604145 0.89273202 4.6729393 15.5
0.06600894 0.9571687 4.7525516 15.5
0.79076618 0.87829375 4.6507373 9
1.254669 0.93649131 4.6157379 9
1.7369218 0.93418849 4.6403456 9
1.9674727 0.94674939 4.6163831 9
2.1295991 0.884767 4.6289587 8
2.6825051 0.86103094 4.6485066 7.5
2.9245272 0.85218292 4.6693106 7
3.0596662 0.92632955 4.6841969 8
3.4873018 0.81013888 4.7869511 6.5
-3.1953585 1.0066166 4.7198391 10
-1.1776667 1.1991643 4.7536469 13.5
-0.10100214 1.0206934 4.7306833 17
0.12742491 1.1358932 4.7097774 18
0.68550181 1.1351757 4.6040816 16.5
1.6637979 1.1380415 4.6933532 10
2.1269259 1.0011448 4.6323166 9.5
2.3754504 1.1694794 4.6329618 10
2.7141137 1.1069298 4.6733069 9
3.029577 1.0970728 4.6903591 9
-0.7443043 1.2811072 4.7819433 14
-0.35074055 1.3490989 4.7869229 20
-0.020805821 1.3254132 4.7219043 20
0.13376023 1.2339857 4.7209516 19
0.99218541 1.3786199 4.6153007 13
1.2900078 1.2886949 4.624186 12.25
1.6095431 1.261494 4.6518998 11
2.0327644 1.3528681 4.754806 12
2.9205613 1.3548429 4.7292662 10.5
-1.0005964 1.4003102 4.6479597 21
-0.93293893 1.5317903 4.6861782 22
0.81745374 1.5770414 4.6324906 15
1.019055 1.5811601 4.7216058 14
1.3646326 1.503834 4.7257886 14
1.9566664 1.5978506 4.6881704 13
5.1728721 1.4385922 4.6065106 10
1.3439046 1.7746727 4.6456542 15.5
1.7169789 1.7696416 4.7072968 15
1.9758333 1.733768 4.7085285 14
2.1453326 1.641736 4.6074266 13
2.387517 1.6696858 4.7105355 13
2.5636339 1.6691583 4.6629038 15.5
2.7600591 1.6100137 4.725596 12
3.0245872 1.6554639 4.7623348 12.5
5.1584263 1.6465498 4.6737881 11.5
1.3141686 1.8924887 4.6602197 17
1.4352612 1.8877797 4.6565471 16
1.7149165 1.8990328 4.6971221 16
2.0536008 1.9298803 4.7287126 15.5
2.7626436 1.8836391 4.7728214 14
2.984184 1.8628321 4.7559762 14
5.1811376 1.9329526 4.7686081 13
1.3800722 2.0658195 4.6864796 18
1.6759201 2.1961448 4.7356853 18
1.8224049 2.1579771 4.7569323 17.75
2.0088546 2.1491234 4.7893839 18.5
2.2975745 2.1180596 4.7686319 16.5
0.47092113 2.251884 4.6210246 20
0.75882488 2.2497673 4.6553793 19.5
1.0667039 2.2621341 4.6691213 19.5
1.6929338 2.3203745 4.7412038 19
2.6306293 2.2138057 4.7683268 16
0.6365416 2.4178433 4.673697 21
0.98505884 2.5686736 4.7276263 21
1.4368575 2.5410361 4.7347565 20.5
1.9602793 2.5301533 4.6386685 20
2.0967662 2.4373832 4.6589284 18.5
0.96808016 2.712606 4.7004147 22
1.3018409 2.759959 4.7540946 22
1.5822678 2.7065649 4.6872029 21.25
-1.9887353 -0.20838791 4.9410415 1
-2.6512845 0.33259794 4.9874129 4
1.619826 0.33777544 4.8691487 7
1.8100853 0.33660677 4.8804383 7
-3.0856678 0.41243508 4.9678917 7
-2.7762179 0.4190731 4.9817367 5
-1.047758 0.43193465 4.9400787 5
-0.82309145 0.53223073 4.9699712 5.5
1.143502 0.47975013 4.8195333 9
1.8906944 0.43733844 4.9170833 8
2.1817353 0.48089084 4.9906864 8
2.2049015 0.42071763 4.9973831 7
3.7848964 0.55586684 4.8309283 5
-2.7788937 0.62875342 4.9739885 6
-1.0992402 0.63889688 4.9736395 6
-0.8470127 0.7855354 4.9922037 7
-0.64036775 0.60225236 4.8231034 8
1.6302079 0.66762692 4.9742556 7.5
4.3437862 0.74632961 4.8262939 5.5
-2.7806695 0.84826499 4.9811759 7
-2.4244242 0.875269 4.9907351 8
-0.79479063 0.93269849 4.8053951 11
-0.47308025 0.9343524 4.8812866 11
0.56748599 0.92542708 4.8360248 14.5
-2.7176707 1.0541666 4.9795036 8.5
-1.1899736 1.0391213 4.8435717 12
-0.84663993 1.0892521 4.8200817 12.5
-0.46257773 1.1353043 4.8740578 14.333333
0.55940509 1.0731972 4.8876948 16
0.65147102 1.1500099 4.9773445 12
3.9828682 1.1693528 4.8699455 8
4.5382504 1.1895194 4.8651938 8
5.2140694 1.1883184 4.8422403 7
0.076580837 1.260097 4.9296255 14
0.59297013 1.3068585 4.9755182 15.75
4.0089846 1.3752017 4.8734112 9
-2.7675412 1.4712987 4.9907899 11
-0.55318403 1.514663 4.8114409 21.5
-0.10060833 1.5027227 4.8862681 18.5
0.55830801 1.4625044 4.955142 19.5
4.5307026 1.5140371 4.8672485 9.5
5.0120893 1.4312959 4.8526583 9
3.6956487 1.6140318 4.8999901 11
4.9527583 1.6849153 4.8914471 10
1.8697243 1.9378988 4.8645554 17
2.096359 1.9903829 4.8715906 17
2.6965637 1.9625623 4.8064055 15
3.7077048 1.9336734 4.8770661 13
3.8570912 1.8726399 4.893991 12
4.5568171 1.92102 4.9355769 11.5
4.8842254 1.9969428 4.9000096 11
5.1368141 2.1108007 4.8301682 14
2.7382841 2.3987198 4.8074627 17
4.5512443 2.3082011 4.921442 13
5.1527133 2.2545202 4.888937 15
10.666922 2.3090708 4.9107981 8.5
2.5823908 2.5988524 4.8195348 18
4.5251184 2.4051726 4.9395189 14
-1.8360735 2.6175728 4.9757414 17
-1.6756902 2.6237922 4.9757023 18
2.5808907 2.787976 4.8062649 19
10.368982 2.8325911 4.9913397 10
-1.6775205 -0.16639674 5.0496559 1
-1.2281625 -0.19101197 5.0334992 1
-0.74394369 -0.17523372 5.095695 1
-0.082191586 -0.081699967 5.1731219 2
-0.049657617 0.093267649 5.1868544 3
2.6811078 0.16998318 5.0085979 5
-1.510141 0.33934689 5.0364842 5
-1.3935962 0.36703718 5.1150346 5
-0.71484715 0.36836895 5.1402388 5
-1.5339028 0.57743967 5.0425835 6
-1.942178 0.77010202 5.0803766 7
-1.3903345 0.68833554 5.120152 7
-0.00061795546 0.62495655 5.1384654 6
2.165024 0.66437137 5.049243 9
-1.7471077 0.98014969 5.0667329 8
-1.2217754 0.82091373 5.0783882 8
-0.71643555 0.92459393 5.162148 8
-1.8525045 1.181869 5.0738959 9
-0.1805851 1.1638575 5.1539712 10
-2.1113169 1.2056355 5.0895753 9
0.96353936 1.3287714 5.0320911 13
1.9458344 1.3772401 5.1649747 15
-2.7988484 1.4245855 5.0525913 10
-2.534761 1.4459057 5.0955753 11
-1.84663 1.4653788 5.0442557 11
-1.5214554 1.5018084 5.1411901 11
-1.2334867 1.5316489 5.1749353 12
-0.57978684 1.483918 5.198616 11
0.93386155 1.4710517 5.0339279 14.75
1.763859 1.5416813 5.1047211 14
1.8863096 1.4905456 5.1856804 16
3.9599032 1.4782064 5.0061607 10
-2.7683265 1.6781201 5.0012279 12
-2.2930987 1.7485545 5.0933256 12
-1.9909098 1.6252239 5.1215882 12
-1.5005299 1.6716064 5.1560879 12
1.7958138 1.7941958 5.1373224 15.5
2.3991721 1.7534596 5.1791124 14.5
-2.6461079 1.9264123 5.078721 13
-2.3194668 1.9628997 5.0630312 14
-2.0619848 1.8716648 5.0625858 13
-1.8639797 1.8411274 5.0692892 13
-1.124246 1.8626986 5.1640015 14
-0.75078022 1.9248493 5.1583352 14
2.5662997 1.8657156 5.1860075 15
-2.724081 2.1945653 5.0461998 14
-1.8999362 2.0679986 5.1487641 14
-1.7008218 2.0844641 5.1016235 15
-1.5993112 2.062624 5.1523457 14
-1.3124499 2.1833298 5.1979938 15
-2.7336402 2.3505375 5.0437131 15
-2.3312678 2.3430924 5.0617518 16
-2.0605841 2.2729869 5.0675035 15.5
-0.95165658 2.2222695 5.161027 16
-2.6051564 2.5898495 5.0123858 17
-1.4594992 2.4080076 5.1819243 16
0.73923862 2.4773705 5.1804581 19
-2.7038391 2.6031508 5.0440583 16
-2.4092629 2.6225014 5.0611787 17
-2.1883764 2.63466 5.0453954 17
-0.00061457325 2.6054018 5.1293597 18
0.71158695 2.6039255 5.0911412 20
1.0728581 -0.20315135 5.2461782 0
1.5640742 -0.21538806 5.3388624 0
2.0043623 -0.18722749 5.3729744 0
2.5093486 -0.15460503 5.3281255 0
2.8731554 -0.18413293 5.3689399 0
1.1559218 0.10420707 5.282589 2
2.2514615 0.17983039 5.3517513 3
1.2672713 0.32833955 5.2646646 4
2.7206655 0.26346624 5.2939153 4
1.8181785 0.79555434 5.2668223 7
1.5582089 0.83629012 5.2588654 7
2.8768809 0.96426994 5.348237 8
-0.36442757 1.1447427 5.21067 9
1.3531413 1.0244055 5.2508988 9
1.8887622 1.1216433 5.3426595 9
2.079663 1.0707426 5.2895288 9
1.2008015 1.367757 5.2877922 11
1.7184519 1.3921564 5.2910976 10
2.3750851 1.3283494 5.3571801 10
2.5560765 1.2970389 5.3490419 9
2.8587 1.2637987 5.3790927 9
-1.0344502 1.5550556 5.2082233 12
0.2987217 1.4882689 5.2439709 11
1.5549887 1.4506018 5.2744398 11
2.1082649 1.5099992 5.2486897 16
2.2969217 1.5086938 5.2834644 13
-0.00064724765 1.6957018 5.2197003 13
0.30838367 1.6179519 5.2586632 12
1.2313691 1.6411309 5.3068538 12
1.5963886 1.685679 5.2923775 12
1.9662807 1.6488967 5.2252612 17
2.475831 1.726661 5.3478746 17
-0.40760416 1.8353579 5.2321243 13
0.56902051 1.864918 5.2788301 14
1.238011 1.8275051 5.3270979 13
1.9192057 1.9922442 5.3961763 13
2.3192987 1.9780124 5.2744226 14.5
2.5239377 1.9411945 5.3681302 13
2.6703615 1.8859918 5.3984647 12
2.9444079 1.9808886 5.3153477 13.75
-0.00064918271 2.0496643 5.2224541 15
0.58276349 2.1940975 5.3069749 15
0.7151379 2.0673895 5.2743821 15
1.2609127 2.0992718 5.3233981 14
1.7563986 2.1035931 5.3919072 14
1.9493767 2.0874407 5.2668347 14
2.1419172 2.1418481 5.3901024 14
2.7019131 2.0856154 5.2574911 16
-0.33068183 2.3559599 5.3329682 16
-0.098498575 2.3874013 5.3771176 16
0.55907011 2.2491603 5.2853808 18
0.7231524 2.2542353 5.2843513 17
1.2535578 2.2360754 5.3343768 15
1.775889 2.3068106 5.3791084 15
2.9557245 2.2841067 5.3844275 14
-0.71714342 2.5981057 5.2078552 18
-0.15044889 2.4435184 5.229414 17
0.53375983 2.5030079 5.2144804 19.5
1.0568002 2.4768333 5.3450394 16.5
1.7167959 2.5509565 5.3844786 16
2.7122328 2.5464206 5.3360538 15.5
0.56030512 2.6147523 5.2561126 18
0.95908684 2.6301422 5.2125096 18
3.138854 0.32087794 5.4939055 4
3.368077 0.37847018 5.4455538 4
3.1422064 0.59258962 5.4964247 5
3.364584 0.55593973 5.4946618 5
3.1235118 0.73253655 5.4838829 6
3.106632 0.89738524 5.489964 7
2.932066 1.7442174 5.41115 11
3.0395637 1.8588073 5.4797974 12
2.3927722 2.1829371 5.4357095 14
2.2755134 2.5047605 5.415256 15.5
4.4448195 2.83797 5.7797613 16
4.481226 2.4006803 5.8082457 14
4.40308 2.7069204 5.8867655 15
