# .PCD v0.7 - Point Cloud Data file format
VERSION 0.7
FIELDS x y z intensity
SIZE 4 4 4 4
TYPE F F F F
COUNT 1 1 1 1
WIDTH 1258
HEIGHT 1
VIEWPOINT 0 0 0 1 0 0 0
POINTS 1258
DATA ascii
-0.49646854 0.089456499 3.0797133 2
0.32067865 0.090992481 3.0373633 1
-12.711867 1.9906405 3.0100677 9.0395002
-10.923932 2.1489456 3.0854199 10.04
-9.7171144 2.2603106 3.0585959 11.04025
-8.7213163 2.4078035 3.0537519 12.0405
-7.1546249 2.4513683 3.0439601 14.04325
-6.0875826 2.5686336 3.0227137 17.043501
-6.1860862 2.6526635 3.0908916 17.051001
-5.5846114 2.6359982 3.0871344 18.044001
-5.1967006 2.6550455 3.0305095 18.5425
-4.9041724 2.6049027 3.0719728 19.043001
-2.9129198 2.6170135 3.0916085 23.05225
-4.8467975 2.7757349 3.0412767 20.884169
-4.3130178 2.8334618 3.007627 22.907787
3.0812893 2.9683208 3.0642447 23.095751
3.6345999 2.9796846 3.0892873 21.599751
3.5626631 3.0821543 3.020117 22.602751
10.659888 3.1555896 3.0015495 10.107
4.2239389 3.2829666 3.0668759 20.122
5.2781787 3.2421095 3.0823829 17.1105
5.3021617 3.3183608 3.0786619 17.122
-6.2680707 -0.34150419 3.1313951 2
-1.324455 -0.12353137 3.1058409 0
-1.9166322 -0.043423116 3.1766052 1
-0.97532326 -0.069142669 3.1479175 1
-0.59072411 -0.0039355159 3.1740847 1
-0.34485278 -0.076638132 3.136389 0.33333334
0.09395916 -0.067870438 3.1708283 0
0.36998585 -0.035804242 3.1834333 0
-0.3677676 0.055731326 3.1996343 1
2.4512525 0.15597105 3.1618667 1
2.9255755 0.14209156 3.1830809 1
1.3077875 0.21681385 3.1554503 3
-9.7678766 2.2062616 3.1654434 11.043
-8.9737892 2.3185475 3.1882849 12.04325
-8.8108702 2.371238 3.1196983 12.051
-6.5817184 2.3559179 3.1633501 15.042
-7.3687739 2.5495427 3.1633713 14.717834
-6.3020811 2.5190492 3.1721578 16.044001
-5.2885733 2.6354425 3.1435676 17.54425
-4.7187138 2.6454775 3.1763091 20.045
-4.4180207 2.6254878 3.1683147 20.04575
-4.131671 2.6888037 3.1577425 22.0445
-2.7956865 2.6399527 3.1546869 23.052999
1.9045321 2.6983256 3.1458929 23.084499
-5.4850297 2.7547889 3.1047699 19.051001
-4.0950637 2.7808244 3.1702585 23.0455
3.8712599 2.7369552 3.1874399 18.120501
2.9030862 2.9461038 3.1012473 23.094999
3.1263776 2.9712296 3.1344492 23.098249
5.8466873 2.9999158 3.1409588 16.102751
3.851541 3.1416531 3.1597245 21.730875
7.3521624 3.2485919 3.1415534 13.111
4.0958195 3.3152039 3.1043868 20.7885
5.4514947 3.3050513 3.1350327 16.62175
6.4394817 3.3706708 3.1038187 15.122
7.5208488 3.3937039 3.1008337 13.121999
9.145422 3.4682283 3.1232283 12.122
13.988182 3.4660976 3.1250167 8.1120005
12.626101 3.5245609 3.1645412 9.1219997
-0.79290825 -0.10241809 3.200928 0
-1.2406839 -0.030786902 3.2762933 1
-1.1537807 -0.060934693 3.2583952 1
-0.35479128 0.021719396 3.2306957 1.3333334
-0.044138625 0.006205529 3.2558715 1
0.6383186 0.048424751 3.2158914 0.5
0.95371825 0.049702108 3.2563105 1
-0.036617577 0.13275704 3.203666 3
-12.108208 0.41311231 3.2095079 5
-12.373774 1.9929444 3.2466319 9.04
-11.836119 2.0426157 3.2656989 9.0512505
-10.533794 2.1873369 3.2565789 10.05125
-10.247324 2.1716938 3.2377064 10.0405
-9.3814716 2.2971647 3.2249262 11.05125
-7.7272401 2.3672233 3.2365327 13.54375
-6.9999166 2.4222505 3.2311153 15.044
-6.8537211 2.4213982 3.2266946 14.542
-6.3833442 2.55127 3.2070289 16.0515
-5.9519963 2.6030354 3.2153141 17.251598
-3.9741266 2.6663423 3.2958541 22.0455
-5.0053511 2.7016878 3.2968295 20.3855
-4.5724773 2.7727513 3.203167 22.05175
5.6143813 3.0456476 3.245831 16.354126
6.8278461 3.0940418 3.2485862 14.105
5.9019723 3.1605003 3.2742624 16.110001
10.498199 3.1355247 3.2253878 10.1065
11.448631 3.1164832 3.2227604 9.1067505
13.234895 3.1240625 3.275461 8.1070004
3.4951565 3.2383513 3.2232258 22.692501
4.2933145 3.2091169 3.2611072 20.121
6.5256925 3.2246318 3.2144933 15.1105
6.4078279 3.3301768 3.2527301 15.1215
9.4950867 3.4186313 3.23242 11.12175
-11.92601 -0.60056913 3.3489904 2
-12.113493 -0.43873605 3.3557611 3
-5.7191596 -0.41093287 3.3903306 1
-1.5721654 -0.10562611 3.3063719 1
-1.5645453 -0.088547558 3.3844483 1
-0.33610886 -0.019816577 3.3469663 0.66666669
0.043783322 -0.0078246295 3.3756914 0
0.30094379 -0.0116404 3.3782442 0
0.48866084 -0.063839972 3.376152 0
0.53928179 -0.024647593 3.3877034 0
1.2419972 -0.0076772273 3.3729477 0
-12.105752 0.45611063 3.3523898 5
-9.5821714 2.2369123 3.3613131 11.041
-8.5483093 2.29899 3.3523679 12.05175
-7.7924919 2.4143202 3.3452475 13.55175
-7.2762675 2.432008 3.3717203 14.052
-6.9275908 2.4663227 3.391573 15.0445
-6.3743076 2.4674165 3.3430665 15.04375
-6.1422977 2.4868755 3.3709753 16.042999
-6.0383224 2.5025742 3.3471379 16.544876
-5.7876244 2.544704 3.3486376 17.045
-5.6855259 2.5591583 3.3898399 17.043499
-5.4099779 2.5923569 3.3673828 17.045
-4.7002902 2.5856571 3.3401709 19.0445
-4.5080171 2.6397524 3.3761098 21.046249
-4.2883368 2.6338763 3.3382115 20.046749
-3.3378825 2.6821556 3.30581 23.049
1.7913357 2.6988459 3.3950307 22.583124
2.8500366 2.9426737 3.36568 22.926834
3.1031475 2.9287384 3.3943224 23.09675
3.268496 2.9378452 3.3498249 21.495001
3.2427526 3.0061736 3.3008471 23.1005
4.8945165 3.1527164 3.387403 18.442335
3.7709277 3.2246363 3.3945861 21.620251
5.8532557 3.2505908 3.3505535 16.121
6.3154883 3.2780387 3.3821528 15.121
7.036119 3.3017356 3.3349221 14.12125
-5.3158646 -0.2155551 3.4357843 2
-2.0046782 -0.12871203 3.4091771 1
-1.7411227 -0.16495803 3.4636889 1
-0.88765264 -0.11972427 3.4708271 0
-0.33961588 -0.10093158 3.4319184 0
-12.044718 -0.081915587 3.4390855 4
-1.1824547 -0.065287739 3.4305196 1.5
-0.61523682 -0.03835997 3.4108887 1
-12.225227 0.88101614 3.4737892 6
-6.0117583 2.5192039 3.4510233 15.7945
-5.6689925 2.5459943 3.4571285 18.05275
-5.2916188 2.5781541 3.401001 18.044001
-4.2261572 2.6885169 3.470861 23.053627
-3.0728216 2.6894979 3.4543843 22.719332
-4.010046 2.7153168 3.41326 22.046
-2.9303555 2.7163305 3.4059246 23.052999
-1.7557487 2.7018797 3.4173863 22.632502
-1.3857105 2.7213557 3.4703627 23.06325
3.6730595 3.0088594 3.4308798 20.847
3.834125 3.0876479 3.4494944 21.434334
3.9112442 3.0786359 3.4493535 21.10775
4.2721519 3.0812948 3.4212489 20.10825
7.1557479 3.0359702 3.4644685 13.1045
10.792886 3.0632181 3.4806888 10.106
4.4320002 3.190264 3.4334493 19.120251
7.4713178 3.160147 3.4767513 13.11
7.7597623 3.2723365 3.4489453 13.121
13.760132 3.3799949 3.4182587 8.1114998
12.713045 3.4033654 3.4354167 9.1215
-2.9022374 -0.24576592 3.5865295 1
-1.0151724 -0.20223053 3.5188274 1
-12.178139 -0.10104176 3.5092821 4
-0.088422239 -0.10858443 3.545862 0
0.08355125 -0.10253182 3.5505922 0
-0.10662183 -0.063088685 3.5456624 1
0.076139718 -0.061228245 3.5316715 1
0.50564802 -0.057701558 3.5577519 1
0.92664909 -0.054671735 3.5046394 0
-12.122333 0.41794768 3.5386734 5
-5.7028971 0.68912375 3.5720615 8.0474997
-12.125312 0.83994997 3.5490446 6
-12.271442 1.4337574 3.5238075 8.052
-10.621688 2.0257747 3.5599284 10.052
-10.096878 2.1006827 3.5168457 11.052
-9.3092318 2.2575288 3.5340471 11.5415
-9.2074385 2.2047706 3.509944 12.044
-7.3363409 2.3224413 3.5768642 14.045
-7.140048 2.3608096 3.5697482 14.55275
-6.5888567 2.3612542 3.597517 15.2955
-6.0944624 2.4116571 3.5547423 16.453098
-5.4537845 2.5462365 3.5153539 17.0455
-4.4820333 2.552803 3.5185935 20.04575
-3.6413996 2.5427852 3.5717306 20.05175
-4.7084508 2.6116464 3.5588663 20.853802
-4.0579185 2.6336713 3.563535 20.381666
-3.5869291 2.6590419 3.5418103 23.04775
-3.3579457 2.6555264 3.5016949 22.716667
0.47425294 2.6806529 3.5870976 23.075001
0.98849624 2.6925802 3.537586 23.078251
2.1197031 2.6637554 3.5946448 21.084249
1.368022 2.7107406 3.522778 23.0805
2.59462 2.8294091 3.5452328 22.0895
3.2394977 2.9691873 3.5686469 23.099001
3.62409 2.9706235 3.5575132 21.766668
5.2012124 2.9620678 3.519769 17.1085
5.8929534 2.9500334 3.5114942 15.101501
3.7256129 3.0032043 3.5954053 21.1
6.5382586 3.0689554 3.5052218 15.104
11.631633 3.0530753 3.5999925 9.1059999
3.3436635 3.1336579 3.5806198 23.118834
5.2850208 3.1763093 3.5010192 17.120251
5.3267827 3.17957 3.5644913 17.120001
6.0788398 3.1918752 3.568203 15.620251
9.3753071 3.3294907 3.5440691 11.121
-5.8438158 -0.44831559 3.6780028 2
-2.8093996 -0.29382148 3.697087 1
-6.5566506 -0.16234383 3.6037343 3
-1.5223639 -0.1122674 3.6942372 1.5
-1.2458977 -0.15750858 3.6219568 1
-1.0823851 -0.16582015 3.6788855 1
-0.71617764 -0.11349651 3.6179669 1
-0.36035269 -0.14454868 3.6297023 0
-0.049500402 -0.13287 3.6630292 0
-1.1502119 -0.086328089 3.6880715 1.3333334
-0.38753885 -0.030796081 3.6981409 1.6666666
-0.11562894 -0.046287179 3.6965909 1
1.8761873 0.050334036 3.6689172 1
-12.099696 0.3419477 3.6759734 5
-12.649827 0.58132827 3.6534421 5
-12.142517 0.77180731 3.6741629 6
-5.1795521 0.72868443 3.6772494 8.0485001
5.2125034 1.2163984 3.6387005 8.1064997
-12.271177 1.3371704 3.6691084 7.25
-4.8388767 1.9958416 3.6432443 17.04775
-10.24509 2.0954037 3.6725976 10.0415
-9.1706476 2.1638236 3.6802602 12.0525
-8.2278891 2.2214375 3.65766 13.05275
-6.4398918 2.378387 3.6562564 15.04375
-6.0643644 2.4267507 3.6895847 16.712831
-4.3548751 2.553123 3.6905937 20.046749
-3.0809283 2.5582414 3.6200905 21.053875
-3.4223182 2.6421857 3.6806028 23.049
3.1768754 2.8984132 3.6779888 21.09325
5.5627289 2.9808125 3.6985397 16.352375
4.0584722 3.0308261 3.6834543 20.706699
4.4843936 3.0708976 3.630167 19.1075
5.807014 3.0834458 3.6702666 16.1085
9.9280195 3.0818648 3.6119354 10.1055
4.5394588 3.1523061 3.6143327 19.119499
6.2186441 3.1922252 3.6666152 15.12
7.003787 3.1979549 3.6413772 14.12025
-4.8760285 -0.24045041 3.7347221 3
-4.2554293 -0.20342234 3.7053699 3
-3.7667229 -0.23263243 3.7761092 2
-3.5308576 -0.203899 3.7729058 3
-1.7484941 -0.2341406 3.7749929 1
-1.6005201 -0.14981064 3.740428 1.75
-1.2112322 -0.13306341 3.7634344 1.5
-0.18690549 -0.15003262 3.744453 1
-4.3072343 -0.08044982 3.7322302 4
-3.9446795 -0.085374862 3.7870073 4
-0.62948823 -0.015542686 3.7105079 2
-4.3964086 0.061536223 3.7555587 3.5
-5.3245859 0.12496094 3.774647 4
-4.4520645 0.23493019 3.717607 6
-4.5054975 0.40457043 3.7356839 6.8000002
-4.4814968 0.48423257 3.7589178 7
-4.5791101 0.50364697 3.7388873 8
-4.9573727 0.69963324 3.7164626 8.5489998
-12.089988 0.70957768 3.7989931 6
-5.8171048 0.84347653 3.7748539 8.0454998
-6.5084133 0.93784094 3.7380617 8.0445004
-5.3765821 1.1046019 3.7609 11.04825
4.5598822 1.1714046 3.7889547 8.1049995
-5.8259063 1.2173706 3.7266302 11.0475
-9.4005737 1.4956318 3.7951477 9.0532503
-12.200137 1.6856571 3.7689786 8
-6.5352955 1.916832 3.7753856 13.0465
-9.8200665 2.0289011 3.7983515 11.05275
-7.6544895 2.2955644 3.7907622 14.05325
4.9918962 2.3589616 3.7192097 14.107
-6.9835577 2.4450955 3.7837796 14.0445
-6.0330353 2.4480665 3.7259893 15.50325
-5.6882305 2.4941449 3.7855387 16.795
-5.5080838 2.4798923 3.7072749 18.054001
-4.4804101 2.5631607 3.7035818 20.881332
-3.8764734 2.6292081 3.7229755 21.0495
-2.1989605 2.6227517 3.7559605 23.05825
-2.0811045 2.675997 3.7136862 21.060249
-1.0359682 2.6975937 3.7928534 22.315874
-0.5756886 2.6989281 3.7721126 22.668499
2.4727886 2.7990718 3.7974396 22.087999
2.234992 2.8318555 3.7045193 23.08725
2.7273879 2.8884425 3.7557535 22.091251
3.4993899 2.9368677 3.7494898 20.094
5.4943862 2.9151785 3.7887082 16.1
5.6187377 2.9309363 3.7134032 16.1005
7.2229776 2.9919724 3.7362111 13.10375
3.2128696 3.0568907 3.7713413 23.1175
3.6290629 3.0636649 3.7563059 21.993061
5.2532897 3.0665259 3.7954478 17.118999
9.7299519 3.0721321 3.7905917 11.105
14.720473 3.2878451 3.7584963 8.1110001
12.983762 3.3255401 3.7336073 9.1210003
-5.3548636 -0.36148807 3.8097188 2
-2.761492 -0.22565928 3.8719907 2
-2.6182764 -0.22314468 3.8055861 1
-2.5335114 -0.22281799 3.8718228 2
-2.317533 -0.21929069 3.8612831 1.5
-1.5121056 -0.22358766 3.8658397 1
-3.2755878 -0.10101774 3.8969402 3.6666667
-2.4701185 -0.17153677 3.8775446 1
-2.0084095 -0.10385486 3.8954117 1.5
-1.9626551 -0.14758253 3.8477349 2.5
-1.7293147 -0.16134036 3.8375325 1.5
-1.6588975 -0.18950358 3.8524656 2
-1.3884622 -0.12503305 3.896153 3
-0.34273621 -0.15483233 3.8355138 1
0.53163356 -0.19072708 3.8797302 0
-5.105814 -0.05894044 3.8862081 3
-4.7551827 -0.034087092 3.8730304 3
-3.8021219 -0.0087203085 3.8296425 4.5
-3.7955437 -0.012633681 3.8358421 4.5
-3.481879 -0.093943506 3.878469 4.1999998
-1.8327172 -0.040531367 3.8770795 4.3333335
-1.7195231 -0.039902866 3.8608556 4
-1.5615145 -0.0049527586 3.8691912 5
-1.1634393 -0.054470032 3.8936424 4.4000001
0.58808267 -0.096740395 3.8054035 0
1.108104 -0.076377183 3.8770633 0
-3.7464576 0.015763491 3.8505545 4.5
-1.7232955 0.079809666 3.8966408 6
3.0337174 0.024057418 3.8364129 1
-3.7575881 0.15376386 3.8935697 5.5
-3.6601162 0.1564523 3.8987567 4
-4.3376846 0.54086256 3.889071 8.0509996
-4.5601511 0.77322531 3.8245676 9.2857141
-4.488945 0.75880527 3.8799438 9.2504997
2.7293551 0.71470773 3.8839221 8.0997505
2.8888941 0.70843172 3.8340549 8.1005001
-4.6254721 0.81700861 3.8082232 9.5
-4.7191501 1.0372699 3.8555965 11
-4.8278027 1.1342938 3.8701811 12.0495
3.7187672 1.111376 3.8781328 9.1029997
4.163815 1.1448538 3.8834538 9.1040001
-12.180705 1.2354029 3.8202147 7
-4.9943113 1.4003034 3.8685913 13.049
-5.2336073 1.5296228 3.8627133 13.5485
-12.163096 1.687585 3.8506813 9.0524998
3.7902811 1.7987784 3.8673921 14.104
-12.600333 1.8495888 3.8013124 9.0410004
3.9089339 1.857312 3.8365459 14.1045
-4.8198805 2.0043962 3.8001719 17.0485
4.3848701 2.0602779 3.8332849 14.1055
-9.2965488 2.2000568 3.8379242 11.04225
-6.895864 2.2623315 3.8836133 15.054
-6.529798 2.3215864 3.8659749 15.0465
-6.3009505 2.3583183 3.8789437 16.054251
-5.8724551 2.3612769 3.8519816 16.800751
-5.7720275 2.4471958 3.8806558 15.713
-5.0601659 2.5070868 3.8525891 20.055
-4.4155817 2.5393095 3.8663957 21.889166
-3.738287 2.5534544 3.8436131 21.05135
-3.6485388 2.5810704 3.8194594 20.05225
-3.4270725 2.5701742 3.8686793 22.716665
-2.8682227 2.5594935 3.8420129 21.0555
-3.8774948 2.6014831 3.881547 19.05175
-3.684361 2.6168489 3.8513379 21.549877
-2.0139461 2.6223907 3.8518658 23.0595
-1.8095518 2.6854782 3.8111615 21.061834
-1.4541532 2.6880231 3.8284516 21.635071
0.20930478 2.6980832 3.8779991 22.57325
0.62731457 2.673945 3.830116 22.504286
0.9910652 2.6863575 3.8230753 22.077812
1.3805277 2.681885 3.8574324 21.704876
1.7526665 2.6823127 3.8535755 21.140999
3.0985703 2.8786604 3.8487182 21.894501
4.3513594 2.8945243 3.8154631 18.096001
3.5387876 2.9292655 3.8936667 20.762333
3.6088634 2.9214077 3.8933082 21.098251
3.9540226 2.9435377 3.8272915 19.095001
4.6004519 2.9052062 3.8985403 17.096251
4.0466218 3.0332873 3.8908315 20.605751
4.5298443 3.0328522 3.8843527 19.118166
4.6339722 3.0492699 3.8931956 18.61825
5.9560332 3.0843482 3.8750257 15.519099
6.0654569 3.0064955 3.8251302 15.1025
8.223835 3.184639 3.8353395 12.12
9.802702 3.1936231 3.8813503 11.12025
8.1889544 3.204694 3.8581269 13.12
-3.6367495 -0.30561024 3.9226727 2
-3.5316784 -0.26762068 3.9919498 2
-3.2601614 -0.27826959 3.9344635 2
-2.977602 -0.26578361 3.9428916 2
-2.7238977 -0.24742277 3.9383655 2
-1.6390518 -0.28935015 3.9721808 1
0.20604981 -0.20300683 3.9568133 0
-4.3112488 -0.16361317 3.9606853 3
-1.6352022 -0.11560106 3.9580834 2
-0.51924187 -0.13185686 3.9756334 1
0.73785222 -0.19615301 3.9871325 1
-4.244123 -0.063318998 3.9102623 3.5
-3.3098972 -0.00031206012 3.9433146 5
-3.2263048 -0.016596317 3.9352002 4.5
-3.1947513 -0.092851132 3.9248691 4
-2.8463972 -0.061099738 3.9674814 3.5
-2.7740195 -0.066191331 3.9049895 4
-2.4029465 -0.0032908022 3.9504418 5.2727275
-2.3698783 -0.071722627 3.958781 4
-1.3978839 -0.081866115 3.9824746 2
-0.68027186 -0.005397141 3.9412925 5
-0.36223963 -0.052344322 3.9572573 3.75
-0.2793951 -0.045904815 3.9922571 1.5
0.73430204 -0.049930826 3.9442937 2
-3.819844 0.097181737 3.9595695 4
-2.8456762 0.05134207 3.9437158 5.5
-2.4872279 0.014847219 3.9496222 5.5
-2.2181253 0.053804308 3.992528 6
-2.1019938 0.032605261 3.9783273 3.5
-1.5012896 0.041027874 3.9187827 5.8125
-1.3110278 0.082306027 3.930213 6.5
-0.98084748 0.051415056 3.9507298 6.090909
-0.8595897 0.065614462 3.9468009 6
-0.67562103 0.072560191 3.9941115 6.375
-0.45023873 0.086624771 3.9751444 6.4166665
0.19297394 0.052673489 3.9668276 5.25
0.58303201 0.00026601553 3.9636109 4
0.76101255 0.014221311 3.9804144 4
-3.5804756 0.186263 3.923945 6.5
-3.2992291 0.13438293 3.9902148 6
-3.1989686 0.10199484 3.9635134 5
-1.8943228 0.13680008 3.9335279 7
-1.6528203 0.17963475 3.9683859 8.0725002
-1.3467128 0.12691694 3.9673395 7
-1.2677683 0.17921042 3.9799128 8.5762501
-0.47815445 0.1941203 3.9966555 8.5854998
-0.12007812 0.12215644 3.9900188 6.8235292
0.15183696 0.11745435 3.9919677 6.3333335
3.4294338 0.15463105 3.9217329 3
3.5843289 0.16174175 3.901639 3
-3.5423934 0.26970646 3.9804025 7.3333335
-3.3423874 0.27096602 3.9856477 7
-2.3642919 0.28491491 3.9250395 5.5
-1.5134954 0.29432988 3.9865549 10
-3.7413273 0.33681497 3.9493093 7.1428571
-3.6573467 0.39350089 3.9748354 8.0614996
-1.9614186 0.37244904 3.9772122 6
-6.5789542 0.49034384 3.9911399 6
-4.0998755 0.4786773 3.9231114 8.0517502
-3.7519116 0.4708097 3.968998 8.2764997
-3.6194546 0.41416165 3.989888 8.5
-1.4762943 0.50152814 3.9807048 8.0620003
-4.0904856 0.62171149 3.9359593 9.0517502
-0.70655894 0.66347611 3.9924366 10.06775
2.4039443 0.71226168 3.9949961 8.8121433
-6.4324903 0.97578144 3.9524922 8.0459995
-6.1372271 0.98187256 3.9889407 8.0465002
3.2792501 1.0732394 3.9624863 10.1015
-12.16172 1.1783854 3.9511623 7
-4.5410237 1.1525184 3.9423447 12.127889
-4.7393379 1.4198705 3.9414663 13
-4.6108837 1.4004604 3.9721394 13.666667
-4.5211215 1.4138842 3.9991331 14
-5.4002323 1.5974562 3.9608433 13.0465
-5.6334581 1.6260648 3.9409173 12.046
-10.859612 1.8954935 3.9052687 10.05275
-6.3966551 1.8121343 3.9391201 12.045
-6.2661853 1.8795056 3.9612057 12.046
-5.468327 1.9705865 3.9141612 15.048
-9.6349516 2.0570827 3.9576058 11.045
-9.0515966 2.1100435 3.9235818 12.05325
-4.4689636 2.1113327 3.9837735 16.04925
-4.8006563 2.2174504 3.9836609 16.0485
-5.4174852 2.3703923 3.9223833 17.6478
-5.2101016 2.3072276 3.936548 16.047501
-5.4492135 2.4161782 3.9300108 18.455099
-2.6665568 2.4883299 3.9842958 20.556875
-4.1277604 2.5424609 3.918998 20.381666
-3.3294618 2.6020169 3.9187064 21.766357
-3.2184772 2.6207225 3.9306822 20.887499
-2.4868166 2.6812594 3.9372745 22.890581
1.7321044 2.6539984 3.9356563 20.5
2.1906154 2.6789742 3.9226997 20.283699
2.4065876 2.6225066 3.9738564 19.084499
1.7872045 2.7898674 3.9007635 23.084249
4.6023741 2.8750668 3.9071956 17.0945
5.2746553 2.8815758 3.9902532 16.099001
2.7495418 2.9060683 3.9572384 23.092751
3.1896858 2.9013214 3.9038594 22.430418
3.8699434 2.9268262 3.9120276 20.0965
3.9049413 2.9473016 3.9346333 20.105249
5.1861329 2.9263718 3.9032373 17.107
5.8076367 2.9058044 3.9190321 15.099999
5.6202841 3.0199032 3.9627137 16.10725
12.170817 3.010468 3.9620636 9.1055002
11.861743 3.2967093 3.9387856 10.1205
13.251746 3.2351224 3.9320049 8.1105003
-0.025947735 -0.2019051 4.0040536 0
0.76665652 -0.21145317 4.0080161 0
-3.2282286 -0.18702215 4.0074754 1.75
-2.4019945 -0.19794756 4.0569572 1.5
-2.1629148 -0.13466728 4.0148764 2
-0.40341401 -0.17523058 4.0000339 1
0.102616 -0.17448963 4.0124431 1
0.33445874 -0.12416598 4.0866337 0
-2.6341646 -0.024819285 4.0282459 5
-2.471498 -0.02558127 4.0010362 4.1999998
-2.2288742 -0.048961461 4.0750332 3
-1.7321167 -0.033834144 4.0263066 3
-0.80339265 -0.071586192 4.0064611 2
0.22458765 -0.078723043 4.0465155 3
1.1424881 -0.044634014 4.0806808 1
-3.9740508 0.047391146 4.055357 4
-2.3472495 0.023415387 4.0063443 3.6666667
-2.1637652 0.019069314 4.0124373 5.5
-2.0921907 0.023000449 4.0869856 5
-1.5654459 0.076266825 4.0530438 4.3333335
-1.4337335 0.070122927 4.043467 4
-1.2319136 0.022568181 4.0646758 3
-0.89855039 0.076501146 4.0532694 4.5
-0.14629725 0.073877931 4.0168357 6
0.4561508 0.053846687 4.0041256 5.1428571
0.76775873 0.096426904 4.0242472 5
1.2805995 0.066966981 4.0436969 4
4.3378448 0.077292651 4.0143399 1
-4.5301638 0.19173039 4.0926232 4
-3.3043141 0.19415817 4.0049567 6.5
-3.2842357 0.18462317 4.0060215 4.3333335
-3.1237421 0.17143914 4.0218401 6
-2.6814663 0.19410923 4.0056877 7
-2.1570718 0.12210259 4.0738645 6
-1.2228289 0.10717784 4.0892854 4.5999999
-1.0124375 0.16921331 4.058948 4.5
-0.95054746 0.17404398 4.0033898 8.413166
-0.70186055 0.18257664 4.0158429 8.5827503
0.087985724 0.13214067 4.0317116 7
-2.9847124 0.22998181 4.0279937 7.5
-2.8514118 0.2675488 4.0195875 7.3333335
-2.7194142 0.2554656 4.0178628 7
-2.5430396 0.25832263 4.0311465 8
-2.3558559 0.25857487 4.043293 8
-0.10947576 0.20724005 4.0200758 8.0900002
0.1767247 0.23104915 4.0262861 8.4266672
0.41267273 0.23913248 4.0349631 8.2979498
-4.9484725 0.39023575 4.0960717 6
-3.2546756 0.3632997 4.0458007 8.3888931
-3.1719553 0.36071917 4.037694 8
-2.6804912 0.34998396 4.0611353 9.5
-2.387073 0.32358554 4.0827923 8.7777777
-2.2194934 0.36158296 4.0796351 10
-2.1931853 0.32055923 4.0666571 9.5
-1.8491273 0.33890149 4.0138483 9.9330711
-1.7742313 0.36979598 4.0959449 7.5
-1.466157 0.36506337 4.066895 9.125
-1.3169032 0.3826842 4.0587001 11
-1.2654803 0.3695361 4.0513668 11.28825
-0.99539256 0.39629552 4.0691218 11.833333
-3.3441675 0.43661609 4.0340319 8.2773752
-2.9448831 0.4058201 4.0747423 9.5646658
-2.8825629 0.45048079 4.0554819 8.9134998
-2.5729303 0.4254176 4.0816803 10.283188
-1.8124204 0.4808774 4.0859203 9
-1.5528563 0.43346944 4.0676646 12.099344
-1.420853 0.49934807 4.0775433 13
-0.38880721 0.41834342 4.0906339 12.166667
-0.12128654 0.42839628 4.0987062 12.055555
0.092563659 0.4111855 4.0901828 12
-4.3267093 0.57324445 4.0207171 7
-3.2046335 0.58341396 4.0870457 8.0527496
-3.1800702 0.50595438 4.0710416 9
-1.2043459 0.56960475 4.0223908 9.0640001
-4.0552287 0.60076606 4.0908246 7
-3.5282307 0.6087386 4.0507812 8.0515003
2.0934639 0.68671244 4.0710096 9.0959997
-4.340591 0.7345494 4.0404568 8.7158327
-3.9521673 0.77005517 4.0584202 10.0525
-3.8448291 0.83035386 4.0608811 10.55275
-4.0472393 0.91518724 4.0548115 11
-5.5609655 1.0054976 4.0317526 9.0474997
-5.1045585 1.0212258 4.0794477 9.0485001
-4.0392776 1.0404819 4.0836506 12.333333
3.0578449 1.0530779 4.0250273 10.1005
-4.438941 1.1411958 4.0339375 12
-4.243885 1.142177 4.0715504 12.5515
-4.0572729 1.1004106 4.0755186 13
2.5810239 1.2857997 4.066659 14.099
-6.6570539 1.37668 4.0794377 10.046
2.7519646 1.3527453 4.0562811 14.099751
-9.3789291 1.4220154 4.063971 9.0539999
-4.3425736 1.4806645 4.0393329 13
3.2281768 1.4693518 4.012526 13.3016
-11.278432 1.5891354 4.0825295 8.0419998
-4.928473 1.5773776 4.0211554 13.047501
-4.5825343 1.5180069 4.0191293 14.30025
-4.3163381 1.537837 4.0659885 14
3.6254039 1.5551618 4.0053515 12.602751
-4.7855911 1.6731366 4.0839095 13.299
-4.5517588 1.6675338 4.0895762 14.0485
-4.328927 1.7489007 4.0741749 14.05
-2.027607 1.7183362 4.0772667 18.308874
-4.3903298 1.8037291 4.0780625 14.0515
-2.6799433 1.8539284 4.0743332 18.0555
-2.4706004 1.8080822 4.0786543 18.056499
-9.5163898 1.9535618 4.0732317 11.0535
-2.9408343 2.1336336 4.0712624 23.054501
-6.3435726 2.2752421 4.0285378 15.04725
-7.0553775 2.3314524 4.0862417 14.0445
-6.9579968 2.3746295 4.0150309 14.04525
-6.0748663 2.3523774 4.0494738 15.2955
-5.3265314 2.3477049 4.0930443 16.546749
-5.6431403 2.484952 4.0207424 16.047001
-4.3309488 2.4049895 4.0372968 17.0515
-3.9068978 2.4444079 4.0862441 18.052834
-3.9486351 2.5306764 4.0806727 21.0495
-3.0270758 2.5895846 4.0981798 21.0555
-2.8860669 2.5953913 4.0285196 22.654301
-2.280653 2.5107594 4.0873117 21.433937
1.7020152 2.6481247 4.0117846 20
-2.2115114 2.7014616 4.0503807 23.059
2.4275303 2.7980134 4.0533543 21.4869
2.7439177 2.8469355 4.0533886 21.290102
3.6994815 2.8534799 4.0148296 20.437666
3.8060622 2.8745806 4.0478897 19.09375
3.7521975 2.9860687 4.0169387 21.116751
4.7122407 2.9924126 4.0795269 18.1175
5.3106999 2.9476235 4.0459924 16.784666
5.4879422 2.9468212 4.0637021 16.434334
5.8247209 2.9232059 4.0365281 15.351501
5.8109202 3.0030358 4.0933304 16.11825
6.9209528 3.0553446 4.0386024 14.119
11.261438 3.0084357 4.0682535 9.1049995
8.2578917 3.1126251 4.0429163 12.1195
13.219511 3.2163308 4.0325036 9.1204996
-4.1988454 -0.23429191 4.1532955 2
-1.0596459 -0.14720777 4.1448669 2
1.4945688 -0.11463651 4.1845689 1
-4.6022358 -0.084916711 4.1487103 3
-4.0699191 -0.0049690753 4.105844 4
-3.443047 -0.0045897961 4.1330538 4
-2.4846704 -5.8367848e-05 4.1153259 3
-1.462546 -0.065052882 4.1619053 3
1.4046028 -0.013510317 4.1897607 3
1.686854 -0.034097821 4.1783967 1
1.9662564 -0.090811133 4.177577 1
2.2182119 -0.053306818 4.1634231 1
-1.8069658 0.022798717 4.1369467 5.0999999
-1.5618327 0.073989153 4.1480432 3.4000001
-4.2733727 0.12223531 4.1298132 3.75
-4.1228948 0.1251564 4.1683297 4
-3.2397561 0.10608114 4.1172466 5
-2.0525472 0.15422283 4.105485 4
-1.8052154 0.18808453 4.1331024 6
-1.7878731 0.11905539 4.167757 6.5
-0.79573113 0.15691058 4.125124 4.5357141
-0.44259238 0.14292255 4.102953 4.818182
-0.065368801 0.18785377 4.1255903 5.1111112
0.35919267 0.174872 4.1552601 4.6666665
0.53874224 0.11098723 4.1272726 4
0.85755026 0.13747917 4.1637673 4
1.9915869 0.14381826 4.1304131 3
-2.7392752 0.27147421 4.1053457 8.066
-2.3447073 0.22190773 4.1565332 4.6666665
-1.9730564 0.20737717 4.1362662 7
-0.91845131 0.25642446 4.1025143 6
-0.7216149 0.22303155 4.1232986 5
-0.31362197 0.29673576 4.1864729 6
-0.24980979 0.29611176 4.1546717 5.5
-0.16903818 0.28928769 4.1370783 7
0.088634074 0.26021504 4.1163764 6
0.13986298 0.29115462 4.1475687 5
0.27032256 0.29359099 4.160625 6
0.7515136 0.23059855 4.1910701 8.0983334
1.0374259 0.26918134 4.1749115 5
1.1367055 0.21345791 4.1070991 7
1.5899699 0.24222738 4.1676307 4.5
2.8003726 0.28756261 4.1443062 5.3333335
-4.6616502 0.3775031 4.1296916 5
-4.3545084 0.32018477 4.1226978 5
-2.1054089 0.35848156 4.1357617 10.342454
-1.8173676 0.370208 4.1584663 6
-1.4585965 0.3675395 4.1301446 8
-0.49284458 0.35391843 4.1407413 7
0.53961313 0.39003366 4.1022625 10.5
1.1455154 0.37373707 4.1522856 8.75
3.3357258 0.30817208 4.1693497 5
-4.6061935 0.41892207 4.1383429 5.3333335
-4.3951006 0.42247927 4.1519356 5.5
-4.2940392 0.482182 4.1315575 6
-2.5001793 0.40526107 4.1237416 8.7777777
-2.4007442 0.42697123 4.143117 9
-2.2158031 0.44016549 4.1446886 10.342625
-2.0317862 0.42588565 4.1916957 9.333333
-1.6382511 0.4425751 4.1124325 8.4589996
-1.0497594 0.4561305 4.1063185 13.164576
-0.66099834 0.46463823 4.1515989 13.204176
-0.54525173 0.42966223 4.1644969 13
-0.45194474 0.49880797 4.1075349 13.826741
-0.028883249 0.46728683 4.1724238 12.805239
0.16645291 0.4565888 4.116663 12.013333
0.40885457 0.46462271 4.1300735 11.642858
0.98210526 0.45212588 4.164505 10.24357
1.1099825 0.45602214 4.1706944 10
1.2553358 0.48672563 4.1780772 10
1.318331 0.48347515 4.196454 9.7692308
1.5182477 0.40495428 4.1648397 8
1.6209046 0.45395377 4.1744647 8.7016668
2.1721296 0.41604197 4.1714091 7
2.8922811 0.42337793 4.1977086 6.5
-4.6275573 0.52089667 4.1185784 6
-2.8987234 0.56041211 4.1519442 8.5542507
-2.7079298 0.5089606 4.1083322 9.5
-2.5291317 0.56620973 4.1645985 10.72925
-2.3614824 0.56887805 4.111701 9.2565002
-2.0399523 0.54058152 4.1641178 10.216687
-1.4337473 0.53246379 4.1006465 9
-1.2155238 0.51593935 4.1404896 9.3638506
-0.83281136 0.51405221 4.1324091 9.5284233
-0.77611911 0.56124425 4.1597362 15
-0.5441165 0.58868837 4.152503 15
0.18700233 0.52205372 4.1375937 13
0.4387399 0.54912293 4.167654 13.207033
0.53752112 0.58689028 4.1518655 13
-3.7582786 0.63607782 4.1380014 8.0535002
-3.6060414 0.60258746 4.1211672 10.5
-3.5853095 0.65780735 4.1215081 9.5270004
-3.3733704 0.66649497 4.1401906 9.0273752
-3.1557679 0.61304057 4.1321068 10.0555
-3.036571 0.6150527 4.1866274 12
-2.5589609 0.65025496 4.1684742 12
-2.2577848 0.69454455 4.1986694 14
-1.4685389 0.68429387 4.1361446 16
-1.2945015 0.61757922 4.1251936 15
-1.1605295 0.6776346 4.1736374 16
-0.82155287 0.64909565 4.177372 9.4421883
0.096438318 0.63314521 4.1772604 15
0.17415342 0.62288463 4.1769457 14.5
1.9422288 0.6594674 4.139369 9.0948334
-4.6966214 0.75511068 4.1704974 7.5
-4.061944 0.79080009 4.152359 9
-3.9653382 0.77806562 4.1775312 9.3839998
-3.8510385 0.72613597 4.1009698 11.0611
-3.6971877 0.70919788 4.1410961 9.0513334
-3.2784185 0.71584606 4.134315 10.5
-3.0399468 0.71690273 4.1712642 8.3893328
-2.7648487 0.74738103 4.1673503 9.0570002
-2.5069597 0.77640969 4.1308074 9.0579996
-2.1118305 0.73352849 4.1933079 14.783713
-1.9076545 0.76259923 4.1800489 15.785409
-1.8695576 0.75145733 4.1742258 15.5
-1.5833869 0.79115498 4.1839366 16.823526
-1.3985087 0.79589725 4.1895943 17.428572
-1.2946939 0.78526062 4.1763163 17.252411
-0.57435107 0.72088325 4.198431 17
-6.4999352 0.85768706 4.1888237 8.0459995
-4.8338604 0.81746274 4.112546 8.7150002
-4.6362767 0.86221117 4.1699419 8.25
-4.397306 0.87313598 4.1892319 8.2222223
-4.1429224 0.87024862 4.1338491 10
-4.0737519 0.82553792 4.1464596 9.5
-3.621527 0.83198142 4.1570263 12
-2.9549408 0.82532012 4.1592789 12.05625
-0.70821148 0.81405866 4.1530709 10.0675
-4.8070941 0.90866768 4.103404 11.05875
-4.2814236 0.93788719 4.1655588 12.06
-3.6266794 0.94873929 4.1919103 13
-2.3631611 0.90607107 4.1679888 12.306624
-2.2387791 0.91638005 4.1609435 10.434251
-1.9786001 0.90709424 4.1724815 10.5605
-1.7865386 0.90434104 4.1890039 10.561501
-4.9689078 1.0259535 4.1153383 10.048
-4.8031025 1.0864482 4.1678853 9
-4.7722063 1.0337597 4.1028633 9.5492496
-4.3309617 1.0585822 4.1527762 10.0505
-4.0567122 1.051345 4.1678762 11
-3.9538081 1.022141 4.1707196 13.31075
-3.7505596 1.0641916 4.1426082 12.6532
-2.5120647 1.0752105 4.1410007 11.058
-4.9763775 1.1420711 4.1853781 12.0585
-4.7722178 1.1278858 4.1483521 10
-3.8237429 1.1025625 4.1565218 13.053
-0.65196908 1.1854197 4.1691856 15.0685
2.3657916 1.1183903 4.1675968 12.525929
2.7994249 1.1202524 4.1101432 11.670785
-4.7105355 1.2306974 4.1937914 10.142858
-2.4925578 1.2860023 4.1990752 15.056
3.0965235 1.2991461 4.1183953 12.1005
-5.4791336 1.3324478 4.1569347 10.048
-5.2441196 1.3233045 4.1802444 11.0485
-4.4496665 1.3834137 4.1029568 14
-4.0535927 1.3756077 4.172286 14.55225
-2.4652388 1.3914175 4.1875229 16
-1.5261196 1.5073034 4.1001482 18.062
-5.1042681 1.6819723 4.1217942 13.0485
-4.3552384 1.6369143 4.1179667 15
-4.152081 1.6009644 4.1954937 14.449901
-2.3937194 1.6787969 4.1769161 16.890669
-4.2294564 1.7583057 4.1417685 14.0505
-4.1862364 1.7117261 4.1370516 13.55225
-5.6547942 1.8798988 4.1246777 13.0475
-9.807374 1.9662948 4.1942072 11.0455
-4.0737824 1.9313684 4.1935086 17.049999
-3.2226138 1.9925965 4.1282959 18.053499
-2.9575307 1.9725261 4.1798177 18.05475
-2.5533075 1.9125736 4.1891518 17.058001
-6.2326198 2.0915332 4.1169605 13.0465
-7.8989391 2.1376638 4.11765 13.05425
-4.3341403 2.1267259 4.1486206 16.383501
-6.5588903 2.252049 4.1557331 15.721833
-5.0558944 2.2021937 4.1382871 16.047501
-4.6286163 2.2123687 4.1713753 18.550251
-4.4721766 2.2405348 4.1713409 18.04875
2.8726428 2.246109 4.1695824 20.10075
-5.726335 2.3823643 4.12991 16.046249
-5.1019101 2.3511038 4.1405201 19.056499
-4.9401817 2.3754311 4.1035972 18.54925
-5.3385415 2.4688101 4.152503 16.048
-4.5662017 2.4530239 4.1120305 21.056999
-4.2197208 2.4533117 4.1348677 22.057751
-4.1419859 2.4899459 4.1161523 21.300751
-3.6180778 2.4541039 4.1272626 18.720499
-2.4451952 2.4997423 4.1228676 23.056749
3.1206329 2.4123993 4.1123953 20.101999
3.5370016 2.4373941 4.1768985 19.102751
-3.9532459 2.538959 4.1237659 19.051001
-3.1711154 2.5085204 4.1147289 19.722
-1.875512 2.5286548 4.1664805 22.061144
-1.5724558 2.56178 4.1379523 22.662701
-2.1746781 2.6301582 4.1482482 19.310875
-1.3910928 2.67119 4.1539974 20.350285
-0.9829247 2.6791186 4.183331 20.866699
-0.62852013 2.668431 4.1961617 20.73525
-0.24383022 2.685569 4.1934676 21.270649
2.2245622 2.6358492 4.1647959 19.33325
1.3981515 2.7424653 4.1899152 22.881298
1.6584953 2.7743649 4.1319561 22.682901
2.0793197 2.7890213 4.1565557 21.862778
3.505115 2.7030385 4.1825123 20.436333
1.9221985 2.8307266 4.1383352 22.886099
2.5332344 2.8299603 4.1932149 21.088749
2.950103 2.8071797 4.1445508 20.088749
3.1843338 2.8382726 4.1852465 21.0933
3.2392607 2.8335528 4.1531992 21.01375
3.3263206 2.8226168 4.1863966 19.09
3.7051933 2.8378596 4.1672015 18.093
4.32864 2.8730052 4.1495566 17.094749
4.5767016 2.8444042 4.1987977 16.5935
4.821352 2.8587835 4.1610489 16.09425
4.3607302 2.9178865 4.1471524 19.105
4.4721951 2.9254494 4.1579342 18.099001
4.5049915 2.9294696 4.1246767 19.117001
4.6516881 2.9146352 4.1594362 18.117001
4.7473593 2.9538374 4.1025076 18.099751
12.882422 3.1405506 4.1764116 9.1099997
-3.1292217 -0.30200833 4.2552929 1
-3.5652776 -0.21051371 4.2449017 1.5
-3.1544137 -0.17765751 4.2757955 1.5
-2.7257934 -0.15399551 4.2658834 1.5
-2.3545372 -0.13395822 4.2247996 1.4
-1.9712735 -0.10564715 4.2429485 1.5
-0.40674421 -0.10047266 4.2684326 1.25
0.56055474 -0.15138218 4.2701812 0
1.4245398 -0.11677882 4.2543511 1
-2.2860594 -0.074356407 4.2933712 2
-1.6526198 -0.031827748 4.2994008 2
-1.337642 -0.041579127 4.203989 4
-1.0308639 -0.007925421 4.2993112 2
-0.93862629 -0.035804957 4.2895212 4
-0.84998757 -0.070791125 4.2896957 4
0.64675999 -0.046820313 4.2519879 1
-2.585284 0.00058093667 4.2200885 3
-1.9936413 0.090234265 4.2773099 3.5
-1.4194055 0.075066239 4.2266011 5.5
-1.372378 0.019069642 4.2234597 4.8333335
-3.7425694 0.14560926 4.2425656 4
-3.5986252 0.16640213 4.2622733 4
-3.1636031 0.17158639 4.2922497 4
-2.7515378 0.1303409 4.2855949 3.7142856
-2.3372099 0.13291241 4.2622676 3.75
3.4762492 0.18321776 4.2366676 3
-3.7617712 0.25835162 4.2762609 5
-3.3372331 0.23358418 4.2513099 5
-2.6226118 0.26332548 4.2487373 5
-2.1911964 0.25203851 4.2609181 5
-2.0447099 0.22778928 4.2894802 5
-1.4384481 0.22182009 4.2634869 7
0.20907612 0.28463262 4.261857 5
1.124402 0.24373657 4.2201829 4.8000002
-4.1653075 0.3075273 4.2011395 5
-2.6408527 0.38889533 4.2677026 6
-1.7805555 0.3788524 4.2597156 9.1744995
0.013699926 0.38366401 4.2260065 6.3333335
0.58167034 0.36155844 4.2723351 5.6666665
-3.756484 0.43713146 4.2509894 6
-3.5673168 0.46565208 4.2976265 6
-2.2217498 0.4713425 4.2964382 6.5
-1.8485205 0.42374322 4.2487502 9.5
-1.7690095 0.44167241 4.2636075 10
-1.0473868 0.4057866 4.2880473 10
0.24344902 0.45392716 4.2553544 9.5466871
0.76589 0.45649761 4.2152081 11.098716
0.82982671 0.41302896 4.2440042 6
1.3242166 0.45719397 4.2691846 9.8803329
1.4939216 0.42345116 4.2781353 7
1.6168114 0.49339631 4.2223568 9.5
1.9162288 0.48722363 4.2557459 6.6666665
-4.1574488 0.53667665 4.212028 6
-2.0705357 0.51880372 4.2400103 10
-1.0282049 0.51189172 4.2648234 11.5
-0.94903141 0.55939972 4.2516823 7.5
-0.4612031 0.57098937 4.2088985 10.270167
1.0846722 0.53547263 4.2430553 8.916667
1.1903023 0.55117416 4.2279954 11
1.4691533 0.59535325 4.2610321 11
1.819837 0.58921313 4.2453251 9.8999996
1.9174744 0.53256422 4.2461958 9.1061115
2.2221098 0.5585869 4.2435269 7.75
2.3685713 0.50547963 4.2045064 8
2.418695 0.5748753 4.239821 9
2.8836777 0.57098645 4.239882 7.5
-2.6595113 0.67649877 4.2679343 10.283251
-2.4603317 0.62407535 4.2575145 9.3528337
-2.2571752 0.67079949 4.2126131 13.5
-2.0587115 0.6300863 4.2446542 12
-1.2214478 0.66704762 4.2732916 16.077499
-1.1889323 0.61395156 4.2494164 8.8980837
-0.4145059 0.65875638 4.2595162 9.434001
0.61766887 0.64759606 4.2978015 8.0757504
1.4956799 0.62764072 4.2695913 9.9804449
1.6293288 0.63960373 4.2779083 11
2.1832292 0.60919785 4.2395282 9
2.6354005 0.64582694 4.2550573 8.7758331
-3.4649563 0.70321858 4.2119985 11.6629
-3.2803421 0.73798025 4.2929416 12.064
-3.011348 0.7244091 4.211482 13
-2.9586115 0.71212542 4.2091265 12.782389
-2.8583186 0.78189439 4.2360711 10.4547
-2.572109 0.74896193 4.203887 13.162451
-2.4114857 0.73270583 4.2103376 14
-2.1378093 0.78894448 4.2519636 13.060833
-1.0447544 0.76928639 4.2292471 17.597704
-0.20712522 0.76273 4.2000008 17.5
0.080856174 0.72743905 4.2068596 16
0.49527702 0.75346291 4.2338924 10.277399
1.5925473 0.78765035 4.294333 13
1.6149017 0.71729589 4.2963028 12
1.7637581 0.78248197 4.2670178 12
-6.2052646 0.86309832 4.229888 8.0465002
-5.6298046 0.88681078 4.2823391 9.0474997
-3.945358 0.83198684 4.2447834 10.051
-3.2803168 0.80782759 4.2214851 11.724916
-2.9956157 0.88261402 4.2512145 14
-2.4030824 0.82076097 4.24476 15
-1.8049244 0.86255729 4.2365999 17
-1.6365174 0.8437947 4.2938294 11.062
-1.46131 0.89472747 4.2022905 18.5
-1.1102422 0.86574996 4.2407155 19
-1.0105138 0.80921769 4.2181511 18.1875
-0.70153129 0.85415155 4.2590113 19.241077
-0.67360556 0.80516887 4.2290497 18.5
-0.51089191 0.87764466 4.246994 19.333334
-0.46868381 0.82058096 4.2001824 18.752636
-0.25413844 0.87553978 4.2544527 19
-0.1208097 0.83289385 4.235116 18.318268
0.38033441 0.86525846 4.2882481 17.686455
-1.7797974 0.95494223 4.2492647 18
-1.347672 0.91983825 4.2203617 14.844343
-1.0241162 0.95807183 4.2493143 11.190813
-0.012575589 0.99398351 4.2754903 12.806899
0.097188383 0.91811579 4.2778521 19
0.34901622 0.91677415 4.254971 11.965221
1.9381533 0.9709388 4.2684851 12.539055
2.1915927 0.95277429 4.2454143 12.096
-3.6476865 1.069066 4.2437196 12.05175
-3.5304258 1.038183 4.2716427 14.2625
-3.2126663 1.0800469 4.2570314 12.05325
-2.9531155 1.0804894 4.2528005 13.05425
-2.8451664 1.0780567 4.2059512 14.8567
-2.4200726 1.0227525 4.2798843 11.4577
-2.0493097 1.0049169 4.2526126 12.68763
-1.9134592 1.0805547 4.2918711 19.570917
-1.8141874 1.0738071 4.2896891 19.666666
-1.6297915 1.0177062 4.2150307 14.461101
-1.4331884 1.0048336 4.2361917 20
-1.3182882 1.0233933 4.2480927 18.604437
-1.0137419 1.0198944 4.2794924 21.333334
-0.93998909 1.0468433 4.2934093 22
-0.8532421 1.0320276 4.2521954 15.209856
-0.46388835 1.0850164 4.2830887 15.927501
-0.27165958 1.0350245 4.2744365 21.5
2.1222148 1.0973251 4.2167253 13.096
-3.6937122 1.1236713 4.2946348 11.05275
-3.3516273 1.1028204 4.2471094 12.411465
-0.4109078 1.1121337 4.2059441 14.499
-4.5091 1.2058556 4.2052746 10.5
-4.4023085 1.2701476 4.2362719 10.6
-4.2820382 1.2812304 4.2346382 11
-4.0930443 1.2064565 4.2470503 11.251399
-3.0157874 1.2373686 4.2256317 12.05625
-4.7649255 1.3053824 4.2357945 12.554251
-4.4128919 1.3495594 4.214211 11.450399
-1.815838 1.3717642 4.2391233 17
-1.2427143 1.3556881 4.2701149 17.171347
-1.1858404 1.3712711 4.2847157 18.5
-0.83068836 1.3087834 4.2958188 15.9674
-4.871911 1.4888942 4.2097077 11.0505
-4.7654991 1.4561896 4.2000265 11
-4.3619823 1.4466313 4.2326651 15.0595
-4.2246094 1.4938326 4.2910128 16.559999
-3.6839876 1.4646388 4.2230945 15.219083
-3.4898992 1.4239379 4.2041755 13.0545
-3.3186457 1.4928502 4.2638154 15.05275
-2.95767 1.4235646 4.2726212 17.05625
-2.4509718 1.4000713 4.2010207 16
-2.0442863 1.4238088 4.2420788 17.629929
-1.7903214 1.4163711 4.2196722 17.75
-1.6812823 1.4071825 4.2726874 17.860901
-4.762259 1.5058753 4.2060342 12
-4.2590337 1.5325534 4.2463899 12
-3.7435091 1.5269142 4.2032599 13.05375
-3.6450636 1.5330371 4.2361507 15
-2.8891835 1.586218 4.2814889 16.929438
-2.4587512 1.5783345 4.2394271 17.574278
-1.7752383 1.5287571 4.2324076 19
-1.1787422 1.5704687 4.2578754 20
-4.6906104 1.6234393 4.2366986 12.5
-4.4292779 1.6565497 4.2719707 12.833334
-3.6630936 1.646327 4.2541418 16
-2.8680444 1.6486051 4.2516584 16.0555
-1.259446 1.6697031 4.2834377 18.6644
-10.992781 1.7710077 4.2357769 10.0535
-4.8131914 1.704303 4.2485833 13
-3.6310432 1.7225361 4.2139902 15.0525
-3.3895988 1.7101641 4.2654562 15.0535
-2.013679 1.7220771 4.2361908 18.150454
-1.6614919 1.749743 4.2673187 19.940125
-0.26992446 1.7911714 4.2746444 17.626167
0.11220965 1.7202481 4.2930813 17.073
-3.6492157 1.8275261 4.2720833 17
-2.1176314 1.8460324 4.2035956 17.059999
-1.9818161 1.8779043 4.2983513 21.059
-0.62855196 1.8085761 4.24226 18.068335
-9.3274479 1.9110093 4.2102709 11.054
-4.7885542 1.9776762 4.2346807 14
-2.4791687 1.9265006 4.2741098 20.3895
-1.0980012 1.9888992 4.2285352 19.0655
2.3204052 1.9074429 4.2395358 19.347876
-4.8997726 2.0022063 4.25141 14.0505
-4.7182794 2.0613689 4.2610106 14.5
-4.5067158 2.0371871 4.2508659 15.55025
-4.4556437 2.0378509 4.2793283 14.5
-4.2940927 2.0133708 4.2821331 14.5
-4.1947117 2.0021858 4.2290063 15.0525
-2.2332873 2.0708013 4.212326 18.5595
-1.5620625 2.0172229 4.2839336 21.312376
-4.8331766 2.1386113 4.2434025 15.524125
-2.4997649 2.1009853 4.2586021 19.932062
-1.4179199 2.1671948 4.2455482 20.063749
-5.7325301 2.2912025 4.2337542 17.4562
-4.3032675 2.2895393 4.2902718 17.050751
-2.3281915 2.2588904 4.2169018 19
-2.2735484 2.2685456 4.2396674 19.25
-1.9505787 2.2767203 4.2516451 20.030375
-1.8931928 2.2811265 4.2632937 20
-4.3301673 2.3095703 4.2925615 16
-4.753056 2.4462304 4.2073169 16.384001
-4.4297605 2.4625335 4.2377663 17.051571
-4.0907426 2.4255588 4.2683482 23.05875
-3.4044068 2.4958072 4.2828398 21.766357
-4.0499134 2.5419562 4.2388911 18.052601
-3.7126026 2.5228596 4.2444029 20.451576
-1.9136091 2.5471735 4.2493639 21.5
-1.8990424 2.5163825 4.2516756 21.333334
-1.8260077 2.6549048 4.2179737 19.662601
-1.1287491 2.6415019 4.2327127 23.0655
0.22867532 2.6570547 4.2591143 20.7875
0.57179338 2.6481028 4.2096081 20.875099
0.70171607 2.6961801 4.2657638 23.077
0.99016058 2.6431036 4.2374334 20.57725
1.4408667 2.6431389 4.2054248 20.24625
1.8145982 2.6491439 4.2314653 19.4813
1.0929692 2.7508879 4.219996 23.0795
1.5553875 2.8154812 4.2459855 23.08375
2.7901731 2.8193424 4.2695904 21.341499
2.9224181 2.8477316 4.2989817 23.101
3.496943 2.8563547 4.2984838 20.762751
3.5070467 2.8295462 4.2384539 19.694099
3.7271116 2.8714845 4.2911439 21.11525
3.8251288 2.8882241 4.2972655 19.763666
3.9270861 2.8940902 4.233068 18.762001
4.9275875 2.8538225 4.2377315 16.095751
5.0201159 2.8236749 4.2195177 16.09775
5.1223755 2.8503489 4.2388992 16.350876
5.2499585 2.8862948 4.2892942 16.867001
5.387063 2.8773694 4.2895279 15.0965
3.1288643 2.916573 4.2439446 23.101999
4.2289705 2.9173741 4.224546 19.098249
6.9154391 2.9461529 4.201129 13.774167
8.6276131 2.9819951 4.2976069 11.603251
8.4520779 3.0244005 4.2711592 12.113625
9.9320593 3.0666728 4.2205029 11.1195
12.794601 3.1425281 4.2688184 9.1199999
-0.55069685 -0.24962768 4.3210187 1
-0.10074602 -0.24602118 4.3932347 1
-2.1201789 -0.19170719 4.3887968 2
-1.573065 -0.151995 4.337925 1
-1.0870599 -0.1529732 4.3026175 1
-0.53658301 -0.10554308 4.3142285 3
-0.1244034 -0.1176393 4.3586426 0
-2.2736609 -0.078467876 4.3731146 4
-2.0023558 -0.098192602 4.3176432 2
-1.1599437 -0.0018793046 4.3351669 2
-0.90740472 -0.0045794547 4.3112106 4.7692308
-0.74476933 -0.048780799 4.3422298 2
-0.53675032 -0.027359337 4.3744812 4.4000001
-0.27106079 -0.058325112 4.3545942 1.2
1.8444619 -0.073808819 4.3433714 1
-3.0314217 0.092136957 4.3301606 4
-2.0448651 0.045113027 4.3440332 4
-0.37241393 0.071752697 4.3919911 6
0.43849015 0.06674549 4.3889461 5
0.75244439 0.096053988 4.3879209 5
-3.3910203 0.10917228 4.3702726 4.5
-2.8330607 0.16368298 4.3335071 4
-2.4074209 0.15329862 4.373179 5
-2.2380264 0.12577784 4.3911247 4
-1.5460396 0.10019013 4.3061872 3.2222223
-1.3452628 0.1059627 4.3666434 3
-1.1611637 0.18842866 4.3446722 4
-0.9781478 0.17460023 4.3009353 4
-0.67215991 0.14811939 4.3662305 7
0.041016549 0.12101188 4.3147197 8.0909996
1.0613197 0.15200782 4.3931007 5.3333335
-2.2289453 0.26399463 4.3288713 5
-2.1769772 0.28124511 4.3390288 5.666667
-1.4730463 0.23645402 4.3103704 5
-0.68806273 0.26251665 4.3893342 5
-0.26075518 0.22087148 4.3359547 5
2.2574203 0.24993829 4.389998 4
-2.92712 0.3522805 4.3125567 5
-1.324581 0.39765355 4.3117228 9.852643
-1.2696667 0.37816593 4.333272 9.3999996
-0.95664132 0.36510882 4.3784862 9.5316925
-0.27543405 0.32238007 4.3829379 5
1.6376582 0.3808957 4.352797 8.4371672
-3.386801 0.49183232 4.3048129 6
-3.2175033 0.44564432 4.3328953 6.5
-1.6492773 0.43284619 4.3438387 7
-1.5601671 0.45022142 4.3383808 8.75
-1.332779 0.45618069 4.3630071 6
-0.94183904 0.42265704 4.3728929 10.142858
0.46991161 0.49930483 4.3010178 7
1.9241024 0.4475832 4.364543 5
-3.2248974 0.53959018 4.3360453 6.8000002
-2.8858707 0.56187671 4.3279958 7
-2.7571511 0.51754081 4.3236518 6.7142859
-2.3441312 0.56929648 4.3017006 7.2857141
-0.79458487 0.59262222 4.3809299 7.6666665
-0.23483016 0.50449497 4.3109646 9.0721664
-0.18887353 0.51052934 4.396502 7
1.265187 0.56548584 4.3133516 10.08975
1.3863205 0.53057969 4.3152065 6.3333335
1.7722241 0.58807182 4.3304777 6.5
-1.9628052 0.62685645 4.3319798 7.75
-1.7294039 0.63096416 4.3228264 12
-1.6430508 0.64139748 4.3370194 10
-1.5642326 0.63693219 4.3542199 8
-1.2766459 0.62441391 4.3381143 8
-1.1883777 0.6118995 4.3723416 7.7777777
-0.75551653 0.68027079 4.3469725 8.6681004
-0.070028327 0.69841647 4.3205462 9.7653456
0.81350565 0.6868915 4.3135781 9.0795002
0.99495548 0.6421333 4.3016152 8.0780001
1.0639184 0.62143338 4.386724 11
1.3157219 0.69265032 4.3693671 11.09
1.5032041 0.65193141 4.378449 9.2282133
-4.1742544 0.74627042 4.3370004 7.5
-3.7651503 0.7719065 4.3009825 8
-2.8596702 0.79892671 4.395472 9
-1.720541 0.77233982 4.3702183 13.609501
-1.5712056 0.73678476 4.3739333 13.25
-1.3713239 0.75443053 4.381021 13.912847
0.13316968 0.70241112 4.3978863 8.6978121
0.84158075 0.77568674 4.3618135 11.081
1.1196532 0.75933409 4.3959055 10.832875
1.2535666 0.77201581 4.3562531 10.686075
1.3959993 0.71253097 4.321188 8.0802498
1.7768183 0.76190388 4.3328032 8.0822506
2.1799896 0.78081703 4.3178329 8.0842495
2.3336582 0.71002775 4.3877983 8.5184288
2.7334149 0.71780837 4.3555684 8.0917501
3.0119896 0.77431977 4.367631 8.0927505
-4.0286989 0.82162851 4.3127027 8.5530005
-3.9906585 0.85192746 4.3100343 8.6000004
-3.594259 0.89644939 4.3388791 9
-3.4686406 0.8107124 4.3770499 8
-3.1561475 0.88951129 4.3724155 9.2857141
-3.0174689 0.84655637 4.3402877 9
-2.6759343 0.88826591 4.3069654 10
-0.8198567 0.88106495 4.3976154 10.401166
-0.11142857 0.87476385 4.3066063 13.255181
0.24293897 0.85150325 4.3966026 17.59375
0.35885751 0.86097825 4.3478098 12.713635
0.75956261 0.82111406 4.3478012 15.670142
1.0136639 0.82714272 4.3128476 15.3009
1.2808439 0.84295523 4.3319187 14.388428
1.4982897 0.82718706 4.3173571 13.5
1.5083594 0.89127457 4.3351564 12.791699
1.787501 0.86521459 4.340076 13
1.8816992 0.86790955 4.3457108 12.731062
2.0304651 0.86812305 4.3968415 9.0866671
2.1725543 0.84321189 4.3040514 11.5
2.271389 0.86774707 4.3643999 11.774333
2.3874443 0.84681612 4.3219032 11
2.4434638 0.8441993 4.3342686 11.05425
2.5267184 0.86171561 4.3409233 8.0857506
2.7630138 0.86924183 4.3976841 8.0900002
-5.1742182 0.9019165 4.3374996 9.0485001
-4.7405586 0.92310601 4.3784761 10.0495
-4.1612945 0.90686303 4.34233 9
-3.6469131 0.95008647 4.357182 9
-3.2521372 0.98592085 4.363802 10
-2.7743578 0.94321507 4.3530579 10
-2.3905492 0.90600622 4.3360567 10
-2.2592721 0.9493888 4.3814034 10
0.74916923 0.96329278 4.3797474 12.651134
1.4879866 0.95910883 4.3636446 15
1.6705323 0.91892302 4.3497291 14
2.3810561 0.94572604 4.3479581 12
2.7090566 0.91522145 4.3618951 10.942666
-3.1294839 1.0769689 4.3072057 11.05475
-2.8224614 1.06107 4.3045883 11.556
-2.6827545 1.0674014 4.3394561 11
-2.4743283 1.0838395 4.3257618 17.622944
-2.1346281 1.0696415 4.327086 18.819426
-2.0089719 1.0061136 4.3673582 10.875
-1.8900381 1.0623068 4.3964095 16
-1.5915532 1.0225177 4.3918037 11
-1.198722 1.0747864 4.3992863 12.0655
-0.54259378 1.0163709 4.3463655 11.402111
-0.43353221 1.0529132 4.3080168 22
-0.14311993 1.0681849 4.3204384 21.602539
0.072833687 1.06849 4.3176427 21
0.10941783 1.0813394 4.3125763 21.093
-4.1878381 1.1826918 4.3448949 10
-4.0408444 1.181298 4.3213964 10.053
-3.9491355 1.1973603 4.3829775 10
-3.459779 1.1820261 4.3169899 11
-3.2717109 1.1251673 4.3075671 16.063499
-3.052809 1.1251917 4.3497038 16.264599
-2.7079332 1.1746086 4.3617687 18.066168
-2.6522105 1.1150308 4.3940673 17
-2.5144281 1.134889 4.3041553 15.773001
-2.3707857 1.1677402 4.3401747 16.25
-2.1425409 1.1635674 4.3533559 18.447187
-1.881143 1.164732 4.3895946 17
-1.6099199 1.1304661 4.3231697 21.033579
-1.2745862 1.1107141 4.3630676 22.077
-1.0284504 1.1301851 4.3334084 22.412857
-0.47262475 1.1165985 4.3216386 22.786098
0.42019084 1.1505966 4.3896875 20.919559
-6.7282 1.2507801 4.3324785 10.046
-4.0305119 1.2370276 4.3332553 10.5
-3.7184491 1.2225728 4.3510122 11
-3.5833549 1.2799501 4.3834529 11.5
-3.4450176 1.2646141 4.3710308 11.555
-3.270334 1.2043109 4.3516479 11.5
-2.6316049 1.2187976 4.3806334 16.5
