# .PCD v0.7 - Point Cloud Data file format
VERSION 0.7
FIELDS x y z intensity
SIZE 4 4 4 4
TYPE F F F F
COUNT 1 1 1 1
WIDTH 1121
HEIGHT 1
VIEWPOINT 0 0 0 1 0 0 0
POINTS 1121
DATA ascii
4.7446609 1.7906419 -15.802317 4
-0.43521217 2.8199484 -9.9150639 8.1265001
2.3044977 2.741075 -9.4506388 8.1215
2.4968848 2.7351534 -9.1362858 8.1210003
3.1082621 2.6684451 -8.8110199 8.132
0.5681448 2.7330196 -8.7660275 8.1245003
-0.93119907 2.3341525 -8.1257401 8.1274996
1.9506631 2.6614685 -7.8817825 9.1215
1.4708619 2.6704476 -7.3924799 9.1222496
0.19014212 2.6809862 -7.1042728 9.125
0.52620697 2.6778369 -7.0816555 9.6242504
0.9587431 2.6535487 -7.0771918 9.12325
-0.25794795 2.6958449 -6.5024462 10.126
0.14565799 2.6716213 -6.658 10.125
-1.0153539 2.7189646 -6.2378683 10.2945
-0.57165384 2.6683486 -6.2129211 10.12675
1.1200216 2.693522 -6.0408726 10.1225
-1.3287094 2.6720026 -5.690238 11.12875
0.87708807 2.6580086 -5.8070288 10.623
1.3835908 2.6456108 -5.8449101 10.12175
-0.25854471 2.636389 -5.2864928 11.125875
0.23163077 2.6389029 -5.2685623 11.1245
0.42586133 2.6298997 -5.3463001 11.124
-0.66441607 2.6402259 -5.0677485 11.627
-0.044103175 2.6241381 -5.0418653 11.62525
-1.7335194 2.6667762 -4.622736 12.13025
-0.90540028 2.6655374 -4.6401072 12.12775
-0.4051545 2.6111977 -4.7711878 12.12625
0.35709068 2.6911025 -4.5894608 12.124
-1.5577519 2.1728354 -4.0191059 11.13
-1.3650144 2.6160433 -4.2763305 12.545958
-0.17461851 2.631119 -4.0196986 13.1255
0.20742413 2.6133194 -4.0300689 13.12425
0.5536828 2.6249666 -4.2123871 12.12325
0.99437165 2.5897408 -4.0704403 12.12175
1.2472124 2.5982523 -4.1140203 12.121
1.9913027 2.7206147 -4.2929807 13.1315
2.0587597 2.5350339 -4.3679075 17.134001
1.9655088 2.3984447 -3.6575177 18.133499
-1.7796338 2.6052327 -3.9143372 13.13075
-0.98840141 2.6200213 -3.7006731 13.12825
-0.70358253 2.6130748 -3.8041697 13.12725
1.0571091 2.6130099 -3.6565423 13.12125
1.8675705 2.5466361 -3.8140633 16.432901
-1.8060954 2.5998576 -3.3018694 14.13125
-1.4059362 2.6164441 -3.4528103 14.12975
-1.1725702 2.5885224 -3.4699154 20.506126
-0.58969402 2.6270065 -3.331759 14.126875
-0.14336517 2.5918591 -3.205924 14.12525
0.2675893 2.6186144 -3.5262904 13.873875
0.62793821 2.6052406 -3.4536927 13.455917
1.8584245 2.4811418 -3.4030588 19.549749
-1.3899724 1.7742009 -3.0032382 16.507999
-1.3772073 2.1863856 -3.0911517 19.50775
-1.3594139 2.5546067 -3.028439 19.913187
-1.0217171 2.6015382 -2.9715729 18.757881
-0.70315051 2.5236759 -2.8932476 22.754
-0.35857108 2.6020446 -2.9760714 15.125999
0.9687556 2.6293221 -3.0667424 15.377562
1.388837 2.5239162 -2.9275951 20.044916
1.7568913 2.5694344 -3.0671797 19.704897
-1.4995551 1.4464376 -2.5374875 15.13525
-1.4584618 1.8129017 -2.6676757 18.009251
-1.4494979 2.1537268 -2.6548467 20.509226
1.8257842 2.3985636 -2.7434337 21.132
-1.8608176 2.6007514 -2.5585871 15.465416
-1.4281161 2.5583849 -2.6299334 23.009125
-1.047039 2.5998449 -2.4832165 18.754751
-0.48450997 2.6097224 -2.4085073 16.126499
1.0333666 2.5702384 -2.5807195 20.384687
1.3699689 2.508636 -2.6428189 21.383499
1.7006998 2.5549734 -2.5448973 19.792831
-1.5364283 0.65016747 -2.2120519 8.9111004
1.6824973 0.76132208 -2.154619 10.1295
-1.5488796 1.0657853 -2.1417184 13.094791
-1.5199244 1.4377992 -2.2815781 16.05246
-1.5198622 1.843282 -2.2624402 19.677542
1.7290298 1.7740993 -2.1884997 19.129499
-1.5158561 2.2193291 -2.2154472 22.344168
1.7795773 2.1861131 -2.2319908 22.129499
-1.6955615 2.5028434 -2.1944952 16.13175
-1.3634356 2.5395517 -2.3181014 16.130249
-0.9205246 2.5982113 -2.0052776 17.1285
-0.71941602 2.5847979 -2.0765004 16.877501
-0.20860842 2.5925941 -2.2677538 16.37525
0.2053618 2.5856149 -2.1253874 16.84564
0.76156569 2.5907907 -2.3689756 15.87125
0.85661829 2.5762982 -2.1937881 17.377251
1.5608959 2.7513504 -2.1278071 20.133751
1.758462 2.441725 -2.1738224 23.130501
-1.6137701 0.14956173 -1.7886441 4
-1.5985681 0.31999844 -1.915957 5.5
-1.6369551 0.61619616 -1.6999334 9.4713831
-1.5994691 0.6226514 -1.9303236 9.2620001
-1.6249247 1.1020179 -1.7876602 14.081628
-1.6600944 1.3102241 -1.698395 16.753445
-1.5593913 1.4693415 -1.9829302 17.211599
1.6794683 1.3212948 -1.9149892 16.1285
-1.5656374 1.7667289 -1.9008739 20.345335
-1.5805559 2.0156128 -1.8306265 22.763626
-1.8221091 2.5855441 -1.9791064 17.1325
-1.4056733 2.7230544 -1.6231611 22.757812
-0.90247273 2.5693605 -1.6837463 18.1285
-0.57195783 2.5768683 -1.821507 17.751877
0.99644905 2.6763682 -1.7913591 21.155188
1.554397 2.6670115 -1.7541935 20.331324
-0.84893334 2.8094068 -1.8350931 23.004
-1.6786677 0.20619105 -1.3603033 5.1031747
-1.6925344 0.58437967 -1.3812512 9.5399284
1.5844607 0.60530651 -1.469062 10.044084
-1.6921645 1.0200969 -1.3904728 13.929997
1.5934455 1.0831373 -1.4485697 15.626416
1.6246754 0.92494649 -1.5680342 13.6285
-1.6764666 1.4447743 -1.4245569 19.101961
1.5812701 1.323312 -1.3472948 18.9935
-1.6493586 1.8252376 -1.4268789 21.180569
1.5738387 1.6099982 -1.2936229 22.127501
1.6234984 1.6987785 -1.4845915 21.627375
-1.6845917 2.5242577 -1.3296618 20.0716
-1.4489416 2.6178639 -1.4521548 20.106348
-0.49261692 2.614255 -1.5827837 18.126499
-0.26477244 2.5917795 -1.4072208 18.903055
0.20515847 2.5999446 -1.4139438 19.79425
0.42715862 2.5953462 -1.3790706 19.737444
0.98741955 2.6197336 -1.5456557 20.632374
1.3651034 2.6779335 -1.4408959 22.13204
-1.7510084 0.1911523 -1.040403 4.6168833
-1.741569 0.59913421 -1.0129626 10.47395
1.5108546 0.61575156 -1.0364089 10.592359
-14.191949 1.0203274 -0.85089302 5
-1.7379048 0.93129319 -1.0699446 13.800825
1.5296547 0.98780477 -1.0219172 16.491463
-1.7415794 1.4062741 -1.031263 16.866385
1.5112853 1.2500565 -0.87046862 20.623749
-14.267552 1.8853714 -0.8045764 7
-1.7265602 1.7431096 -0.97858095 19.680901
1.5336081 1.6760346 -1.1678227 23.125
-1.7262905 2.3669109 -0.9835645 22.678499
-1.8591089 2.5706418 -1.1775904 19.133751
-0.75077045 2.5837846 -0.98186421 20.528
-0.17933044 2.5731196 -1.0702034 20.124708
0.28316286 2.5442901 -0.90226316 20.122
0.60159087 2.5861983 -1.0514952 21.484358
1.0133076 2.5798287 -0.98060751 22.781225
1.3865024 2.604773 -1.0006993 22.236107
-1.8146168 0.24568626 -0.62485904 5.7076554
1.4337126 0.37050155 -0.7340486 8.2643576
-1.8159661 0.63453108 -0.63745213 11.122134
1.4242643 0.56531858 -0.5515396 12.691141
-1.8176938 0.92741722 -0.60731047 13.960614
1.4489906 0.99978656 -0.68291599 14.582232
-14.231172 1.5072603 -0.77297974 6
-1.8122479 1.3466777 -0.63805735 18.101294
1.4679092 1.2922885 -0.59400076 22.2896
-14.268098 1.8774725 -0.71117258 7
-1.8107661 1.8645328 -0.65464747 19.828741
1.4314885 1.7123806 -0.43469203 20.1285
-12.191364 2.2585347 -0.48730183 9.0120001
-1.7886261 2.1807098 -0.6659323 22.513626
-1.8179411 2.5174131 -0.73373544 22.00675
-1.4309707 2.5938706 -0.59635508 21.965668
-1.0698125 2.6386352 -0.67906332 22.018944
-0.58829987 2.5677075 -0.54850996 22.287849
0.25171724 2.5748417 -0.61155856 21.7218
0.43233821 2.5369608 -0.47358131 22.120501
-1.8748754 0.28692919 -0.24633518 5.8413467
1.3260143 0.2668547 -0.16918017 8.2271271
-1.8757129 0.5345158 -0.18826219 10.614171
1.3755174 0.59292459 -0.20663318 13.822583
-13.264215 0.93009335 -0.072125793 5
-1.8875998 0.96287942 -0.21798068 14.859056
-0.85318708 1.1370457 -0.21870053 17.708151
-0.71161759 0.92061412 -0.019080997 16.0075
1.3916149 0.95705384 -0.24277389 17.433548
-13.232842 1.4589822 -0.026195526 6
-1.8963635 1.3614112 -0.23217517 19.895468
1.3898346 1.5979816 -0.1295799 21.127001
-13.302064 1.8903334 -0.020464659 7
-1.8640209 1.8879561 -0.20108223 22.26675
1.3560959 1.8014523 -0.24481106 22.128
-13.317723 2.1929832 -0.0078687668 8
-12.534627 2.2161152 -0.14702797 8.0127497
-10.748061 2.3054786 -0.054045439 10.012
-1.9189372 2.3761294 -0.24296093 23.009251
-1.8821883 2.5221131 -0.26101908 23.093416
-1.5799649 2.5573683 -0.27440977 23.133873
-0.24303314 2.5645614 -0.32220197 23.12475
0.092045516 2.5148027 -0.35040474 23.122499
-14.451065 0.35164243 0.17735147 3
-1.9193642 0.22582547 0.11173031 5.8808336
1.2518083 0.2190664 0.20870996 7.5735497
-14.427877 0.43160036 0.27035713 3.6666667
-14.366616 0.74362403 0.15940142 4
-2.0035367 0.62268472 0.36992884 10.734114
-1.9490564 0.60955083 0.17451346 10.211313
1.2980992 0.62030911 0.19418751 15.119999
-14.461793 1.1307334 0.34585667 5
-2.0170426 1.1573189 0.21367002 14.5
-1.9524963 1.0237641 0.15878068 15.098169
-0.81931806 0.87650007 0.016583443 16.009001
1.2871002 0.91426992 0.24428564 19.773077
-13.229579 1.4591719 0.0068993568 6
-7.8045726 1.4108244 0.24626589 8.0105
-2.0056949 1.5010068 0.39330626 20.5
-1.9420681 1.4113153 0.11374067 18.968534
1.3180497 1.5789855 0.22165203 21.874937
-1.9275945 1.8146223 0.21334243 21.681234
-13.335001 2.1615009 0.096337557 8
-11.015272 2.2747374 0.26140571 9.0127497
-10.238056 2.3426504 0.35146022 10.0125
-9.3129234 2.326426 0.37703419 11.012
-2.5730925 2.0481944 0.34867287 16.132999
-1.9320401 2.2440026 0.043770075 23.01075
-2.3682296 2.4754131 0.022761345 19.134001
-1.3876482 2.6019282 0.30996454 23.130251
-14.596321 0.21687374 0.70782781 3
-2.0263186 0.24971546 0.5905236 5.3926668
-1.9937118 0.29949516 0.50965476 7.2858334
1.1794266 0.20133778 0.71382803 8.0605097
1.2222376 0.27220872 0.49558195 10.073243
-14.511492 0.425165 0.49792385 3.5999999
-2.0326173 0.65979123 0.63097638 11.440295
-1.9764414 0.63411123 0.4945282 12.806735
-1.2975624 0.63375109 0.74508524 9.3317003
1.167945 0.52804923 0.7383253 14.443142
1.2289647 0.56610686 0.49903712 14.654358
-14.5178 1.1984736 0.48255444 5.5
-2.0361853 1.040974 0.62529695 16.014828
-1.909061 0.93613905 0.45985314 13.261631
-1.3264694 0.94394839 0.72913206 11.230375
-1.0076233 0.97559011 0.7499975 18.008249
-0.67232436 1.1816995 0.78703225 23.004398
1.249567 1.0760643 0.56560415 19.72521
-2.0427687 1.4181241 0.64438099 20.283302
-1.9381654 1.4072473 0.48755652 17.937563
-1.3808182 1.413855 0.68877649 14.795334
-0.82957953 1.2807329 0.61460626 22.005249
1.2582012 1.3663865 0.5528276 23.122252
-14.48009 1.7644044 0.53227615 7
-6.8005986 1.8794619 0.7901926 12.011
-2.0137002 1.7264354 0.54822123 23.0235
-1.7605585 1.7902294 0.72086412 19.39189
-1.4210099 1.6492738 0.71873784 17.128834
-1.1943147 1.9024686 0.77167428 20
-14.338267 2.0963161 0.79575539 8.0150003
-13.063532 2.1955404 0.56679916 8.0142498
-12.237158 2.182534 0.58829117 9.0139999
-11.648702 2.1693201 0.77037668 8.0275002
-11.530912 2.2098343 0.56387663 9.0270004
-11.18542 2.2429826 0.59248161 9.0135002
-10.41554 2.3018975 0.53694916 10.013
-9.8125229 2.2794087 0.79826617 10.027
-9.3303471 2.2839437 0.56134093 10.02625
-8.0788164 2.3250358 0.57494402 12.0115
-2.2396851 2.0387828 0.59171343 18.1325
-1.4575443 2.232614 0.65105748 22.382
-2.6249321 2.6980293 0.52925348 20.800085
-1.8390857 2.473032 0.67998028 22.562637
-2.2235622 2.8085382 0.58302975 23.13175
-14.547574 0.13245326 1.0392241 3
-2.080126 0.22200929 0.96998209 5.5715032
-0.51306677 0.32893276 1.0337887 4.6568747
-0.10762306 0.3118431 1.1798466 3.8333335
1.1319996 0.16270749 0.97744316 7.0201521
-14.541901 0.55510873 0.95051575 4
-2.0781169 0.54679865 0.94682884 10.241602
-1.9617438 0.40881547 1.1647774 9.0419998
-0.96263206 0.57979494 0.88380539 9.4157858
-0.66849947 0.51971465 1.0193834 8.6150761
1.1580157 0.62769616 0.91490149 16.466026
-14.52466 0.99034494 0.93386817 5
-2.0984864 1.0068815 0.99514073 16.110996
-0.94709522 0.96542692 0.88023645 16.090595
-0.50330639 0.98000038 1.1206403 14.407386
-0.30143386 0.94577551 1.1480622 13.635144
1.1641568 0.94440621 0.99008292 21.796839
-14.610494 1.2585212 1.1499138 5.5
-2.0786791 1.3754363 0.96140444 20.721325
-1.2358912 1.3415176 0.82266665 16.6315
-0.95839846 1.4230124 0.95657659 17.762321
-0.52789032 1.3797547 1.1450737 19.166155
-14.575737 1.9641896 1.0829964 7
-6.8643613 1.8218095 0.9226892 11.0115
-2.0927968 1.6817944 1.0253427 22.809284
-0.79578137 1.7105885 1.0221572 21.62925
-12.111953 2.1747646 1.0187438 8.0279999
-11.469258 2.2038121 1.1245193 9.0147495
-10.499103 2.2457509 1.0719323 10.01425
-8.9471636 2.269088 1.0381825 10.684667
-8.0377359 2.3262713 0.92613864 12.0125
-7.6837535 2.3466575 0.85535097 13.012
-7.5808043 2.3103249 1.1386387 13.01275
-6.7243333 2.3334703 1.0094162 13.683084
-6.3839788 2.3366332 1.0043595 14.018499
-3.1493471 2.1893075 1.1874217 22.005001
-1.2927798 2.1295297 0.86983013 22.413858
-1.0826 2.0707023 0.90121269 22.4125
-6.403852 2.4181182 1.1015382 15.0115
-6.2385101 2.4220192 0.95356601 14.684834
-5.7053504 2.4019289 1.1767969 15.026
-5.3255124 2.4125414 1.154599 17.01025
-4.7778368 2.4466128 1.1990975 18.259501
-3.1457593 2.4537506 1.0378195 23.004
-2.62222 2.6931918 0.89770842 22.316862
-2.1714897 2.5775867 0.88731825 22.88475
-14.61023 0.088702254 1.2128406 3
-2.1422741 0.22555521 1.3611906 5.4999108
-0.056562394 0.30355126 1.3401028 8.0620003
0.20329987 0.23767637 1.4020579 5.5418854
0.62911081 0.3761816 1.5194041 5.75
1.0639236 0.25203034 1.3685778 8.6216059
-14.621259 0.58838809 1.2833619 4
-2.1497345 0.59491068 1.3759596 10.611982
-0.092090845 0.51827598 1.3257915 10.962349
0.28027031 0.68942171 1.4779313 14.365416
0.52168226 0.63001633 1.5287545 12.028633
1.074129 0.57634312 1.3551291 15.690568
-14.606955 1.1118975 1.3213038 5
-2.1812503 1.0110346 1.4437188 15.942893
-0.14962973 1.0254691 1.2579503 16.042664
0.18739484 0.93571842 1.3720484 15.812185
0.56759518 0.97550851 1.4967451 16.822435
1.0232295 0.97840613 1.442625 19.901894
-14.658441 1.3870519 1.2183828 6
-2.1683791 1.3450477 1.4092379 20.023275
-0.19142213 1.337225 1.2844428 20.222059
0.16717093 1.3353152 1.390708 21.300917
0.51890552 1.3231107 1.4519402 21.283918
-14.618207 1.7934104 1.2151961 7
-5.9233952 1.8585149 1.302283 12.026751
-3.1807792 1.9980651 1.2480496 21.005501
-2.1390352 1.6930908 1.3557491 22.989191
-0.32682967 1.6134415 1.2601032 22.873749
-13.932403 2.1406982 1.4701076 8.0159998
-12.211222 2.1205015 1.3906755 8.0287495
-11.55484 2.1621773 1.5029974 9.0155001
-9.5202618 2.2320979 1.3800035 10.02825
-8.6823111 2.2474012 1.4835573 11.521375
-8.1341953 2.3252463 1.3858168 12.027875
-7.9092011 2.2951045 1.3091276 12.0135
-7.5009894 2.2947631 1.5702055 13.014
-6.6976614 2.3385401 1.3027173 13.427099
-5.5434833 2.3799169 1.5065814 16.02725
-4.9512324 2.3958154 1.3067251 17.025999
-3.202395 2.1065495 1.3154848 22.006001
-6.6580062 2.4149089 1.4306393 14.6129
-6.0871544 2.4110074 1.3605435 15.027
-4.9480619 2.4138205 1.3962569 17.71855
-4.6526799 2.4060824 1.5759674 18.027
-4.1910129 2.4608481 1.389955 20.098057
-3.8397012 2.4624186 1.4612095 21.517193
-3.5850036 2.483501 1.3702741 22.674166
-13.636375 0.24136037 1.8777751 3
-2.1291807 0.25555941 1.641569 5.678833
0.07551524 0.31199393 1.9601138 11.614251
0.56185186 0.21069464 1.7491186 7.4996743
0.99707347 0.19421709 1.7721348 6.7807097
1.5502301 0.34436163 1.7673364 5
1.796265 0.3103258 1.8718792 4
-13.610246 0.57474387 1.7522497 4
-13.568899 0.57536465 1.8180478 4
-2.1893568 0.61213529 1.6512721 10.761845
0.21901372 0.57991779 1.9795386 17.564407
0.60271716 0.56815195 1.6618885 14.122073
1.0109234 0.58297247 1.7554154 13.759825
1.3615968 0.5656451 1.8372831 10.269295
1.7227505 0.64646542 1.9158242 9.7529764
-13.623489 1.0060216 1.8516654 5
-2.1841373 0.98160291 1.6333681 15.694667
0.34013382 0.87114185 1.9849771 22.609833
0.56840467 1.0348804 1.6503298 21.00403
0.97882903 0.90671831 1.7377404 19.916996
1.3584895 0.97989815 1.8200768 17.163731
1.6558796 0.96855545 1.9392686 15.269765
-11.860295 1.5656718 1.6564813 7
-2.2093637 1.3947802 1.6650715 20.013037
0.73041821 1.4235815 1.602607 23.1075
1.0017836 1.3032694 1.6957312 22.656004
1.3282181 1.3178357 1.8616952 21.332739
-2.1932626 1.7193218 1.6258736 22.705862
-12.244524 2.0753345 1.7879918 8.0324993
-11.725259 2.1429102 1.8229713 9.0162506
-10.885463 2.1667435 1.8080568 10.016
-10.68291 2.1268954 1.7554717 9.0354996
-10.317327 2.2169445 1.6618781 10.0155
-9.3844547 2.198344 1.8333877 10.0325
-8.5766811 2.248234 1.8420508 11.02925
-8.2828712 2.239805 1.9093831 12.0155
-7.8714924 2.2852545 1.7942303 12.681583
-7.3793197 2.2301881 1.8396488 12.033584
-6.9425402 2.3355436 1.8216431 14.1395
-6.658452 2.3032279 1.7575835 13.282125
-6.2341938 2.3326085 1.7229813 14.0355
-5.3502407 2.3675847 1.7516146 16.734785
-4.9991474 2.3754005 1.7615284 17.27795
-4.5046639 2.3895862 1.8475299 18.697584
-4.3790445 2.3928177 1.9822595 19.036999
-3.9030476 2.3995945 1.9786179 20.8372
-6.8311644 2.4781454 1.8443627 15.0145
-6.2551484 2.4318752 1.833732 15.028749
-4.0686555 2.4364312 1.7794217 20.602722
-3.7339647 2.4441757 1.7171128 22.331001
-3.4685583 2.4526939 1.8366711 22.698626
-13.626307 0.28027815 2.0696733 3
0.62566113 0.34021953 2.0063176 10.106029
0.9713217 0.22463495 2.1128209 7.8207045
1.422949 0.21871854 2.1207912 7.2835388
1.8872987 0.096093215 2.2536519 5.0666666
2.0702124 0.23882908 2.2518103 6.0981002
2.6486206 0.33436799 2.2606742 4
-13.649242 0.53814209 2.1008241 3.75
-13.585494 0.67775357 2.2111609 4
-1.0553173 0.41171336 2.3029661 10.05925
0.51685578 0.52631003 2.0752802 14.802054
1.00142 0.60620898 2.0844562 14.233808
1.4971834 0.58981353 2.1277885 13.836875
1.8615862 0.59412503 2.1845682 12.095109
2.1543179 0.56312084 2.2021594 8.8078556
2.5893679 0.69890219 2.3849819 9.5855007
-13.665318 1.0073272 2.1633213 5
0.67989969 0.98382062 2.0863926 22.02146
1.0140641 1.0240303 2.0792334 20.077374
1.4447095 0.98609042 2.0483439 21.25
1.8038439 1.0180997 2.2246251 19.141575
2.0732601 0.94436586 2.2659833 15.01755
-13.661362 1.2698716 2.2426367 6
-13.598811 1.2981758 2.0817282 6
0.98662227 1.3478284 2.2475958 23.084499
1.5222044 1.3826245 2.2165687 21.829933
1.7862312 1.3863125 2.1923165 20.843868
2.1724694 1.3931929 2.3661671 21.590923
-13.669826 1.6534818 2.201544 7
-12.596037 2.0465183 2.2109146 8.0302505
-10.935883 2.1614678 2.1413126 10.01675
-9.3333197 2.2285471 2.0106425 10.02975
-8.2223854 2.2292352 2.1636651 11.523125
-7.8307652 2.2113883 2.3447809 11.861501
-7.2952251 2.2174778 2.3082769 12.694751
-6.9604554 2.2739267 2.1781199 14.01575
-6.5164008 2.2954717 2.1826162 14.030001
-6.2619925 2.3358612 2.1883554 14.778188
-5.9553714 2.351824 2.0915051 15.037001
-5.2308612 2.3468862 2.2168801 17.189209
-5.0542974 2.3910587 2.013078 18.51375
-4.6854143 2.3551714 2.2105093 18.544415
-4.1703544 2.3819075 2.3128366 20.305723
-3.8622971 2.387846 2.3428078 21.88393
-3.5417912 2.387902 2.3794758 22.206667
-3.067431 2.3565793 2.2560697 22.546749
-2.6641355 2.379473 2.3193634 23.050251
-6.334013 2.4444551 2.0983639 15.02975
-5.2427359 2.4165342 2.3344092 17.03825
-4.4274845 2.4325173 2.0419855 20.679834
-3.8015835 2.4120884 2.102001 21.820396
-3.3965366 2.4338644 2.1502178 22.794569
2.2899506 0.13513266 2.4712203 5.6336746
2.5388775 0.34794629 2.676878 5.75
1.9887042 0.54544026 2.407485 9.0950003
2.3083642 0.60071307 2.4932292 11.639583
2.5858369 0.59967679 2.6667478 10.600809
3.4277773 0.47182447 2.6418326 5
-0.97072393 1.0819657 2.5950181 18.061501
1.959173 1.0782077 2.4410591 15.495
2.3254111 0.85633546 2.5319903 16.627375
2.6011364 0.96509933 2.6464517 15.368166
3.1390138 1.0124098 2.6624317 11.457687
1.9226539 1.4390244 2.4522083 19.595125
2.3484619 1.215892 2.5289755 20.519499
2.7152965 1.276637 2.7257936 19.659214
-12.455405 1.9639872 2.5817788 8.0310001
2.3812165 1.8712474 2.4117503 22.754
2.8774393 1.7011052 2.7027075 20.562082
-12.405608 2.0087032 2.5622053 8.0369997
-9.9681082 2.1329427 2.5880301 9.5342503
-8.8154573 2.2111745 2.6120267 11.03125
-8.293313 2.2331469 2.4297843 12.017
-7.7079959 2.2182832 2.5593257 12.52425
-7.2497621 2.192723 2.5780058 12.03825
-7.1353798 2.0747676 2.7634401 12.032
-6.674602 2.2822952 2.5438514 14.109249
-6.1560984 2.2076783 2.7423515 14.035749
-5.9019942 2.2783456 2.5525308 15.0315
-5.0724306 2.3115957 2.5774202 17.188089
-4.6631994 2.3714299 2.6590328 19.12845
-4.1800137 2.3426187 2.7373648 19.533001
-3.8109403 2.3511386 2.6625047 20.492102
-3.4021876 2.3548796 2.6685746 21.213608
-3.0068729 2.3731415 2.6032736 22.380919
-2.6075375 2.3427608 2.636065 22.676168
-2.3320434 2.3487797 2.7121329 23.053123
2.7209902 2.0268569 2.6008005 22.640556
2.9065735 2.0310822 2.7687306 21.883299
3.2353866 2.3548453 2.6223388 23.099751
-4.7421288 2.412431 2.4177625 18.281124
-3.2663836 2.4342995 2.5076609 23.04125
-0.65221488 0.11473148 3.0209346 5
3.1025817 0.17210002 2.9542494 3
-0.66572934 0.67014033 2.9074585 12.398833
-0.27798292 0.56273437 3.1606901 10.0695
2.9971681 0.57126009 2.8406196 9.0001259
3.656729 0.54224193 3.1418486 9.0830002
2.9568391 0.99315977 2.8355908 15.274172
3.3479452 1.0499578 2.9635139 12.331437
4.1551104 0.91766196 3.1511114 9.0790005
4.6825852 1.177614 3.1201711 10.0795
3.0395813 1.238181 2.9115429 17.835501
3.4525533 1.4017931 3.1158628 17.583527
-7.2181001 1.9566041 3.0799413 12.019
-2.4159982 1.9230254 3.1602979 23.008499
2.7813308 1.7816976 2.8676312 20.763834
3.4752316 1.9044974 2.9627748 18.581249
-10.669677 2.035815 2.9176693 9.0380001
-9.530714 2.0878897 3.0792065 10.03875
-8.2737494 2.1460381 3.0036314 11.036834
-7.6696687 2.2075167 2.8002822 13.018001
-7.2782488 2.1738801 2.9599104 12.035999
-6.8476295 2.2137389 2.9414742 13.525499
-6.6691718 2.2304041 2.9893587 13.9025
-6.0153513 2.2240367 3.0534446 14.037
-5.7492056 2.2907252 3.0092649 16.026001
-5.4113064 2.3018377 2.9427242 16.694355
-4.9976673 2.3382545 2.9235926 18.025875
-4.6721253 2.2920749 3.0151696 17.435875
-4.2203493 2.3078525 3.0536609 18.711943
-3.8244634 2.3242366 2.9324157 20.097834
-3.341851 2.3250821 2.964927 21.344374
-3.0429161 2.3236296 3.0236742 21.0662
-2.5697188 2.3375523 3.0398915 21.054214
-2.1454237 2.3422768 3.0094934 22.45615
-1.783842 2.3641293 3.0781801 23.0585
2.6782041 2.3135991 3.0244517 23.090248
2.9929628 2.3283896 2.9990616 22.720562
3.4987879 2.2604625 3.0666866 20.921333
3.7233963 2.248111 3.1349893 18.464689
4.2442436 2.2309046 3.1403916 17.293625
4.57096 2.2481842 3.0689523 17.098249
5.725194 2.1688831 3.1397393 14.09875
-3.8670065 2.4037042 2.902184 23.018
3.3997397 2.4989927 3.0784771 22.9811
3.7445004 2.4420059 3.1840675 21.08025
-2.041223 0.21557002 3.228821 8.0102501
-1.6868422 0.18876469 3.3597963 8.2123003
-1.5169876 0.21336618 3.5176811 8.5971661
-1.0950447 0.10414088 3.5814052 8.4623337
-0.6903435 0.38240081 3.2060454 16.008499
-2.0945137 0.7777707 3.2924612 15.51
-1.8302763 0.61726797 3.3888416 13.553006
-1.537166 0.44333786 3.5568993 12.319842
-6.3741422 0.92934442 3.276051 8.5200005
-5.3954492 0.8221674 3.5345459 9.0214996
-2.5168769 1.0738966 3.2057145 16.008499
-1.5250465 1.0866023 3.5879245 22.614002
-0.17289695 1.0554433 3.5364878 15.0705
4.4362836 0.91422355 3.2617373 8.0784998
4.8781734 1.0621881 3.4625897 8.5777502
-6.3783574 1.2336792 3.2997634 10.02
-1.8041874 1.2819858 3.4684896 21.511557
3.7349496 1.2495708 3.2378144 15.0825
4.4304781 1.48437 3.3140278 12.745334
-6.2922344 1.7784472 3.4526286 12.027625
-4.7896514 1.7537513 3.4062319 16.021
-2.5445945 1.6996576 3.298605 22.008499
4.6839399 1.9697782 3.3277411 15.079
-7.8704958 2.1152611 3.3396645 11.04025
-7.0424581 2.152678 3.3805666 12.387463
-6.5158281 2.2194309 3.3000236 14.526875
-5.7569475 2.2266192 3.3815327 14.487018
-5.4777627 2.2216594 3.4209709 14.97465
-4.9344788 2.2392948 3.2746329 16.538876
-4.5802174 2.2823656 3.3820107 17.181105
-4.1650295 2.2884483 3.4352174 18.821291
-3.8059828 2.2775342 3.4243186 18.960896
-3.3116059 2.3140912 3.2660122 20.710751
-2.9496863 2.2961886 3.3497307 20.503832
-2.5799708 2.2966475 3.3737919 20.267412
-2.1624684 2.2928879 3.4248912 21.295019
-1.8021365 2.2879829 3.415271 22.270002
-1.4423708 2.2958233 3.458286 22.90246
-1.0445193 2.3759429 3.4766452 23.064417
-0.5338062 2.3307221 3.5263798 23.068001
-0.28935859 2.3313005 3.5415983 23.06975
0.33429393 2.3151102 3.5153978 23.074249
0.63746506 2.2798309 3.4331937 23.076502
0.9963792 2.2776959 3.4056337 22.912415
1.4654455 2.2368557 3.44753 22.558655
2.6828985 2.3004789 3.4197922 22.69075
2.9753163 2.2841225 3.3991311 22.129309
3.4324517 2.2561817 3.4356022 20.406
3.8046932 2.2792344 3.480345 20.869387
4.1455793 2.2111859 3.3723788 17.592499
4.582912 2.1668015 3.4021649 16.419043
4.9949317 2.1535454 3.40872 14.980416
5.3663816 2.1872556 3.2113843 15.098249
5.8525476 2.1109099 3.5093269 13.393049
6.3072557 2.0486999 3.5773628 12.0885
6.4498038 2.1685662 3.3357544 13.0985
7.2232685 2.0577517 3.5679414 11.431499
3.4555326 2.4598289 3.375834 22.878975
-3.3574638 -0.030489463 3.9341516 3
-2.8927917 -0.022684809 3.9730418 3.5
-0.81371713 -0.027985886 3.6581397 6
-0.57046801 -0.051739316 3.7616441 5.8333335
-0.23338382 -0.11398659 3.9082901 4.5
-5.6458645 0.2222974 3.6775093 3.375
-5.2559991 0.1903982 3.8108959 3.65625
-4.9007573 0.26245338 3.8686762 3.625
-4.4946585 0.15943514 3.9253478 3.3333335
-4.3887963 0.32280478 3.9201403 4
-3.372035 0.15563489 3.9660141 4.25
-2.9924648 0.20467801 3.9029133 6.2222228
-1.33171 0.20174204 3.7784085 8.2664165
-0.95200604 0.22735889 3.8629329 10.632941
-0.60790312 0.14279753 3.7781353 10.993161
-0.27973518 0.18217915 3.9136133 12.91731
0.21269938 0.18366089 3.7295263 5
-5.6382589 0.49330983 3.6717985 5
-5.3079729 0.59238684 3.7937837 6.0624285
-4.9871058 0.56088448 3.8856215 6
-4.6312075 0.62378287 3.9184482 6.0929585
-4.3699889 0.69568545 3.9379299 6
-3.4632792 0.63428849 3.966414 8.4928217
-2.9333627 0.45330736 3.8496161 9.582695
-1.2813677 0.54037851 3.8061755 13.997658
-1.0194658 0.43096837 3.7452674 15.245383
-0.62841558 0.6733079 3.8533683 23.025499
0.76259333 0.6997357 3.9769139 10.077
-5.8177862 1.1706558 3.8805017 9.0439997
-5.3259077 1.0454307 3.8089757 8.6907225
-4.881887 1.0104632 3.9301922 8.5294161
-4.5939445 0.95400572 3.9040008 7.7834997
-4.1995296 0.96913272 3.9722416 8.736722
-3.8174138 1.0645487 3.8955629 11.039
-3.41032 0.92360568 3.9156187 13.192833
-1.3846486 0.91248703 3.6809819 20.018169
-0.9978385 0.85146999 3.9493554 20.532524
0.28612429 0.91849822 3.7294791 13.074
-5.9177346 1.4901965 3.6868925 10.0465
-5.3366008 1.4753953 3.7987258 10.460531
-4.9718189 1.4174227 3.9109392 10.115417
-4.6442208 1.4695897 3.9357491 11.046333
-4.3680353 1.5177146 3.9956131 13.539249
-3.8095245 1.4034548 3.9189367 14.04
-3.5729072 1.244948 3.9208992 15.525749
6.4501567 1.2316185 3.9575 8.0764999
-6.2136168 1.8738452 3.6271806 12.0425
-5.6788921 1.7852603 3.772727 11.87725
-5.3133645 1.7848678 3.8600416 11.980604
-4.8543038 1.7666849 3.60343 16.021999
-4.5285754 1.6408741 3.733573 16.023001
-3.6797364 1.6941704 3.8819156 14.419156
-3.4812043 1.6462201 3.9490612 19.025999
4.8637843 1.9812721 3.9206645 14.0865
9.1424389 1.9279027 3.9749079 9.0979996
-6.8210244 2.3623393 3.6438439 15.021
-6.2032013 2.0808659 3.660533 12.54075
-5.7074022 2.1218326 3.6536257 12.54675
-5.3847656 2.1630635 3.7923877 14.23291
-4.9754782 2.1733618 3.7985713 15.16497
-4.6003799 2.2587423 3.8139236 16.95734
-4.2469969 2.2265525 3.886699 16.497633
-3.8222663 2.2693284 3.8023877 19.395727
-3.4404476 2.2691605 3.7608242 19.359976
-2.9786632 2.276778 3.855906 20.732994
-2.6633921 2.2826846 3.7872584 21.691584
-2.0895019 2.3038461 3.7197952 19.858999
-1.7715129 2.2948096 3.7653213 20.489359
-1.0158287 2.3204253 3.7010746 22.236267
-0.59301507 2.2774134 3.7583432 22.517651
-0.13039213 2.2942762 3.7240741 22.737562
0.16034982 2.2889786 3.7725196 22.678959
0.53910738 2.2592192 3.739512 22.57555
1.0211836 2.2059364 3.8250737 22.266314
1.3892225 2.2223065 3.7215123 20.83075
1.714853 2.1902499 3.7103126 21.083
2.1085155 2.2609456 3.8452706 23.089502
2.4930539 2.3290355 3.662621 22.842251
2.9326339 2.289741 3.8351219 22.134693
3.4310055 2.2912333 3.7735224 21.193583
3.7963276 2.2090042 3.8070376 19.87455
4.2413807 2.1545208 3.8405626 17.586452
4.6014895 2.1878726 3.7956388 17.196501
5.0497108 2.1340387 3.7499421 14.80129
5.325078 2.1953425 3.7986317 15.169895
5.7934089 2.1816318 3.8109927 13.832438
6.2156048 2.0721731 3.8267264 12.592125
6.7463827 2.038595 3.9223948 12.09675
6.8808479 2.0641904 3.879478 11.087749
-7.0261941 2.4254353 3.8145635 15.0215
3.5394998 2.4147642 3.979013 22.075001
-3.1019156 -0.011711907 4.0063949 3
-2.4851844 -0.010755111 4.1681175 3.2
-2.0130262 -0.022162786 4.1504054 4
-1.8112836 -0.027279742 4.1986847 4.5
-1.3823442 -0.025799576 4.3064523 3.75
-0.89959741 -0.043737508 4.3696527 3.25
-0.022878245 -0.091076776 4.2398014 4
0.12009902 -0.055648297 4.142426 5.9074073
-3.6936746 0.33203104 4.1128855 5
-3.3685124 0.23666978 4.0628877 5.2666669
-3.0429173 0.21311881 4.0925317 4.9642854
-2.5965624 0.20610936 4.1239386 5.4271603
-2.1414979 0.21513957 4.2107453 5.8022246
-1.7644224 0.17163129 4.2586074 5.4693031
-1.4231238 0.17423333 4.3308296 6.4279728
-1.0766146 0.11092432 4.3706946 6.5501342
-0.63003224 0.17464489 4.193449 9.3878126
-0.1806113 0.23296943 4.2261438 12.868045
0.16202119 0.236325 4.22756 13.600941
0.74536043 0.26498196 4.3621187 12.190903
1.1099203 0.25411701 4.1876369 5.5
-4.9641604 0.70122313 4.027626 6
-4.0631585 0.77775156 4.1078281 9.0404997
-3.6462581 0.55918425 4.1131539 6.4099998
-3.327482 0.62739795 4.0574622 7.351172
-2.9508622 0.6539923 4.1395221 7.9442692
-2.6226771 0.60798782 4.1663957 8.8898306
-2.2453349 0.55984348 4.2346783 9.3596191
-1.755502 0.53235716 4.2844329 10.607095
-1.3676132 0.62729383 4.3638239 12.913917
-0.99324685 0.58140695 4.3120379 12.26575
-0.64249074 0.53922266 4.1208968 17.432516
-0.2574077 0.58271182 4.2491894 20.087543
0.1544964 0.64902365 4.2883539 22.941412
0.55754042 0.57746202 4.1891394 14.732041
0.8789987 0.75465488 4.134757 10.0775
1.2786639 0.6296649 4.3019791 8.5795002
-5.2285876 1.0411086 4.0249276 9.0454998
-4.1436357 1.0360897 4.0926065 8.8012505
-3.7240891 0.99261302 4.0743651 9.9158344
-3.4097555 0.96073759 4.0993938 9.579421
-3.0043101 0.93045902 4.1327763 10.750953
-2.6097198 1.0232285 4.2113152 11.305306
-2.1864922 0.97191948 4.2730522 11.883164
-1.7902598 0.96302158 4.3076754 14.430703
-1.4752082 1.0023561 4.3715172 16.666166
-0.59538019 0.80881631 4.131073 23.025499
0.50114357 0.99483019 4.2014918 12.075
-4.5394225 1.361166 4.0517688 11.045501
-4.2438946 1.4196281 4.1140699 10.942991
-3.6766765 1.4050816 4.1310105 11.593785
-3.4023843 1.4335049 4.1589775 12.861255
-3.0008705 1.322453 4.1868391 13.121312
-2.6210356 1.4193878 4.2766571 14.159286
-2.1812413 1.3744673 4.3078508 15.594045
-1.8476541 1.2366219 4.3350086 12.714649
-1.5783789 1.2047734 4.3653231 15
-4.0945573 1.6586797 4.1197076 12
-3.6898482 1.7431206 4.1039743 13.407633
-3.3815577 1.7368084 4.1477132 14.69764
-2.9831946 1.8403639 4.2152052 17.227377
-2.6341591 1.7342736 4.264565 16.51199
-2.2224579 1.7373703 4.3448811 16.261787
-1.8519893 1.769709 4.3593063 18.911104
6.5401855 1.7882572 4.2589612 10.745999
7.4761267 1.9987757 4.028409 11.097
7.8989701 1.965067 4.2860703 10.087
9.0890427 1.8859794 4.1737719 9.0974998
9.8585186 1.8549435 4.0015631 8.0982494
-4.9461627 2.1998029 4.0662699 14.0495
-4.4484076 2.1933658 4.0229654 15.0505
-4.086751 2.2455533 4.0859194 17.046249
-3.7397311 2.1202266 4.1243052 16.124533
-3.425225 2.128171 4.1376538 18.453293
-2.9718323 2.1517677 4.2067771 18.64366
-2.6152582 2.1825032 4.2121158 19.652767
-2.2185256 2.2128699 4.2257371 20.057732
-1.7796091 2.2132304 4.2863603 20.230608
-1.3664 2.2458591 4.2036991 19.896957
-0.95662534 2.2310433 4.1363149 20.57835
-0.54379976 2.2418542 4.0745611 21.211155
-0.22159435 2.237956 4.2054143 20.937017
0.20653495 2.2225189 4.2514858 20.510532
0.67577904 2.2148893 4.1474638 20.575958
1.051887 2.1930301 4.2083087 19.855856
1.4678715 2.2011659 4.1824441 20.873251
1.7576559 2.1775651 4.2674999 19.693735
2.0863273 2.1767142 4.1218553 20.085333
2.6278598 2.2773583 4.1957712 22.342552
3.0216923 2.2226877 4.155725 20.445303
3.4126976 2.250139 4.1702871 21.677856
3.7399161 2.1824071 4.2135272 18.866556
4.1871662 2.1579633 4.2434163 17.584448
4.6560574 2.1266887 4.1498818 16.610588
5.001996 2.1128356 4.2172208 15.569025
5.4108443 2.1282413 4.1560287 15.827416
5.8354654 2.1623285 4.1425152 13.414583
6.0349727 2.0325718 4.2457042 13.095
6.473567 2.027997 4.1451826 11.841249
7.4453511 2.0282023 4.3402019 11.096
7.6314316 2.0155704 4.2358627 11.0965
8.2856827 2.0394645 4.0187292 10.0975
-0.96457297 -0.050838225 4.4808722 2.5
-0.50083292 -0.023778316 4.4619284 3.6666667
-0.22481841 -0.03474164 4.5682173 3.1666665
0.21967456 -0.056481414 4.6077843 3.375
0.47943333 -0.047115613 4.6490035 3.4285715
1.2921419 -0.066160344 4.6450686 5
-1.7281505 0.27691698 4.4565444 5
-1.3751369 0.25418803 4.4638057 5.4389877
-0.98154777 0.23124979 4.4730763 6.8213196
-0.60678452 0.187195 4.5028534 6.848402
-0.20876397 0.16027591 4.5949974 5.7123866
0.21243228 0.23706736 4.6799822 7.1496778
0.5748843 0.12511392 4.6731348 5.9655204
0.93250144 0.22595559 4.7087469 8.9569864
1.3437476 0.16436692 4.7043104 8.5625
1.6198107 0.13854568 4.7672668 8.0587502
-2.0571566 0.50844657 4.4097624 7
-1.7443556 0.57295227 4.4490757 7.5027204
-1.3312383 0.60185158 4.4716506 9.519393
-0.96000475 0.58550644 4.4777889 10.214537
-0.57393163 0.56186652 4.5667691 11.026281
-0.17449513 0.54798102 4.6418924 10.313597
0.16591595 0.57194579 4.6982241 11.833781
0.59515256 0.61017364 4.6516757 13.202971
1.0401562 0.57809919 4.645895 14.441334
1.3828919 0.54674208 4.7127113 14.089767
-2.4794261 0.97875673 4.4147024 9.0592499
-2.1481972 1.0587889 4.4659157 13.753067
-1.7428608 1.0729131 4.4698768 11.126287
-1.378154 0.93552667 4.4554968 14.117536
-0.95642811 0.97028673 4.5419869 14.073955
-0.59313512 0.9068414 4.5941577 14.775599
-0.17213221 0.93646783 4.6719241 13.50854
0.1268784 0.94788897 4.6982527 14.177703
0.63072699 0.99573642 4.7260332 13.787234
0.95815265 0.99481541 4.7185807 17.218153
1.4338923 0.82755411 4.7967215 17.657902
-2.4344978 1.4099636 4.433773 12
-2.1886013 1.4641981 4.4568081 13.657237
-1.7353446 1.3656009 4.4974627 13.953597
-1.3874389 1.3601811 4.5030003 15.192564
-1.0092646 1.3542507 4.547678 14.76597
-0.55252159 1.3457341 4.6366401 14.174435
-0.14881285 1.3667825 4.6732469 15.689353
0.2210333 1.3415244 4.7503138 14.335963
0.61894608 1.3473114 4.7515388 12.758334
0.81544232 1.260731 4.7942667 17.709774
1.932917 1.5569342 4.6597772 14.749416
6.7403908 1.5612605 4.6104875 10.074625
-2.5914872 1.8636863 4.4250426 15.05875
-2.0765319 1.8029521 4.4203072 15.36375
-1.7733983 1.7780215 4.4471684 17.137316
-1.3617301 1.7349877 4.500011 17.330925
-1.0069637 1.7011257 4.5775375 18.237261
-0.58508664 1.6995287 4.667778 16.614153
-0.1893627 1.764865 4.7296891 16.840223
0.11034575 1.7392967 4.7542181 18.576702
0.60640109 1.6621619 4.7557125 15.925317
0.92357129 1.7661647 4.7344627 17.577625
5.8190222 1.966897 4.4051499 14.5775
6.2539053 1.9566419 4.6404676 12.4912
6.6302576 1.9967853 4.5632296 11.085501
6.8805528 1.9453851 4.6205263 11.0855
7.7843084 1.9344749 4.6290693 10.09075
9.2249565 1.8670722 4.5193682 9.0967503
9.9117746 1.7992595 4.4691982 8.09725
10.037816 1.7645999 4.6153135 8.0869999
-2.5111091 2.1144943 4.4423766 17.258301
-2.1253743 2.1430252 4.4822273 20.104923
-1.8079909 2.1079032 4.579565 17.0625
-1.386031 2.0998399 4.5777478 19.721041
-1.0001683 2.1224728 4.6457973 19.390825
-0.64711773 2.0853653 4.6962237 18.706459
-0.14565703 2.1373847 4.6616044 19.042458
0.14347608 2.1486115 4.7181702 18.574186
0.66273278 2.1515419 4.6213655 19.34836
0.98563755 2.1991389 4.5708094 20.553226
1.4208755 2.147625 4.6095047 18.834169
1.7009693 2.2056682 4.5897074 21.584
2.1816139 2.1941772 4.5786028 21.309622
2.4679937 2.2037737 4.5769348 21.542614
3.0011659 2.1648045 4.592155 19.690851
3.4037859 2.1690273 4.5994163 20.771027
3.756366 2.1289654 4.6115613 17.922041
4.2145548 2.1227455 4.5732822 16.538528
4.6092339 2.087996 4.5903969 16.09528
4.9475265 2.0698686 4.5938377 15.18405
5.3767285 2.0906041 4.4855657 15.081416
5.6934671 2.0289783 4.5765333 13.8807
6.1888661 2.1947656 4.4125042 13.57525
6.9223857 2.0276535 4.5478811 11.595
-6.3938136 2.5800629 4.7880211 15.039
0.94235891 -0.078096539 4.8673058 3.25
1.3694639 -0.032458521 4.9705715 4.75
1.0957597 0.23210393 4.9144793 7.0277781
1.3828093 0.2266625 4.997395 7.7809153
1.6373067 0.24409138 5.0859737 6.25
2.2386265 0.15959662 5.149888 4.9444447
2.5646169 0.20002033 5.1862969 4.75
0.15745401 0.5883888 4.8546391 8.5362501
0.65872568 0.54280752 4.8760571 8.7520227
0.975254 0.54499328 4.9011045 9.7058821
1.424737 0.59602433 5.0066848 9.1493731
1.7468431 0.57492429 5.0452986 7.9517908
2.1837463 0.54283142 5.150898 7.7981367
-0.50385898 1.1733422 4.8499541 15.0685
-0.09909521 0.96721625 4.8476591 11.785376
0.2642248 0.92599946 4.8392873 10.296728
0.64023072 0.91597718 4.8431497 11.047526
1.0083324 0.90844631 4.9077373 11.02101
1.4015515 0.99204993 4.9359808 11.639088
1.7763512 0.97146493 5.0484743 11.899873
2.2544575 0.88173145 5.1500602 8.804986
2.4301577 0.82050759 5.1407304 8.0827503
3.4872684 0.83904237 5.1945539 8.5892506
-0.1436681 1.315004 4.9106669 14.690084
0.051436134 1.4048048 4.9464693 16.470222
0.60923946 1.3676858 4.8543396 15.338515
1.0556912 1.3867024 4.9297738 14.251417
1.4102447 1.3595767 4.9789228 15.342202
1.7319481 1.3726723 5.0230613 14.33613
2.2133119 1.3486865 5.1651955 12.792271
2.4976804 1.4977372 5.1737757 15.0825
7.0693364 1.5686142 4.8015728 9.0742502
-0.66112238 1.9106182 4.8657861 19.378584
-0.23946762 1.7954315 4.8364334 16.722813
0.16935192 1.7582814 4.8583589 16.319868
0.62383097 1.7308716 4.8731732 18.059992
1.02494 1.7309558 4.941463 17.173384
1.4024293 1.7436889 5.0015478 16.471952
1.7804717 1.7896543 5.0445795 16.678095
2.0637329 1.7186046 5.0867672 23.06175
4.8709755 1.9382317 4.9715939 13.59225
5.3477316 1.9863485 4.9873099 15.407917
5.8369179 1.9266005 4.9433413 12.087999
6.1833992 1.9429214 4.938261 12.769593
6.6859565 1.9148335 5.1893668 11.096251
6.9278188 1.9057561 5.0616665 11.0815
7.8576546 1.9090612 5.0322089 10.08975
9.3556099 1.8314976 4.8769608 9.0959997
9.7925673 1.7221713 5.008976 8.0860004
10.240114 1.7812223 4.993926 8.0912495
10.700395 1.742594 5.0148573 8.0965004
-6.4565482 2.2976441 5.0722885 12.548
-0.54830855 2.1454098 4.8345504 17.069
-0.11943711 2.1045022 4.9438524 21.571251
0.24513422 2.0741162 4.8774571 19.623325
0.6178183 2.0836482 4.8841891 17.979382
1.0071001 2.1122551 4.8892694 18.836946
1.3564581 2.0818934 4.9371886 19.100838
1.8171448 2.1290619 4.9971199 19.168665
2.2231925 2.1256144 5.0059214 18.848547
2.5873697 2.0850041 5.0290222 17.601158
2.9510994 2.1215169 5.0272121 18.52825
3.3834403 2.1194625 4.9915853 19.431326
3.8751037 2.0871561 5.0530987 17.860546
4.2009349 2.0835693 4.9669476 17.081156
4.6155939 2.066 5.0462804 15.179647
4.949369 2.020062 4.9554987 14.685318
5.3202119 2.065222 4.9398012 13.860166
5.7283177 2.0405769 4.9771438 13.210104
7.3755388 2.0305619 4.9893198 11.074125
-6.4592671 2.529249 5.1287613 12.716834
-6.2708197 2.6269078 4.9544992 15.0465
2.6838846 -0.10195539 5.403327 4.1666665
2.9457443 -0.086732484 5.3299761 4
3.2179081 -0.14654921 5.563622 3
1.9152529 0.38138685 5.2774553 10.0605
2.651499 0.30305952 5.3073421 7.0205002
2.2728126 0.54072636 5.3263226 9.0523129
2.6556807 0.5960182 5.2489834 7.3540211
2.8639457 0.49669221 5.417697 8.5727501
3.9147537 0.75001734 5.4281406 8.0865002
4.2498527 0.77487898 5.4774294 8.0872498
2.1295178 0.92251766 5.2427502 10.164406
2.6613688 0.95589632 5.3657813 10.672256
3.057409 1.0012114 5.3985434 10.981226
3.3907623 0.85051012 5.4348917 8.7115631
3.6800871 1.0663222 5.4685402 9.7545843
1.8779551 1.3748282 5.2839465 18.734583
2.219804 1.3112495 5.2469501 13.270482
2.6402485 1.3386497 5.2768621 11.850124
2.980617 1.4380344 5.3805847 13.996783
3.4610467 1.2562984 5.340373 11.378792
3.6070948 1.595039 5.2654662 13.0895
4.3234944 1.3081821 5.5312376 10.754001
8.3827181 1.2634858 5.415772 8.0760002
1.3214083 1.7946115 5.2318449 18.08
1.779574 1.8496425 5.3218455 17.248833
3.4109247 1.7695326 5.3945765 14.448543
3.9161167 1.9454834 5.5003052 14.838125
4.263876 1.9664953 5.4377365 13.92425
4.6131072 1.9721259 5.3808603 13.650749
5.0951614 1.9332318 5.5633059 13.381001
5.4370933 1.9182256 5.4544907 13.417666
5.7960844 1.9120195 5.4342279 12.5101
6.2124596 1.9409258 5.3648348 12.641376
7.0734901 1.8997369 5.4285645 11.411083
7.4905357 1.929139 5.3915606 11.073
7.8602791 1.8827026 5.3183818 9.5889997
8.3069315 1.7291949 5.5188174 10.07575
9.0518017 1.8168222 5.4290628 8.5847502
9.8557739 1.6949123 5.2597132 8.0854998
10.209512 1.7148969 5.4765506 8.0952501
1.9747522 2.1529458 5.2034063 22.073751
2.2121592 2.1008053 5.4557958 18.953625
2.564194 2.080198 5.3974805 21.568966
2.9814241 2.1226013 5.2874327 19.328875
3.4324107 2.0865629 5.3733492 19.323315
3.7481072 2.048583 5.4051805 16.700689
4.1523705 2.0603156 5.4276199 16.782688
4.5156283 2.0330195 5.4336281 15.333058
5.0104089 2.0011373 5.2897768 16.07275
5.3909459 2.0271018 5.3284221 14.130138
6.829318 2.0143495 5.3712273 12.0725
-6.4521027 2.6281958 5.4696827 12.717292
-6.3388953 2.6911457 5.2660532 15.04725
3.3861506 0.19619857 5.8960395 6
2.6987288 0.59630948 5.6480184 10.561125
3.4218795 0.51579052 5.8960533 8.7816248
2.6943123 1.1072888 5.689239 14.853667
3.1179008 1.1303844 5.8539739 14.0625
4.2320294 0.86594737 5.6765261 8.0900002
2.6905677 1.381853 5.7573318 17.040779
3.5022492 1.2956977 5.8482637 14.064
2.8897429 1.7816367 5.7571545 19.0625
3.3691351 1.8876314 5.7508121 15.66304
3.6843708 1.9647846 5.7422276 18.0655
4.0884795 1.9617872 5.8261747 16.899666
4.6286569 1.9427778 5.8405652 14.358892
4.9833112 1.9797837 5.6949773 14.739917
5.4117308 1.9235114 5.8239403 13.08075
5.7630749 1.92734 5.7886901 12.4105
6.1836572 1.9170463 5.800529 12.081499
6.5583334 1.913182 5.6984539 11.832375
7.2540526 1.865164 5.7149558 10.08275
7.8362131 1.8748924 5.7828979 9.960125
8.2496204 1.8287325 5.829073 10.074084
9.4070024 1.7370206 5.6330686 8.0845003
10.18178 1.6833977 5.9902992 8.0942497
3.1440537 2.0969439 5.6194024 21.316
3.349684 2.0811253 5.8286185 16.500292
3.768647 2.0420842 5.8605251 18.82906
4.3984613 2.0312111 5.9220505 17.06875
-6.4713225 2.6319427 5.7229729 12.8835
2.1496162 2.4735537 5.8598847 21.738377
6.8535323 1.5295171 6.1864753 9.0810003
9.9857912 1.4707508 6.0940928 8.0754995
12.117797 1.5006803 6.3751502 6
3.2767248 1.8406198 6.0745716 14.08625
4.1789942 1.7391598 6.1304007 15.56625
4.9612246 1.9169519 6.2434139 14.968051
5.4624658 1.9014301 6.1391182 13.781725
5.9851646 1.8628659 6.2183514 13.071
6.3823061 1.8677627 6.3406391 12.069
6.5628986 1.8540994 6.2008438 12.071167
7.2969341 1.852753 6.1447487 10.411334
7.779459 1.8418664 6.1576176 10.074834
8.2622862 1.7718734 6.156435 10.074
8.9571638 1.7871995 6.1218681 9.0722504
9.4749699 1.6750913 6.1499457 9.0749998
9.8601875 1.7360737 6.1873569 8.0806875
10.366493 1.748426 6.0007763 8.0734997
10.828067 1.6514537 6.01827 7
3.3040304 2.1990433 6.0916433 16.334499
4.2547727 2.0123651 6.2639122 16.733665
4.4691105 2.0030847 6.2895055 16.067501
-6.4751678 2.6430757 6.2167735 12.0525
-6.4978447 2.9177177 6.2438097 13.0525
10.453912 0.10081335 6.6060996 2.6666667
10.503326 0.58485377 6.624176 4.75
10.450339 1.1333783 6.7177734 6
4.9431615 1.4093392 6.6040964 12.0675
13.834761 1.5462711 6.787219 6
5.3654828 1.8606422 6.7723675 13.401333
5.9000854 1.8298267 6.6481104 13.0695
6.220427 1.828776 6.5909271 12.235416
7.1327043 1.8502178 6.5204353 11.0695
7.4167471 1.7609732 6.6759939 11.07175
7.7749405 1.75315 6.656178 10.069875
8.5747414 1.7253511 6.4758625 10.0735
9.0263853 1.6758901 6.6503105 9.0734997
9.3984413 1.7009344 6.5378962 8.572875
9.7232399 1.6973611 6.412519 8.0930004
2.2772439 3.1342058 6.6144571 23.06975
11.105488 1.576861 6.947422 7
5.870872 1.8124976 6.8881669 12.442625
6.4803643 1.7648185 6.9009972 11.56975
7.9227171 1.6596373 7.0724773 9.5690002
8.2661238 1.6590351 6.8907609 9.4039164
8.647089 1.7005496 6.9457102 9.0725002
9.1937084 1.6972649 6.9709706 9.0705004
3.7321959 2.9829795 7.1178894 18.081499
6.2590852 0.64425164 7.3805337 6.4444447
6.2737284 1.0796218 7.3958597 8.5
7.8160357 1.0972016 7.5718966 8.0675001
6.2375693 1.289135 7.3403907 9
9.0349522 1.5735354 7.5581398 9.0714998
9.2466717 1.5694158 7.3406191 8.0697498
17.223379 1.3545829 7.499558 5
6.3656163 1.6492732 7.4887052 11.068
6.9077134 1.7868723 7.452745 11.069
7.6697874 1.6998804 7.3254519 10.06925
8.2161064 1.6599174 7.3606491 9.5698748
8.6135359 1.6429937 7.5830441 9.0710001
8.9159403 1.6394579 7.2712364 9.0719995
3.9866154 2.924367 7.3136463 16.585751
8.4645138 1.5081489 7.8035302 9.0679998
16.825228 1.2622793 7.6183157 5
7.5016546 1.7211876 7.7207851 10.06925
8.0970573 1.6272531 7.7817488 9.0698748
3.9065273 2.6916256 7.847353 14.08375
4.069212 2.6274571 7.749136 13.0835
4.0207109 2.8808274 7.7518921 14.08325
9.1188211 1.5167741 8.3037758 8.0699997
9.3930101 1.3826547 8.2720194 8.0679998
9.910512 1.4094226 8.275836 8.0684996
10.282078 1.4489932 8.1974592 8.0702496
14.507807 1.3836944 8.0915546 6
7.8640108 1.6142313 8.0432072 9.0690002
3.9413095 2.6948316 8.2370996 13.0825
9.0832205 1.4980607 8.5408649 8.0695
11.32542 1.3559959 8.7426577 7
11.655972 1.3393257 8.5596313 7
14.063092 1.1280183 9.7477551 6
16.469481 1.0101573 9.9094639 5
15.482865 1.0803478 10.298164 5
18.821674 0.67208332 11.831589 4
20.700933 0.29986018 13.806936 4
20.631319 -0.073777489 14.295397 3
