# .PCD v0.7 - Point Cloud Data file format
VERSION 0.7
FIELDS x y z intensity
SIZE 4 4 4 4
TYPE F F F F
COUNT 1 1 1 1
WIDTH 1198
HEIGHT 1
VIEWPOINT 0 0 0 1 0 0 0
POINTS 1198
DATA ascii
-1.4582467 0.68111449 0.22589068 11.82959
1.0600064 0.65185952 0.10570443 10.127251
1.2878448 0.59652078 0.20257182 13.402125
-14.5219 1.0792055 0.18116236 5
-2.1001027 1.0861789 0.2608588 15.260016
-1.9353622 1.031806 0.19204304 15.968809
-1.4675351 1.0965157 0.25650549 14.558741
-0.81931806 0.87650007 0.016583443 16.009001
1.1110665 0.86288738 0.31247079 13.62575
1.3029767 0.95512468 0.23960105 18.582897
-14.601013 1.266886 0.13447952 5.5
-13.229579 1.4591719 0.0068993568 6
-7.8045726 1.4108244 0.24626589 8.0105
-2.0684004 1.4694633 0.29875228 19.97365
-1.9145952 1.4091604 0.17201413 19.651154
-0.85013527 1.4226893 0.14043415 21.339334
1.0847687 1.4690269 0.36218297 22.125834
1.3476661 1.5424181 0.16517341 21.874405
-6.0067472 1.9624035 0.20446253 12.01825
-2.4344258 1.7719841 0.38050437 18.009333
-2.1321528 1.8977745 0.25453705 20.02887
-1.908555 1.7845671 0.21488765 21.414774
1.394688 1.7742686 0.25887179 23.124001
-13.30193 2.1656303 0.09985844 8.0046663
-13.130796 2.2095413 0.14933288 8.0292501
-12.137505 2.1778011 0.18471503 8.0264997
-11.456297 2.2651367 0.1412859 9.0132504
-10.959355 2.2672131 0.28823867 9.0159998
-10.455248 2.3006425 0.17187738 9.0284996
-10.260969 2.3119938 0.2669735 10.01575
-9.832819 2.3353124 0.11187148 10.51225
-9.4173851 2.3166318 0.26501691 10.51525
-7.1074948 2.3799462 0.19499373 12.269501
-2.6039858 2.2142291 0.23601592 17.633249
-2.1403852 2.2091951 0.26688886 22.759251
-1.9320401 2.2440026 0.043770075 23.01075
-8.1022196 2.4025133 0.21355033 11.0205
-7.8889322 2.403914 0.27013803 13.011
-6.59478 2.4629145 0.39910877 13.360333
-6.0737901 2.478771 0.25594488 14.351749
-5.3688068 2.4496622 0.30905199 15.0175
-2.4848552 2.5325224 0.22811961 21.790155
-2.2423809 2.4970803 0.13480908 21.950741
-1.6932886 2.4911158 0.16753983 22.706663
-1.3876482 2.6019282 0.30996454 23.130251
-14.586408 0.15453678 0.56848311 3
-14.05172 0.19322857 0.52191544 3
-2.0788662 0.27402177 0.63244998 5.8198705
-1.9788724 0.30288965 0.54743695 7.278604
-1.4307928 0.2607519 0.73849636 7.6824169
1.169392 0.26734015 0.73254097 9.0469294
1.2265495 0.28252718 0.49489594 10.042041
-14.562799 0.42558396 0.51953673 3.8
-2.066138 0.6054638 0.67839456 10.589211
-1.8761703 0.62762123 0.46282688 10.702174
-1.4543678 0.656537 0.64312834 10.963768
-1.1884693 0.67531264 0.73822355 9.5208254
1.1350929 0.60181141 0.70252681 13.984112
1.2503611 0.59429395 0.5170266 13.962568
-14.629285 0.98445326 0.59345883 5.1666665
-14.077257 0.88182563 0.57032347 4.5
-2.0858529 1.0372773 0.6421352 15.657043
-1.8804616 0.92822814 0.46779081 12.721427
-1.4336834 1.0183812 0.63692045 14.547401
-1.1012077 1.0439701 0.75001365 15.968575
-0.67232436 1.1816995 0.78703225 23.004398
1.1683509 0.99738628 0.71400613 20.714409
1.2615641 1.037227 0.56895322 19.604952
-14.689278 1.2546443 0.51614404 6
-13.560405 1.4202062 0.65244877 6
-2.5166957 1.372651 0.59255534 15.453944
-2.1141512 1.4198484 0.65320063 19.802923
-1.8890498 1.3490582 0.51160967 17.001884
-1.4766701 1.406871 0.60479116 16.564133
-0.96417844 1.2614963 0.71590316 20.979374
1.0025704 1.3501407 0.66730762 21.1245
1.255393 1.3758062 0.66605526 23.121502
-14.48009 1.7644044 0.53227615 7
-6.8005986 1.8794619 0.7901926 12.011
-6.4474583 1.7986525 0.7357595 12.0175
-2.6395323 1.8976629 0.66870904 20.4074
-2.1152728 1.8027575 0.60508311 21.538055
-1.7270343 1.7607914 0.66366559 18.887182
-1.465428 1.7718022 0.71410561 19.212042
-1.1894195 1.8989491 0.77060437 20
-14.338267 2.0963161 0.79575539 8.0150003
-13.035158 2.1622179 0.60944355 8.0161247
-12.237158 2.182534 0.58829117 9.0139999
-11.814887 2.1871803 0.63932657 8.3563337
-11.561685 2.231674 0.50241423 9.0205002
-11.18542 2.2429826 0.59248161 9.0135002
-10.41554 2.3018975 0.53694916 10.013
-10.281498 2.2654946 0.63937086 9.5216255
-9.731699 2.2788725 0.73008525 10.52025
-9.3854761 2.2912421 0.57546359 10.2249
-8.9693756 2.3529987 0.66169178 11.017625
-8.6184702 2.3537488 0.64682603 12.01275
-8.1228294 2.3553658 0.49966845 12.233945
-7.4054189 2.3858457 0.76256967 13.022
-6.8262606 2.3783059 0.54568696 13.5155
-6.3314476 2.3996272 0.70907152 14.02025
-2.6806149 2.2241707 0.74942183 23.008001
-2.2149191 2.0898151 0.62955832 21.791313
-1.6366223 2.1906717 0.69330454 23.12925
-1.4210663 2.228122 0.6983065 22.631166
-8.6075459 2.4010189 0.47696662 11.0215
-7.4053211 2.4087532 0.61716843 13.018
-6.62959 2.4139795 0.6557976 14.266687
-6.1933379 2.4593389 0.54683441 14.684667
-5.3361988 2.4399462 0.70772064 16.512749
-4.8680639 2.4394603 0.59655666 17.01775
-4.289588 2.4824789 0.71566212 18.417101
-2.5812666 2.6438415 0.60370767 21.533968
-2.1882768 2.5289099 0.60471088 22.710905
-1.8392212 2.475033 0.63687485 22.705479
-2.2235622 2.8085382 0.58302975 23.13175
-14.62295 0.11296082 0.92942858 3
-14.178022 0.0071810745 1.1846333 3
-2.7476637 0.23397833 1.1162419 5
-2.1176689 0.25692347 0.98723447 5.8663158
-0.80595946 0.37442437 0.94725657 8.1280003
-0.50530773 0.31374064 1.0787452 6.7293224
-0.21408844 0.29798585 1.1417056 6.18048
1.1137996 0.23932064 1.0162908 8.3542795
1.2036873 0.24976417 0.846358 8.0939999
-14.626716 0.50762266 0.91868782 4
-2.7397449 0.6693458 1.090354 10.010833
-2.1327472 0.59939659 0.99436557 10.591686
-1.9617438 0.40881547 1.1647774 9.0419998
-0.90247834 0.61538804 0.90502262 10.222616
-0.59420455 0.5921976 1.0362492 11.185945
-0.32159036 0.55354393 1.1453514 11.497123
0.75675941 0.64867812 1.1376946 14.123499
1.1092519 0.59228039 1.0070363 15.390491
1.2127379 0.68960375 0.93588841 16.378714
-14.576295 0.98362428 0.96036148 5
-2.7564785 1.1309794 1.0918031 14.510751
-2.1616235 1.0055778 0.98839569 15.686036
-1.3456051 1.0480028 0.81289542 18.133751
-0.93550873 0.98890245 0.89335936 16.168997
-0.55105156 1.0183347 1.0928311 16.393419
-0.2776967 0.92645299 1.177295 14.922681
0.75241578 0.82631487 0.98523092 15.1245
1.0963013 0.95681542 1.0219678 20.885689
1.225927 0.94739026 0.9529599 20.42625
-14.673392 1.3145839 0.99845839 5.8333335
-2.7522514 1.4306163 1.07751 17.475195
-2.1710446 1.4225367 0.97977859 20.315777
-1.2358912 1.3415176 0.82266665 16.6315
-0.97573203 1.4503533 0.9609769 19.533178
-0.57147574 1.4097867 1.1191401 20.591255
-14.575737 1.9641896 1.0829964 7
-6.8643613 1.8218095 0.9226892 11.0115
-6.5440893 1.8522023 0.93635488 12.01825
-6.114974 1.8569567 1.1627691 12.026
-3.2975178 1.902939 1.1415086 21.005751
-2.7136996 1.80739 1.0012219 20.672268
-2.1784792 1.7159462 1.0169336 22.390966
-1.25465 1.8068266 0.81499362 21.877127
-0.94009191 1.7725334 0.97032356 22.63274
-0.79578137 1.7105885 1.0221572 21.62925
-12.927705 2.1235945 1.1404595 8.0157499
-12.737379 2.1148539 0.87815857 8.0214996
-12.05863 2.1924319 0.95265782 8.5214996
-11.469258 2.2038121 1.1245193 9.0147495
-10.548877 2.2409859 1.0734851 9.6841669
-10.132375 2.2576671 1.0013553 10.025001
-9.8292036 2.2844219 0.97220749 10.351833
-9.0134335 2.3020616 1.0338552 11.019094
-8.147851 2.3265686 1.0723027 12.348834
-7.8016458 2.3491611 0.92356837 12.418
-7.3392234 2.3306742 1.0069311 12.61895
-6.9600267 2.3455672 0.9517011 13.518
-6.6776509 2.342731 1.0657047 13.934459
-6.2567835 2.3594158 0.99709064 14.627372
-5.6900539 2.389775 1.0961201 15.525249
-5.1942015 2.3878553 1.1396886 16.0205
-4.7473831 2.3994603 0.9942112 17.019249
-3.2775035 2.1593738 1.0696595 22.671831
-3.1493471 2.1893075 1.1874217 22.005001
-2.7135375 2.1799867 0.97792649 23.009501
-2.2257905 2.0669432 0.85953569 21.133751
-1.3217962 2.0655231 0.97296417 22.77243
-1.0826 2.0707023 0.90121269 22.4125
-6.5051804 2.4123738 0.96128696 14.155133
-6.1804633 2.4200993 1.0109086 14.729229
-5.8361773 2.4234097 1.0718741 15.685168
-5.3118744 2.4208558 1.1628915 17.295053
-4.9915328 2.4393981 1.0854855 18.034946
-4.5859413 2.4684951 1.0251484 18.659573
-4.3214788 2.4632468 1.1374424 20.7565
-3.7486839 2.5197413 0.96384174 20.853456
-3.3439765 2.568224 1.1232805 23.026499
-3.0090466 2.5039003 0.99667406 22.718666
-2.5812399 2.6192136 0.92119193 22.476681
-2.2375145 2.5563757 0.92206359 22.968498
-14.209993 -0.027080495 1.3421388 3
-2.5300725 0.25718626 1.3135352 5.8494263
-2.145879 0.26271623 1.3837035 6.042305
-0.48971277 0.34890285 1.2731768 9.6957855
-0.13407727 0.30347922 1.3578886 8.4314871
0.16332431 0.27731204 1.3814027 7.1417284
0.55633509 0.33212295 1.5724567 8.7484102
1.0565269 0.31056941 1.3758868 9.4665985
-14.240948 0.58552432 1.301748 4
-13.854728 0.73267984 1.5997665 4
-2.8009632 0.68855911 1.3000106 10.5
-2.6311274 0.59632576 1.2130949 9.2097969
-2.1740546 0.6042943 1.4164301 10.794858
-1.62738 0.48912519 1.2914687 10.0105
-0.96252096 0.54623049 1.5405118 15.133
-0.49792808 0.56527072 1.2360189 14.016236
-0.11939696 0.60270894 1.2841178 12.863853
0.23041467 0.60315359 1.4126692 13.303279
0.58347887 0.62272549 1.5249209 13.527798
1.0607407 0.58668506 1.3833411 15.692175
-14.240451 0.90291733 1.3286988 4.8333335
-2.8183117 1.0838864 1.3457716 14.7565
-2.5720251 1.0015085 1.3262671 14.239139
-2.185848 1.0073754 1.3956083 15.8943
-1.8780737 0.95840311 1.4301749 16.678209
-1.4344984 0.94511104 1.2851143 21.5415
-0.1480412 1.0010203 1.2866968 18.347408
0.20958154 0.96865594 1.4102232 18.448917
0.54244596 0.99315351 1.5092469 19.111042
1.0478424 0.95745492 1.4133341 20.913172
1.2025652 0.86250585 1.2033176 18.09
-14.278543 1.5078779 1.356225 6
-2.8107896 1.5328414 1.3689978 19.262751
-2.5310776 1.3398514 1.3528724 18.10302
-2.1743021 1.3880581 1.3959576 20.51343
-0.15341802 1.3053565 1.3019376 21.477797
0.15643458 1.3021517 1.4023923 21.739653
0.50194806 1.2970082 1.4013623 21.657249
1.1339159 1.2646775 1.3331316 22.921585
-14.618207 1.7934104 1.2151961 7
-14.244553 1.9275807 1.3984964 7
-7.81672 1.9061033 1.3401525 11.0115
-5.9229755 1.8402157 1.353608 12.028
-3.1807792 1.9980651 1.2480496 21.005501
-2.5651505 1.8000251 1.4085919 22.201759
-2.1541953 1.7002211 1.4065924 22.897507
-0.32682967 1.6134415 1.2601032 22.873749
-13.932403 2.1406982 1.4701076 8.0159998
-12.415421 2.0884242 1.2001386 8.0220003
-12.256351 2.1318872 1.4181449 8.4224491
-11.525455 2.1469162 1.4466352 9.024333
-11.050705 2.2004976 1.3386014 9.5233746
-10.019911 2.2267153 1.3281283 10.51525
-9.8422413 2.2254839 1.3707945 10.031
-9.5202618 2.2320979 1.3800035 10.02825
-8.9915991 2.257159 1.4462067 11.02825
-8.7186604 2.2815075 1.4638662 11.769749
-8.1483421 2.3131588 1.3519731 12.02425
-7.8053727 2.2944648 1.4004564 12.2207
-7.3917108 2.3299055 1.4852847 13.185417
-6.8751016 2.3304284 1.4084406 13.564083
-6.586062 2.3386664 1.3073013 14.10007
-6.2072172 2.3403583 1.4290332 15.121105
-5.8106055 2.3363383 1.4283999 15.684292
-5.4831748 2.3192806 1.4446192 16.3535
-5.0187254 2.3737533 1.364572 17.221043
-4.4134493 2.3743851 1.5471387 20.006001
-3.202395 2.1065495 1.3154848 22.006001
-6.6988649 2.4086938 1.498677 14.812201
-6.0844245 2.4153342 1.3572702 15.028
-5.3877826 2.4289365 1.3935201 16.769814
-4.9689445 2.4211242 1.4386816 18.13999
-4.6705589 2.447396 1.3577615 18.549986
-4.2277298 2.4590347 1.367512 20.295799
-3.8151834 2.4606576 1.4615403 22.039534
-3.5503078 2.485692 1.409517 22.447186
-13.612016 0.23096508 1.7952657 3
-13.540109 0.17268088 1.8844079 3
-2.1068807 0.27277443 1.7267895 6.0124722
-0.091210425 0.2802507 1.9144175 11.184906
0.23263274 0.29575861 1.9117146 10.277296
0.64719379 0.25659615 1.7811073 8.708437
1.0115066 0.25283104 1.7946615 7.7503362
1.3129025 0.31039149 1.9025837 7.001708
-13.568899 0.57536465 1.8180478 4
-2.4989948 0.59249973 1.8009288 10.0195
-2.1772003 0.55251312 1.7314199 9.8883448
-0.080671728 0.53400111 1.9244878 18.022366
0.23758876 0.57623816 1.9265759 17.213118
0.65443617 0.57910067 1.7052379 14.867289
0.98844725 0.58924168 1.7791562 13.721561
1.3257116 0.60164291 1.895828 11.930487
1.6765442 0.61834592 1.9013939 9.5059519
-13.770282 1.0131732 1.7933363 5
-2.5008271 0.99251509 1.6988039 14.518499
-2.1382408 1.0789747 1.713889 16.893616
0.35343844 0.84333003 1.9081155 22.363167
0.66189158 0.97867906 1.6678146 21.040026
1.0054678 0.93502051 1.7910913 19.164913
1.3555611 0.99810052 1.8769344 17.702469
1.6165168 0.99542201 1.9339284 15.779647
-11.860295 1.5656718 1.6564813 7
-2.5114543 1.450422 1.7006896 19.518375
-2.1828115 1.385082 1.6561093 20.20459
0.73041821 1.4235815 1.602607 23.1075
1.0230118 1.3068191 1.7727236 22.764038
1.2727765 1.3531609 1.8609712 21.999107
-13.914206 1.7383761 1.7146655 6.75
-6.9156275 1.9418006 1.7831376 13.0125
-2.5071087 1.6719137 1.6260395 21.351
-2.1932626 1.7193218 1.6258736 22.705862
1.0696831 1.6218654 1.9067407 23.08375
-12.165424 2.081085 1.7907187 8.3626661
-11.725259 2.1429102 1.8229713 9.0162506
-11.206996 2.1338701 1.9356661 9.0297499
-10.885463 2.1667435 1.8080568 10.016
-10.709742 2.1690507 1.8343709 9.5292492
-10.339214 2.2304831 1.6852068 10.019
-9.7196693 2.215606 1.7665493 11.016251
-9.4138584 2.2199743 1.8243269 10.032333
-8.9178982 2.291697 1.8608125 11.274312
-8.5992231 2.2411444 1.7586285 11.274
-8.142807 2.2531374 1.8453759 12.021084
-7.8448143 2.2851946 1.807616 12.4718
-7.4238305 2.2542219 1.8203435 12.033125
-6.9207883 2.3220236 1.7965802 13.935805
-6.6333218 2.3045034 1.7087495 13.59075
-6.2345724 2.3222406 1.8028436 14.802137
-5.8538942 2.337157 1.8064544 15.8194
-5.3815808 2.3503139 1.7506262 16.817493
-4.9876728 2.3812714 1.8091323 17.789625
-4.5905366 2.3726444 1.8221287 18.762041
-4.2281451 2.3680956 1.8429852 20.286722
-3.8185177 2.376929 1.9291642 21.734474
-6.8311644 2.4781454 1.8443627 15.0145
-6.2551484 2.4318752 1.833732 15.028749
-5.7475996 2.4483705 1.8450794 18.0145
-5.2236643 2.4167526 1.7339838 18.5135
-5.1543341 2.4389434 1.7283823 17.027126
-4.6481562 2.4272904 1.6922398 19.251049
-4.1988049 2.4315205 1.8121337 20.710379
-3.8020864 2.4567752 1.769455 22.254683
-3.4894202 2.4447606 1.8233227 22.640799
-13.626307 0.28027815 2.0696733 3
-1.5789089 0.34107512 2.3813713 14.011
0.38249803 0.23284286 2.0473504 9.7649565
0.73222077 0.30628076 2.0549748 9.795084
0.9744541 0.29115245 2.1218555 8.9472809
1.4086426 0.2836448 2.1367335 8.0621901
1.7689307 0.23707087 2.2064505 6.5511913
2.0657873 0.32447267 2.3229947 7.6132412
2.6486206 0.33436799 2.2606742 4
-13.649242 0.53814209 2.1008241 3.75
-2.5432134 0.6082738 2.3491514 11.0245
-2.0697322 0.48694432 2.185153 10.036
-1.0553173 0.41171336 2.3029661 10.05925
0.62417132 0.5427587 2.0811315 15.647213
0.99994481 0.59935236 2.1164956 14.445682
1.4200656 0.59631723 2.1761539 13.055155
1.7902985 0.60046178 2.1954217 11.783836
2.1288314 0.59572077 2.2467668 9.5701542
2.5893679 0.69890219 2.3849819 9.5855007
-13.636147 1.0063949 2.1119928 5
-2.0888157 1.0060052 2.1438222 17.528376
0.6146071 0.93409795 2.0676529 21.827738
0.99796379 1.0288215 2.1101556 20.616804
1.4710718 0.94155967 2.1751256 18.318066
1.7916255 0.98249549 2.240279 17.411413
2.1524789 1.0428129 2.3012638 15.771558
-13.648375 1.2687323 2.242557 6
-13.598811 1.2981758 2.0817282 6
-2.1197264 1.362571 2.1262543 21.249001
0.96192122 1.3758041 2.1817567 22.421835
1.4261409 1.3293916 2.1770153 21.894308
1.7520396 1.3806399 2.2448008 21.416962
2.0994163 1.40905 2.3638148 21.028708
-13.642965 1.6568406 2.1673553 7
-5.4513807 1.8408248 2.0790648 14.679583
1.0577612 1.6799711 2.0337443 23.083
1.7769983 1.8087578 2.2581563 23.091749
2.1693563 1.7591841 2.3888326 21.5895
-12.596037 2.0465183 2.2109146 8.0302505
-10.966995 2.1419053 2.2237697 9.5236254
-10.282358 2.2077515 2.3768706 10.024
-9.4660645 2.2341111 2.1444483 10.362083
-8.9745808 2.2449226 2.0866618 11.52
-8.4179688 2.2322345 2.1509974 11.03
-8.2125587 2.2375245 2.2178562 11.525001
-7.8255692 2.2509155 2.2385721 12.193361
-7.3468938 2.2573752 2.2598505 12.859376
-7.0019059 2.2656074 2.1922901 13.8183
-6.5999541 2.2950232 2.1632245 13.956822
-6.2808013 2.3364344 2.1761935 14.995279
-5.8258138 2.3211248 2.1859739 15.964129
-5.2923379 2.3435066 2.1991479 16.787821
-5.0017867 2.3537683 2.1517808 18.196861
-4.6545968 2.3529541 2.2047081 18.885473
-4.1965208 2.367085 2.2677736 20.10766
-3.7987845 2.3549123 2.2241676 21.512854
-3.4858205 2.3797398 2.2909615 22.489853
-3.0481184 2.3588693 2.2329361 22.699249
-2.6393132 2.3620646 2.2558062 22.551125
-2.2381027 2.3474796 2.2420065 23.054001
3.0644433 2.3516719 2.3333566 23.102501
-6.2469096 2.4270313 2.1554396 15.691917
-5.2427359 2.4165342 2.3344092 17.03825
-5.0909171 2.4192662 2.3312669 17.034
-4.5059462 2.4115176 2.1409879 20.148083
-4.1379428 2.4104798 2.2079878 22.349518
-3.8108945 2.43154 2.1606972 22.03326
-3.440583 2.4238229 2.1784754 22.528938
-3.168726 2.4036932 2.1921067 23.04425
-2.3424938 0.087412998 2.4512763 4
1.7823088 0.29922476 2.429482 8.1022501
2.2226083 0.17221618 2.448633 6.1151562
2.5344074 0.29579261 2.58304 5.3820515
-3.7748947 0.59205091 2.6861386 9.6813335
-3.5411711 0.50940335 2.7542081 9.0135002
1.8910481 0.60899526 2.4280632 11.099083
2.2595282 0.60683382 2.4732614 11.165609
2.5641088 0.59746403 2.6274083 10.20968
2.9171748 0.58298504 2.7116213 8.2915001
3.4277773 0.47182447 2.6418326 5
-4.6566238 1.064185 2.5099707 12.015
-0.97072393 1.0819657 2.5950181 18.061501
1.9078687 0.95780116 2.4546626 15.482291
2.2765665 0.94369674 2.5139632 15.881802
2.5562007 0.9937706 2.6304393 14.437323
3.0309894 1.0677692 2.6762779 12.443902
-2.8188088 1.2033741 2.5424831 17.026249
1.9226539 1.4390244 2.4522083 19.595125
2.284481 1.3649719 2.5299578 19.750006
2.6292295 1.3577385 2.7146797 18.851826
2.9293132 1.248378 2.7731094 14.75
-12.455405 1.9639872 2.5817788 8.0310001
-2.5202742 1.8050671 2.6960516 22.004499
2.2476768 1.7453859 2.5253258 22.568569
2.5822372 1.7771546 2.6956728 21.581951
2.87865 1.7331723 2.6982319 20.193062
-12.405608 2.0087032 2.5622053 8.0369997
-10.69225 2.1057479 2.5223205 9.0310001
-9.8615561 2.1546049 2.5934391 10.031
-9.4387989 2.1919889 2.5132041 10.033751
-8.8899641 2.2048717 2.5143306 11.357874
-8.749259 2.2007592 2.4214301 11.024
-8.2721777 2.2426207 2.5912697 11.692
-7.7247424 2.2110977 2.5764487 12.5245
-7.4220929 2.2105911 2.6254425 12.610168
-7.0016446 2.2217171 2.5743656 12.864334
-6.6726661 2.280607 2.5391326 14.160051
-6.214695 2.2460184 2.5943987 14.200166
-5.8427758 2.3069715 2.6104131 15.199636
-5.3666682 2.3249419 2.6242945 16.956785
-5.0222316 2.3432739 2.5717001 17.789381
-4.5783257 2.3583441 2.6411688 19.19401
-4.1741929 2.3520422 2.6821871 20.767389
-3.8034978 2.3433123 2.617955 21.171249
-3.4034045 2.3392167 2.6732414 21.87015
-3.0179505 2.3710625 2.5822742 22.513321
-2.6495762 2.3383212 2.6421525 22.1455
-2.226815 2.3436034 2.6127837 23.054083
-1.8123517 2.3486955 2.5932772 23.057999
-1.56084 2.3642225 2.780051 23.060249
2.6477296 2.1730847 2.6921372 22.897562
2.9971581 2.1672032 2.6367593 22.492275
3.4036055 2.3619885 2.6936677 22.099625
4.1268978 2.2542815 2.6556716 19.1
-6.5021982 2.446305 2.570786 15.03125
-5.1995115 2.4079576 2.5568025 17.035
-4.6711559 2.4112751 2.4124374 18.161062
-4.1891532 2.4176602 2.5391428 19.5355
-3.7082801 2.4076786 2.6670353 22.070232
-3.3985481 2.433058 2.5754759 22.923721
-2.951649 2.427386 2.6902084 23.048
-6.4799538 -0.0020299293 3.1213274 3
-6.4998055 0.099263281 3.0706456 3.5
-3.1740363 0.37208232 2.8696017 8.5144997
-2.5550959 0.31259871 3.1222432 8.8489447
-0.65221488 0.11473148 3.0209346 5
3.1025817 0.17210002 2.9542494 3
-6.4960942 0.52538449 3.1117306 6
-2.669332 0.61104888 2.9782305 11.762209
-2.2877493 0.62779033 3.1606827 13.450527
-1.4197102 0.49567962 2.9346921 16.007999
-1.1229395 0.48724794 3.0103583 16.0075
-0.66572934 0.67014033 2.9074585 12.398833
-0.27798292 0.56273437 3.1606901 10.0695
2.9877927 0.55641574 2.8554447 8.9175138
3.4778519 0.68412763 3.0404606 8.9706669
3.7313457 0.61035138 3.1636641 8.831625
-8.1908817 0.98969173 3.0893054 6
-3.9342809 1.0578638 2.8131227 13.017
-3.3430493 0.85810614 3.0313244 13.352417
-2.9994445 0.89149457 3.0241899 14.8156
-2.5515857 0.90639579 3.1666589 16.235916
-2.3482604 0.90054011 3.1928062 15.012
2.7819655 0.98627496 2.8829608 13.598
2.9483318 1.011901 2.8616006 14.820705
3.3423162 1.0429776 2.9932311 12.510284
4.1551104 0.91766196 3.1511114 9.0790005
4.6825852 1.177614 3.1201711 10.0795
-5.6669493 1.5630244 3.0764914 11.037
-5.5226035 1.5445179 3.1548347 11.0375
-3.4065402 1.410534 3.0848217 18.769249
-3.05426 1.3282458 3.0750427 19.350332
-2.6524637 1.3679513 3.1277628 19.871952
-2.3012111 1.2214304 3.1765666 20.728214
2.6688538 1.5026075 2.8171601 20.086021
3.041296 1.3093978 2.8973403 16.178715
3.4524298 1.350495 3.0958927 16.416185
-7.2181001 1.9566041 3.0799413 12.019
-4.1583595 1.8717477 2.8995242 17.0285
-3.3655512 1.736542 3.0654614 22.018999
-2.8952706 1.742967 2.9870646 21.676834
-2.5800183 1.841866 3.0952575 23.01025
2.2828591 1.7875904 2.9416771 22.902502
2.7199278 1.8026732 2.8900695 21.507896
3.0105639 1.7197022 2.9278998 20.058899
3.4752316 1.9044974 2.9627748 18.581249
9.5470753 1.8953871 3.1712496 9.0985003
-10.669677 2.035815 2.9176693 9.0380001
-9.530714 2.0878897 3.0792065 10.03875
-8.6919146 2.2176776 3.0909364 11.0285
-8.302043 2.1441555 3.0450459 10.787749
-7.7136903 2.2071784 2.9137435 12.648813
-7.2670798 2.1918192 3.0074475 12.366
-6.9374981 2.2254341 2.959712 13.25211
-6.6071334 2.2421136 2.9979084 13.929439
-6.1544657 2.240211 3.0197735 14.048352
-5.8572536 2.2698717 2.9846559 15.393237
-5.4234042 2.2851188 3.0129743 16.542028
-4.953908 2.3018947 2.9327166 17.034876
-4.6090722 2.3261344 2.9947722 18.312532
-4.1955919 2.3221915 3.0336959 19.574522
-3.8177881 2.3338778 2.9910517 20.393944
-3.3329754 2.3418076 2.9990995 21.531288
-2.9925709 2.3225172 2.9612682 21.384436
-2.6416345 2.3417668 3.0349984 21.907232
-2.1454237 2.3422768 3.0094934 22.45615
-1.783842 2.3641293 3.0781801 23.0585
-1.3537146 2.3785982 2.9071071 23.062
-1.0328692 2.3862724 3.0622511 23.064499
0.23631933 2.2934163 3.1166129 23.07375
0.62156773 2.3036344 3.1455462 23.0765
1.1293454 2.2725103 3.1000979 22.08
1.2469023 2.2814763 2.9991329 23.080999
2.6010876 2.3229446 3.038228 22.869688
3.015285 2.2986329 2.9722829 22.158382
3.421819 2.268893 3.0468824 20.481625
3.8033459 2.2421691 3.0861866 18.659418
4.1773348 2.2329144 3.0406415 17.696438
4.589345 2.2465854 3.0372827 17.099188
4.9034142 2.174185 3.1612155 16.099501
5.4814224 2.2191336 3.0615363 15.098249
5.6740375 2.1673207 3.008261 14.223875
8.3729658 2.0196943 3.0277071 10.09875
-6.8410168 2.4232969 3.0964549 15.026
-3.8560653 2.4125061 2.9318027 23.021999
3.3997397 2.4989927 3.0784771 22.9811
3.7445004 2.4420059 3.1840675 21.08025
-1.696896 -0.01302024 3.4637012 5.75
-1.5376323 -0.08702299 3.5682766 4
-5.9295168 0.37709913 3.39363 5
-4.7230434 0.26487404 3.2337613 4
-2.1367681 0.12115477 3.3614964 6.7076502
-1.8279257 0.19263616 3.3760343 8.377388
-1.4947613 0.183256 3.5379331 9.1853971
-1.0950447 0.10414088 3.5814052 8.4623337
-0.6903435 0.38240081 3.2060454 16.008499
3.9898901 0.24812792 3.4494133 4
4.0369539 0.39362329 3.4805684 5
-13.786965 0.66776097 3.5641234 4
-5.940001 0.6845696 3.3919885 7.349833
-4.5123329 0.54365438 3.5648184 8.0240002
-3.7323053 0.78377497 3.393091 10.032
-3.0150123 0.54162014 3.3805051 9.8944998
-2.4441128 0.53798705 3.2890797 12.654073
-2.146399 0.60862064 3.3877602 14.453027
-1.8561845 0.58592904 3.4191473 14.255003
-1.5205928 0.45700365 3.5587556 13.858034
4.0643659 0.45903951 3.4706168 6
-6.3741422 0.92934442 3.276051 8.5200005
-5.9692249 1.0099919 3.4374475 9.25
-5.3954492 0.8221674 3.5345459 9.0214996
-4.5279484 1.0656836 3.4255633 9.87325
-3.4567852 0.9745751 3.53812 12.036416
-2.9202368 1.1817299 3.2452626 18.896563
-2.5970175 0.94496059 3.2769921 16.339151
-2.1786704 1.0327612 3.3542144 19.182137
-1.7844377 1.0098939 3.4741092 21.067787
-1.5408485 0.95027989 3.574115 20.979502
-0.17289695 1.0554433 3.5364878 15.0705
3.5743506 1.065717 3.208581 13.083
3.8794107 1.0089791 3.2635059 11.08
4.1052828 1.1846079 3.4889007 13.0815
4.4362836 0.91422355 3.2617373 8.0784998
4.8781734 1.0621881 3.4625897 8.5777502
-7.7826009 1.4546156 3.4236336 8.04175
-6.7696786 1.4308004 3.5491309 9.0430002
-6.3783574 1.2336792 3.2997634 10.02
-4.0178618 1.3732783 3.5394936 13.041333
-3.6962569 1.2733256 3.5921659 12.709
-3.4862151 1.3838615 3.5236349 16.033001
-2.9670539 1.5499651 3.2848845 22.021626
-2.5327623 1.3227611 3.3245225 21.602476
-2.2874947 1.2466972 3.287174 19.51
-1.801178 1.2758659 3.4550974 22.096527
3.7349496 1.2495708 3.2378144 15.0825
4.4304781 1.48437 3.3140278 12.745334
-6.8946838 1.8079339 3.2245827 12
-6.4823089 1.820568 3.4143734 12.0115
-6.2708888 1.8058157 3.473691 11.85175
-5.7895842 1.6876875 3.5346346 12.525625
-4.9583993 1.7221938 3.4202967 16.022417
-4.7896514 1.7537513 3.4062319 16.021
-4.2236977 1.6841145 3.3915398 15.782812
-3.8939073 1.8475344 3.3627024 16.540501
-2.5445945 1.6996576 3.298605 22.008499
3.3815758 1.7963668 3.2268281 19.0825
3.7141435 1.7962856 3.4098628 17.081499
4.6839399 1.9697782 3.3277411 15.079
7.3246584 1.9940486 3.3907428 11.0975
9.710351 1.8619826 3.4921215 9.0977497
-8.9311485 2.2010736 3.295485 11.029
-7.8704958 2.1152611 3.3396645 11.04025
-7.4223762 2.2095394 3.2699156 11.538
-6.9945726 2.1568186 3.3558598 12.565169
-6.6025763 2.2000501 3.3491948 13.437141
-6.162076 2.1923485 3.428206 13.939276
-5.8194242 2.2258024 3.4176126 14.895792
-5.4171114 2.2297935 3.3880341 15.758341
-4.9012218 2.2582724 3.2979829 16.855181
-4.5519462 2.288121 3.3709519 17.684464
-4.1801095 2.2905655 3.393779 19.351437
-3.8000937 2.2987063 3.4035389 19.855024
-3.4335299 2.2980137 3.3737457 20.765364
-2.9924507 2.3060286 3.4059365 20.92746
-2.623914 2.2881579 3.3994236 19.597174
-2.2296059 2.3199108 3.4401677 22.127092
-1.8021365 2.2879829 3.415271 22.270002
-1.4423708 2.2958233 3.458286 22.90246
-1.0445193 2.3759429 3.4766452 23.064417
-0.55997741 2.3335421 3.4943419 22.401417
-0.2781862 2.2970505 3.5079026 22.195
0.17901611 2.3023667 3.3935244 22.90654
0.68869483 2.2874446 3.391253 22.576752
0.98883682 2.2861185 3.3156476 22.495583
1.4423598 2.2421513 3.4691081 21.939116
2.3640382 2.2710929 3.4899292 22.705202
2.6601009 2.2867277 3.4124522 22.891687
2.9542778 2.2789357 3.4046235 22.088331
3.4441793 2.2663889 3.435149 20.802099
3.8055127 2.2578948 3.4444482 19.607298
4.1178279 2.2245202 3.3576653 17.926916
4.6007905 2.1614978 3.4511287 16.034166
5.0662456 2.1491377 3.4405234 14.837008
5.3661418 2.1238687 3.346822 14.631216
5.7953224 2.1109636 3.4760878 13.4944
6.2655468 2.0726783 3.5252638 12.426666
6.5382409 2.1135802 3.4410145 12.59875
7.2232685 2.0577517 3.5679414 11.431499
3.4555326 2.4598289 3.375834 22.878975
-5.4098234 -0.055604942 3.9365616 3
-2.4178431 -0.0033897161 3.797822 3
-2.2924662 -0.018762261 3.8228705 3
-1.0601856 -0.031984206 3.6713948 5.8499999
-0.58764017 -0.02415292 3.8430638 6.5
-5.6302729 0.19021691 3.688652 3.25
-5.2898016 0.21359619 3.8037362 3.55
-4.8839769 0.31601351 3.8290772 4.125
-4.5092006 0.27228516 3.9224765 3.6666667
-4.2466192 0.23051733 3.9137683 4
-3.7359226 0.2491653 3.9241729 4.25
-3.3351932 0.24626696 3.931973 5.2556248
-2.9796922 0.20173718 3.8456008 6.3047614
-2.7350519 0.19505836 3.9735436 7
-2.3009751 0.27110454 3.8463564 6.977469
-1.7887532 0.18524766 3.7142308 7.6744752
-1.2995297 0.1976148 3.7279482 9.2847853
-1.0115174 0.15782051 3.7861757 9.9858513
-0.6639939 0.18787214 3.8877239 11.127008
-0.32361209 0.1472996 3.9307086 11.783379
0.21269938 0.18366089 3.7295263 5
-5.6185451 0.49203324 3.6782122 5
-5.3400464 0.59009248 3.8104184 5.9895
-4.96071 0.56074506 3.8429594 6
-4.5611234 0.6735974 3.9284446 6.7906113
-4.259553 0.61652815 3.7900844 7.5124998
-3.8130209 0.64248306 3.8497546 8.042016
-3.4655056 0.6232273 3.8867767 8.5942297
-2.9885302 0.4980253 3.9041877 9.6842108
-2.7298429 0.55660462 3.9213886 10.021
-1.7957253 0.52377814 3.6207006 15.007808
-1.3399881 0.54050314 3.7526536 15.372643
-1.0035681 0.49499145 3.8084543 17.335804
-0.71689713 0.57073313 3.8652015 20.66412
0.76259333 0.6997357 3.9769139 10.077
-5.8561821 1.1716412 3.8408 8.7113333
-5.3635197 1.017002 3.817013 8.3094234
-4.9423075 1.0214906 3.9404585 8.4090633
-4.5342727 1.0146511 3.9098079 8.2113333
-4.1899452 1.011734 3.8939247 10.361333
-3.7601988 1.0061899 3.8743591 11.584195
-3.4283292 0.97557384 3.8897409 13.340825
-2.9537005 0.99451339 3.7979846 13.914902
-2.5777056 0.92381811 3.8462114 13.237827
-2.3057365 0.9140721 3.9869852 12.549624
-1.8249069 0.95755321 3.6879332 21.639147
-1.3711402 0.89952117 3.6943531 20.964231
-1.0117829 0.83004057 3.8997521 21.338072
0.28612429 0.91849822 3.7294791 13.074
4.2194834 0.86224288 3.6037288 8.7439995
-6.6444044 1.345925 3.6371665 8.0445004
-6.3764243 1.2705922 3.689537 8.0450001
-5.9177346 1.4901965 3.6868925 10.0465
-5.3513694 1.4520227 3.7802384 10.286992
-4.9919581 1.4725379 3.8684959 10.995483
-4.6164498 1.4304229 3.9204545 11.544631
-4.2228608 1.4313194 3.9188666 13.43315
-3.8080585 1.344627 3.8584828 14.111782
-3.424618 1.3573531 3.8125513 15.655289
-2.920686 1.3965832 3.8657694 19.133202
-2.6113014 1.329972 3.8790908 16.632242
-2.3795769 1.2439119 3.9306788 15.5
6.4501567 1.2316185 3.9575 8.0764999
-11.140853 1.9376265 3.9410224 8.0365
-10.77802 1.9814117 3.8955102 9.0365
-6.1968722 1.8796966 3.6165195 11.54375
-5.741713 1.8109951 3.7539153 11.84445
-5.3852792 1.7842515 3.8192995 12.305257
-4.8642368 1.674873 3.7496052 14.033
-4.4713616 1.7071599 3.6890106 16.401436
-4.1302395 1.6595583 3.8071518 15.041833
-3.7611928 1.7152804 3.871546 15.912387
-3.4088471 1.794611 3.7381446 18.117033
-2.9659314 1.7220433 3.8272965 19.962582
-2.5825365 1.757573 3.8990548 20.425257
4.8637843 1.9812721 3.9206645 14.0865
6.0933728 1.9354172 3.8412461 12.093375
7.4291382 1.9843736 3.8290882 11.096251
9.1424389 1.9279027 3.9749079 9.0979996
9.92449 1.8289459 3.8448243 8.0970001
-9.5150995 2.1753201 3.7501159 10.03
-7.2676964 2.124105 3.7526245 12.038
-6.9662743 2.2333391 3.7127686 13.694249
-6.737668 2.2527182 3.9199746 14.029
-6.2116637 2.1560915 3.740833 13.117541
-5.791091 2.1731811 3.714005 13.997271
-5.4073057 2.1549306 3.7868733 14.381702
-5.01649 2.2024934 3.7557986 15.792639
-4.5806637 2.2423723 3.7843399 16.919571
-4.2138333 2.2445452 3.8494864 17.322121
-3.8151085 2.2662141 3.8121996 19.833483
-3.3900039 2.2765908 3.7906098 20.018759
-2.9688537 2.2454576 3.8533545 21.117895
-2.6507189 2.2801998 3.7611198 20.950914
-2.1661897 2.2771876 3.7630699 20.139648
-1.8466522 2.2918491 3.7979331 21.277895
-1.4977257 2.2814937 3.7480578 21.062
-1.0139089 2.3070498 3.7172785 21.6437
-0.61016148 2.2784183 3.7350547 21.701101
-0.12886946 2.2895279 3.7413187 22.070986
0.15774365 2.2799082 3.7862976 22.117748
0.57260132 2.2557993 3.7665882 21.742285
1.0594068 2.2165539 3.798645 21.370461
1.341525 2.2660196 3.7675495 21.706188
1.7178421 2.2285204 3.8045511 21.305925
2.1827137 2.2453225 3.7753112 22.170876
2.5727065 2.303658 3.8139505 22.403891
3.0155346 2.2661793 3.7851515 21.669388
3.4094579 2.2447877 3.8004539 20.833822
3.8005807 2.2018917 3.8094008 19.115133
4.2014174 2.1684422 3.8117523 17.583889
4.6003447 2.1610856 3.8143899 16.619099
4.9945436 2.1398768 3.7604339 14.753136
5.3807921 2.1357915 3.8146999 14.318815
5.7574615 2.131371 3.7907393 13.617013
6.1552968 2.0710933 3.8144815 12.616904
6.598249 2.0473056 3.8273971 11.896999
6.912271 2.0594876 3.8863087 11.087667
-7.0261941 2.4254353 3.8145635 15.0215
-6.6381779 2.4318798 3.8901663 15.029
-6.2190151 2.4762444 3.7254109 15
2.7990019 2.4096928 3.8815627 23.091
3.5394998 2.4147642 3.979013 22.075001
-5.3095655 -0.061136022 4.2634735 3
-2.55584 -0.012941366 4.1797743 3.25
-1.3590593 -0.044826876 4.3040824 4
-0.96423995 -0.0047236495 4.3500657 3
-0.12208866 -0.072884955 4.2731457 4.8499999
0.22004008 -0.054302473 4.2069225 5.5740738
-4.1028223 0.24927838 4.0790606 3.6666667
-3.651715 0.29435405 4.1002898 4.5
-3.3583107 0.21505272 4.0567989 4.7750001
-3.006947 0.25087607 4.1132212 4.7777777
-2.5883758 0.21434638 4.1281776 5.3753967
-2.2071126 0.21733509 4.1860166 6.3901205
-1.7606516 0.16139068 4.2534761 6.1772165
-1.420725 0.1486277 4.2959542 6.0122485
-0.99363613 0.13823155 4.3468852 6.7118011
-0.53180599 0.18132471 4.1029215 10.111348
-0.20001505 0.19158524 4.2263274 11.069212
0.16844012 0.19050077 4.2340961 12.060313
0.74536043 0.26498196 4.3621187 12.190903
1.1099203 0.25411701 4.1876369 5.5
-4.9641604 0.70122313 4.027626 6
-4.0831971 0.6857177 4.1006079 7.3952498
-3.6329184 0.58572412 4.1088457 6.3874998
-3.3650274 0.65023243 4.1241136 7.7218575
-2.9635053 0.63837761 4.1239004 8.2255917
-2.5833659 0.59467888 4.158112 9.1288805
-2.1988029 0.56094229 4.2143903 9.9844265
-1.795413 0.55591547 4.2421637 11.110341
-1.4319738 0.58275491 4.354548 11.996438
-1.0373689 0.60476679 4.3098688 12.755861
-0.57734334 0.56331915 4.1625524 17.365475
-0.24010324 0.5428111 4.2349882 18.7341
0.14870627 0.57874262 4.3065701 20.218281
0.55754042 0.57746202 4.1891394 14.732041
0.8789987 0.75465488 4.134757 10.0775
1.2786639 0.62966496 4.3019791 8.5795002
-5.3081903 0.99527407 4.1835041 9.04
-5.0715861 1.0468653 4.0249891 8.4470997
-4.5516739 0.9615109 4.0451202 8.3004999
-4.191709 1.0306246 4.0780201 8.8355751
-3.725204 1.0015121 4.0707417 9.8086014
-3.3617611 1.0000939 4.1020832 10.570583
-3.0228271 0.97019213 4.1201758 11.304505
-2.5984848 0.96933538 4.2001691 12.257949
-2.2185626 0.95362097 4.2608771 12.993193
-1.8232015 0.96062189 4.2585049 15.134681
-1.5088236 0.95477736 4.3145008 15.956009
-1.1277204 0.89624703 4.3017054 16.248079
-0.63941145 0.89366734 4.1997056 20.342997
-0.12942436 0.98946857 4.3464146 21.991367
0.50114357 0.99483019 4.2014918 12.075
5.0411181 0.91782784 4.0482683 8.5764999
-5.4024019 1.2569883 4.3541503 11.0345
-4.5292349 1.377176 4.0488544 10.797313
-4.2118297 1.4061919 4.1090584 11.120074
-3.7191408 1.4330989 4.1634011 11.822029
-3.3926907 1.4010149 4.1578479 12.639801
-2.9903893 1.3482774 4.1702299 13.938611
-2.6216309 1.3929442 4.2476873 15.477528
-2.2104084 1.3607866 4.2904162 16.723963
-1.863778 1.3049228 4.2800021 17.450453
-1.4409497 1.2533952 4.2831855 21.914398
-1.1370722 1.2253548 4.371582 19.67997
-10.781765 1.9486846 4.2478619 9.0372505
-4.1721587 1.6472374 4.1580029 12.2005
-3.7639453 1.7753564 4.1355515 14.493896
-3.3994286 1.7616754 4.1574478 15.542421
-2.9763634 1.8228219 4.2014155 17.924381
-2.6130855 1.7424099 4.2550755 17.526041
-2.220201 1.7470864 4.3356519 17.120733
-1.8312036 1.7471533 4.2972255 20.360043
-1.4668884 1.7688462 4.2643433 22.055954
-1.1332132 1.7324299 4.3690138 22.201752
6.093935 1.9381354 4.2537403 12.092
6.5654168 1.8635843 4.2648015 10.881399
6.9689598 1.982895 4.1820631 11.092751
7.3273301 1.9796606 4.2230916 10.760167
7.8011665 1.9529804 4.2451668 10.0937
8.2588186 1.9683572 4.0311356 10.0985
8.51647 1.8749928 4.3191547 9.0869999
9.0709457 1.8798411 4.2695861 9.0953751
9.3584566 1.8412013 4.1888933 9.0959997
9.7309647 1.8241973 4.1291909 8.0983753
10.192917 1.8307699 4.107852 8.0965004
-7.7623158 2.1807582 4.0798459 12.0315
-7.0536623 2.0766103 4.2009296 12.039499
-6.3549867 2.2012963 4.2652092 14.0375
-5.4715247 2.1529291 4.1670003 14.816472
-5.0670147 2.1599033 4.0720634 15.0415
-4.4484076 2.1933658 4.0229654 15.0505
-4.1459699 2.24264 4.0734429 16.79525
-3.738441 2.1247492 4.1147532 16.358477
-3.4253497 2.1494336 4.1333933 18.467882
-3.0221505 2.1748786 4.1873198 19.1262
-2.6093702 2.2149801 4.2083316 19.617867
-2.2125618 2.1893008 4.2712092 19.544073
-1.7653787 2.1997993 4.2767749 20.116222
-1.4259983 2.2492013 4.1871772 20.762266
-0.98845226 2.2468827 4.1786566 21.070606
-0.620134 2.2535455 4.2020593 21.43223
-0.20695972 2.2454255 4.2072978 21.054871
0.18622637 2.2378936 4.2061858 20.964828
0.63496834 2.2395933 4.1760893 21.542847
1.0072839 2.2252684 4.2147436 20.56448
1.4128268 2.2127745 4.1863213 20.941082
1.7714473 2.1860199 4.2703528 19.546263
2.1922729 2.2244198 4.230371 21.543261
2.584573 2.2535813 4.1938486 22.222673
2.9991429 2.2028441 4.1958265 20.890589
3.4066749 2.1999009 4.1809778 20.51844
3.7856271 2.1601484 4.2242169 18.585258
4.1844258 2.1244421 4.2553654 17.028099
4.6327128 2.1102433 4.1935415 16.02578
5.002461 2.1102676 4.2211714 15.460277
5.3855391 2.0843315 4.2273312 14.267163
5.816843 2.0850754 4.1694164 13.190604
6.1730862 2.0486186 4.2170596 12.425918
6.5692811 2.0278044 4.1825447 11.7921
7.063673 2.0100555 4.2647295 11.346001
7.4453511 2.0282023 4.3402019 11.096
7.6314316 2.0155704 4.2358627 11.0965
8.2856827 2.0394645 4.0187292 10.0975
-6.3126965 2.5111198 4.1910601 15.037251
-1.0045726 -0.022867013 4.4728112 2.5
-0.70073473 -0.029894054 4.5623016 3
0.14696094 -0.024920873 4.4777522 5.6875
0.55301696 -0.024948401 4.7027569 3.6666667
0.88432294 -0.055576444 4.7712107 5
1.2771971 -0.041596044 4.6222839 5.5
-4.9345336 0.011231143 4.4219794 3
-2.9709506 0.31236243 4.6840048 6
-2.5313051 0.22533451 4.4781637 6.0212498
-2.2582939 0.090123489 4.7669263 4
-1.8059515 0.12400841 4.5220919 4.8888888
-1.3128016 0.18040696 4.4580054 5.2265625
-1.0231738 0.21772745 4.473557 6.5045362
-0.63238108 0.17633678 4.5089722 6.6206541
-0.21349549 0.16733882 4.5947199 6.622745
0.21334015 0.17824584 4.6285353 7.3108692
0.57150304 0.19379318 4.6308417 8.1914129
0.98065335 0.20996988 4.7168431 8.4341297
1.387349 0.32624263 4.7161493 11
1.7487869 0.10376906 4.7033501 6.0293751
2.1647985 0.074673161 4.6742182 4
2.9519863 0.15592965 4.7106776 4
-2.5794427 0.65191805 4.5417881 9.8800001
-2.2529671 0.67601609 4.5322247 11.544001
-1.7509815 0.56823808 4.4320135 7.6180706
-1.3114138 0.56118435 4.4693637 10.062388
-0.98959833 0.55050349 4.4932704 10.189253
-0.5978229 0.54447192 4.5590305 11.507156
-0.20868132 0.53938198 4.6328554 11.059479
0.18066369 0.55401105 4.6553521 12.523458
0.59533346 0.58063614 4.6428742 14.552946
1.0297768 0.56027216 4.7109127 12.699236
1.3868575 0.5418669 4.7234764 13.405367
1.7904072 0.55673087 4.7651691 9.4142914
-5.4726443 0.82811666 4.5787268 8.0430002
-4.2376161 0.85257626 4.7147303 9.0459995
-3.4514074 0.87844735 4.4483061 11.03875
-2.9563167 0.9093135 4.480845 12.0405
-2.5494642 0.90529126 4.4544821 10.550625
-2.1897719 1.0286971 4.519824 12.693025
-1.7512728 1.066324 4.4866438 11.700687
-1.4146439 0.96236461 4.4866018 13.705599
-0.98617154 0.9676069 4.526598 15.943167
-0.60454154 0.92877501 4.5926919 14.78968
-0.22002433 0.9223246 4.6639123 13.934866
0.15299878 0.94432408 4.689785 15.812024
0.59518248 0.96892077 4.7199497 15.598068
0.98833811 0.95629036 4.7327194 17.095043
1.4169339 0.86146021 4.7856631 14.738335
1.701467 0.89543593 4.7587872 12.955542
2.1865973 1.0155573 4.7136831 12.083824
2.4991109 0.86425209 4.6512303 10.0855
-3.5369339 1.2807912 4.4731016 14.0385
-2.5718641 1.389895 4.4874473 13.525084
-2.1685367 1.4697312 4.4405084 14.411396
-1.7721783 1.3699168 4.4813762 14.205512
-1.3976836 1.3733537 4.5284772 16.458666
-1.0034111 1.391374 4.5659628 16.154287
-0.59504342 1.3083822 4.6097155 16.097441
-0.20754261 1.3367389 4.6830707 17.724895
0.19179197 1.3443787 4.7383089 16.856804
0.55850857 1.335241 4.7377276 15.86415
0.91082555 1.2782319 4.7932115 19.448814
1.5404935 1.3728265 4.7997551 19.079
1.932917 1.5569342 4.6597772 14.749416
3.3497579 1.2298576 4.752759 11.5885
6.7403908 1.5612605 4.6104875 10.074625
-10.580116 1.9123552 4.5714993 8.5380001
-10.157761 1.9177564 4.706389 9.0384998
-6.6280551 1.9856972 4.7130861 12.0415
-2.5914872 1.8636863 4.4250426 15.05875
-2.1086884 1.7847319 4.4566469 15.797299
-1.7718167 1.7501884 4.4628997 17.063622
-1.3900397 1.7225916 4.5089369 17.455338
-1.0282186 1.720048 4.5785227 17.712231
-0.59327126 1.7095655 4.6761575 17.544182
-0.21502289 1.7596477 4.7310772 16.950371
0.10984131 1.768705 4.7508221 18.354155
0.58858633 1.6553879 4.7582417 18.41663
0.97548169 1.7324553 4.7267704 19.812458
1.2491521 1.6556326 4.6979351 23.077499
1.8999088 1.6130501 4.7524958 13.831625
4.6922412 1.8447435 4.583096 14.08475
5.1121273 1.9835382 4.7860918 14.341
5.5694695 1.9913533 4.775681 12.08025
5.85672 1.9835354 4.4419265 13.251916
6.2031608 1.9515063 4.6035008 12.376893
6.658011 1.9921236 4.5609312 11.28475
6.9627156 1.9630762 4.5917501 10.977834
7.3607831 1.9444298 4.6324582 10.420584
7.7866716 1.9419925 4.5726309 10.09305
8.5288248 1.8675276 4.6648607 9.0916882
8.8502808 1.8489941 4.6444492 9.0924997
9.2732677 1.866556 4.5027137 8.7601671
9.8899164 1.811826 4.4976501 8.0976248
10.037816 1.7645999 4.6153135 8.0869999
11.037952 1.7266397 4.5836196 8.0957499
-6.2334251 2.3858514 4.652154 15.0345
-5.1738744 2.1893592 4.5544019 15.043167
-2.8575468 2.2010498 4.546567 20.0495
-2.5111091 2.1144943 4.4423766 17.258301
-2.1708338 2.1274254 4.5124326 19.399502
-1.8031635 2.0918994 4.4905553 18.185352
-1.3750749 2.113764 4.5829701 19.374792
-0.99200177 2.1309407 4.6324425 19.053562
-0.64583004 2.0946844 4.6871419 18.913317
-0.2010164 2.1204443 4.651679 19.099916
0.16069835 2.1562891 4.6933622 19.464138
0.62633234 2.1559298 4.6153531 19.594135
0.97150242 2.1929264 4.5972123 19.690426
1.4172215 2.1595826 4.5889792 19.294659
1.8286411 2.1930208 4.6245403 21.073692
2.1927278 2.1803622 4.6276255 21.540236
2.5480092 2.1817982 4.5829902 20.812012
2.9700699 2.1622581 4.5950646 20.105947
3.3693664 2.1493697 4.6419535 19.533621
3.7802916 2.1248608 4.578023 17.915897
4.1875372 2.1053948 4.6298456 16.858658
4.6294022 2.0857162 4.5668797 15.739225
4.9743609 2.0689209 4.5958037 14.816573
5.3789549 2.0598438 4.5521455 14.170344
5.7770734 2.0314825 4.5818138 13.515191
6.1865578 2.0486114 4.5271139 12.459292
6.6741524 2.0557494 4.6644206 11.762333
6.9223857 2.0276535 4.5478811 11.595
-6.3938136 2.5800629 4.7880211 15.039
0.88415623 -0.093173802 4.8548331 3
-0.099584103 0.36485267 4.8102322 9.0679998
0.66149729 0.11039773 4.8241854 5.5
1.0517823 0.21470727 4.9036293 6.7596483
1.3889146 0.21250246 4.9571767 6.8691707
1.7187452 0.22499365 4.9791713 5.1421113
2.2571998 0.164176 5.1353831 4.5999999
2.5148525 0.20854229 5.1712117 4.75
3.4748662 0.018688887 5.1878214 3
-1.9089593 0.71614915 4.8490963 10.055625
-1.3538442 0.48840562 4.853035 8.059
-0.91446859 0.43435013 4.8689342 8.0620003
-0.62999725 0.50689799 4.826088 9.0640001
0.15745401 0.5883888 4.8546391 8.5362501
0.57532382 0.5864448 4.8382425 10.742219
0.99426907 0.56025898 4.8908701 11.374623
1.4015193 0.62174386 4.9943433 11.007104
1.7646605 0.58298427 5.0627375 8.6663694
2.1979718 0.56379837 5.097548 7.8345003
2.5535338 0.60970563 5.1368294 7.5278335
2.8132029 0.75940621 5.0009713 9.0854998
-6.3946457 1.0440381 4.8880978 8.0424995
-4.8493829 1.1782871 4.8464532 10.045
-3.3546524 1.0750813 4.8742533 11.04925
-0.50385898 1.1733422 4.8499541 15.0685
-0.18168408 1.0789821 4.8946834 14.569126
0.25635004 0.887995 4.8338127 10.593457
0.59591508 0.91981 4.8484802 13.028569
0.99397105 0.97775692 4.9067001 14.101455
1.4004393 0.99612755 4.9621077 12.275149
1.7495846 0.96565038 5.0626683 11.572521
2.2008479 0.942617 5.0903831 9.9346027
2.5363646 0.91438651 5.0943379 9.5835419
3.0804126 0.86518055 5.0469818 10.585
3.475565 0.94238663 5.0683851 9.8380003
3.7886407 1.0035201 5.1082354 10.0885
4.07935 1.1425009 4.9307246 10.09
-2.9582326 1.2415384 5.0189748 13.05125
-2.3178012 1.2782393 4.8773479 14.0535
-0.16438572 1.3249255 4.8910975 14.213834
0.217281 1.4096935 4.8992424 16.518625
0.59335703 1.3858809 4.8767385 16.888969
1.0294422 1.3411778 4.9308162 16.081799
1.3883997 1.3700835 4.996737 16.279263
1.7363592 1.360158 5.0300469 14.091515
2.16272 1.3821759 5.1029935 13.319806
2.5320721 1.3675323 5.075439 14.416667
2.921149 1.2813944 4.8787441 12.8365
7.0693364 1.5686142 4.8015728 9.0742502
-10.717913 1.8855602 4.8564329 8.0384998
-9.9582548 1.9142544 4.8551569 9.0389996
-6.405426 1.9544652 5.1186304 12.043
-2.2438836 1.6955916 4.8744502 18.053749
-1.7883447 1.8355145 4.9060116 19.556332
-0.55257916 1.8628439 4.8907733 20.317438
-0.18256116 1.7973144 4.8291202 16.575787
0.24015775 1.7893974 4.8656535 17.743916
0.6024456 1.7504982 4.8899779 18.151073
0.99046725 1.7300678 4.9340625 18.52486
1.3994266 1.7412537 5.0210419 17.087866
1.7957195 1.7723863 5.0422401 16.777784
2.1144972 1.7154126 4.9871979 20.0725
3.8483138 1.7022226 5.1032991 13.755501
4.0281439 1.9248029 5.1595821 14.0765
4.5163331 1.9864805 4.9702268 16.074749
4.9482861 1.9502178 5.0233173 13.531278
5.4301171 1.9828058 5.0165505 13.46087
5.8194389 1.96364 4.9656143 12.78184
6.2170277 1.9462696 4.9680815 12.423398
6.599791 1.9538155 5.018034 11.306751
6.9642315 1.916178 5.0469275 10.891251
7.36586 1.9146808 5.0940108 10.48315
7.8023462 1.9086646 5.0062113 9.8398438
8.0400467 1.8934224 4.9928961 9.5863752
8.9806099 1.8425188 4.9259243 9.0934992
9.4079113 1.7893039 4.9446402 8.592063
9.7191153 1.7557305 4.8833098 8.091917
10.222842 1.7784525 5.0002236 8.0934172
10.700395 1.742594 5.0148573 8.0965004
-6.4781556 2.311326 5.0636897 12.3815
-4.4782119 2.1278062 4.9347005 16.046
-2.0358253 2.0650573 4.9337916 20.555
-0.53545463 2.0820558 4.8484116 16.06925
-0.14536728 2.0702941 4.89463 18.963875
0.22200687 2.0900948 4.8722534 18.611561
0.58828175 2.0904267 4.9262586 19.084986
1.0199949 2.1180837 4.9302883 19.852482
1.3643457 2.108315 4.9936066 19.979525
1.8185012 2.1477087 4.9985461 20.316046
2.2152016 2.1296635 5.0250716 19.644699
2.6019154 2.1199803 4.9831324 19.657331
2.9828939 2.1093469 5.0198259 19.199968
3.3954754 2.1074221 5.0122995 18.656641
3.8357451 2.0884452 4.9884486 17.514904
4.2109118 2.0635018 5.006691 16.18523
4.6004925 2.0570662 4.9955316 15.175218
4.9390521 2.030298 4.9603176 14.716943
5.3117666 2.0397298 4.9631805 13.980528
5.7787786 2.0366852 4.976562 13.112404
6.3000121 2.0038383 4.8870687 12.094501
6.5209794 2.0160079 4.8026357 12.07525
7.3755388 2.0305619 4.9893198 11.074125
-6.5119352 2.4877076 5.0442529 12.882042
-6.3076797 2.6953194 4.9927816 14.380666
2.657248 -0.066763721 5.4302063 4.5
2.9457443 -0.086732484 5.3299761 4
3.2179081 -0.14654921 5.563622 3
1.9152529 0.38138685 5.2774553 10.0605
2.3736503 0.021000072 5.23593 3.5
2.6639855 0.23407403 5.3542128 6.0582328
3.0402467 0.08438874 5.4041476 3.6666667
3.3443842 0.14158781 5.2498093 3.75
1.4079039 0.50255698 5.2163572 9.5760002
1.915568 0.62773073 5.3695426 10.737166
2.1637216 0.56588006 5.2789245 9.0478611
2.6092496 0.58700722 5.2823987 7.5943685
2.8977234 0.62970781 5.3882008 8.2327499
3.3986516 0.60515124 5.310576 7.0432501
3.9147537 0.75001734 5.4281406 8.0865002
4.2498527 0.77487898 5.4774294 8.0872498
1.4906327 0.84087229 5.2354803 12.909833
1.8398056 1.0422256 5.2617369 13.16198
2.1391411 0.92280072 5.3235455 11.65167
2.6192071 0.9233532 5.3183455 10.306968
3.0257537 0.97211176 5.3620262 10.269885
3.3658986 0.93557805 5.3700171 9.1229753
3.6876771 1.0385073 5.3833632 9.3962984
4.2721663 1.0584192 5.4206228 8.5900002
1.5334649 1.2400262 5.3213539 16.3265
1.8260396 1.3154554 5.2591338 16.098036
2.2080834 1.3434138 5.2788734 13.537239
2.6124833 1.3504986 5.3156385 12.721951
2.9597631 1.3873932 5.4177203 13.471109
3.4290581 1.2986991 5.3722267 11.336389
3.673378 1.5848821 5.4274969 12.54475
4.3234944 1.3081821 5.5312376 10.754001
4.8274364 1.3130277 5.5583405 9.0909996
8.3827181 1.2634858 5.415772 8.0760002
1.3214083 1.7946115 5.2318449 18.08
1.8006665 1.8069209 5.3284712 18.407917
2.2358992 1.8099153 5.3162613 19.318874
2.6183898 1.6553527 5.414258 16.08075
3.0123959 1.7421761 5.5275674 15.456031
3.4064999 1.8042781 5.386055 13.900833
3.8285687 1.8821547 5.4583077 14.226631
4.2111125 1.9168775 5.4511418 14.086774
4.6192145 1.9743571 5.4110379 13.901888
5.0420189 1.9670585 5.4301686 13.611928
5.4856186 1.9391948 5.4705439 13.165948
5.7865663 1.9272926 5.3908672 12.404474
6.1945319 1.9273934 5.422461 12.105501
6.6854157 1.9107538 5.4753194 11.156073
6.9975786 1.9029568 5.428268 11.025832
7.4501419 1.8939428 5.4037361 10.4955
7.7789116 1.8672419 5.420218 9.6720829
8.1894331 1.8234583 5.4330664 9.4874001
8.5966501 1.8200909 5.4029398 9.09025
8.992877 1.8136277 5.4380302 8.58675
9.8058949 1.7158021 5.4029846 8.0900002
10.228542 1.720282 5.4554305 8.0958338
10.583098 1.6903737 5.2577572 8.0942497
1.8876944 2.1112468 5.2843142 19.727734
2.2127149 2.1214731 5.3955922 20.978989
2.5801656 2.0881374 5.3830104 20.460135
2.9974716 2.0871513 5.3803959 18.549444
3.422941 2.0555577 5.3851647 17.741795
3.7896237 2.0447106 5.3995838 16.744436
4.2116032 2.0460956 5.4193106 16.013422
