# .PCD v0.7 - Point Cloud Data file format
VERSION 0.7
FIELDS x y z intensity
SIZE 4 4 4 4
TYPE F F F F
COUNT 1 1 1 1
WIDTH 1308
HEIGHT 1
VIEWPOINT 0 0 0 1 0 0 0
POINTS 1308
DATA ascii
4.7446609 1.7906419 -15.802317 4
4.8358941 0.93588233 -15.632436 3
6.3198495 1.9793924 -15.397038 4
-1.0347831 0.76048374 -6.2719998 3.5
-1.8215497 0.52296448 -4.1513481 3
-1.8018284 0.76384491 -4.1234961 4
-1.8033853 0.97704691 -4.0965905 5
-1.8241768 1.7273288 -4.086483 9
-1.8326118 2.0438035 -4.0349231 10
-1.9023702 1.1686277 -3.8924618 6
-1.8809764 1.2488185 -3.8357105 7
-1.9238758 1.6412535 -3.8089852 8
-2.0461707 0.87562937 -3.6322606 5
-2.0554056 1.0351069 -3.6226964 6
-2.0770235 0.37532464 -3.5562501 3
-2.0743468 0.54464293 -3.5797086 4
-2.1098299 1.4804888 -3.4682817 8
-2.1282234 0.58148599 -3.3846173 4
-2.1859343 1.2798222 -3.2272406 7
-2.144486 2.0509424 -3.3269205 11
-2.1304955 2.4387753 -3.3028393 12.5
-2.133038 2.7280965 -3.2696304 14
-2.2060666 1.000571 -3.0678902 6
-2.2891231 1.3151408 -3.0020094 8
-2.2208352 1.5913059 -3.1106853 9
-2.3199899 0.60406333 -2.8922181 4
-2.3063807 2.5917292 -2.9753108 14
-2.2767241 2.684638 -2.9922357 15
-2.6669638 0.37312463 -2.7427428 3
-2.6960943 0.5096612 -2.6917324 4
-2.4745417 0.45639113 -2.6376362 3
-2.6693983 0.75368631 -2.7102282 5
-2.4455643 0.83460897 -2.6426549 5.5
-2.3493247 1.892992 -2.7681384 11
-2.6815741 2.1063466 -2.6628602 12
-2.4520206 2.1158326 -2.6166687 12
-2.3790421 2.3668823 -2.7540655 13
-2.7875099 0.8517037 -2.4144433 6
-2.5156813 1.5403935 -2.4080148 10
-2.4956238 2.4924026 -2.4992726 14.5
-3.0734839 0.37409166 -2.2356951 4
-2.9883304 0.23585311 -2.3967431 3
-3.0613563 0.6371156 -2.2597716 5
-3.0785456 0.84367245 -2.2344115 6
-2.5524874 1.1306325 -2.3977928 7.5
-3.0501986 1.3145764 -2.2505181 8
-2.5395317 1.3839707 -2.398653 9
-2.852061 2.0696495 -2.3254788 12
-2.8880188 2.2296348 -2.3410285 13
-2.9100912 2.5598273 -2.1621978 15
-1.5985681 0.31999844 -1.915957 5.5
-1.5628173 0.79258037 -1.9808829 12
-1.6218555 0.053216048 -1.7640238 3
-1.6450528 0.48016459 -1.6880016 8
-1.6335799 0.66465908 -1.6028984 10.5
-1.6173967 1.1002061 -1.7826355 14
-1.6916094 1.2402174 -1.6768715 16
-1.646346 0.065219253 -1.5902095 3.5
-1.6667634 0.29265586 -1.4456217 6.5
-1.6519542 0.51717454 -1.5400887 9.5
-1.6323156 0.70322502 -1.5490428 12
-1.7046741 0.82742459 -1.5703058 12
-1.6736832 1.269293 -1.5392574 15.333333
-1.6742457 0.075141579 -1.2537893 3.5
-1.7105799 0.29893982 -1.2103606 6
-1.7288423 0.47421736 -1.2029544 8.5
-1.6941199 0.71080399 -1.3232872 11.25
-1.68727 0.84402418 -1.3175027 13
-1.716464 1.0268948 -1.313782 15
-1.7604604 0.16009824 -1.0838003 3.6666667
-14.256121 0.35923043 -1.1374302 3
-1.7536333 0.29663461 -1.0560509 5.125
-1.7509053 0.49444461 -1.0155311 9
-14.239981 0.82307923 -1.1302557 4
-1.7293917 0.87875909 -1.1445361 14
-14.285197 1.0410014 -1.1140208 5
-1.7435217 1.393598 -1.0688947 14
-14.236528 2.1197362 -1.1268983 7
-1.7768489 0.035904512 -0.87347031 3
-1.8293669 0.23711099 -0.80211055 3.5
-1.7737957 0.25344974 -0.84954274 4
-13.736431 0.46022171 -0.91671753 3.5
-1.7278608 0.45546007 -0.94937658 8.75
-1.7735468 0.70083833 -0.91913944 10.9375
-13.802927 0.96275431 -0.91397619 5
-1.7657628 0.94856393 -0.94369191 12.75
-14.191949 1.0203274 -0.85089302 5
-1.787113 1.4800518 -0.98733228 18.5
-14.267552 1.8853714 -0.8045764 7
-1.8159413 0.16800062 -0.78133249 4
-1.7952988 0.088586837 -0.72286355 3.5
-1.8210044 0.30197638 -0.78706753 6
-1.8143187 0.57910717 -0.71383321 9.25
-1.7546599 0.54948461 -0.71184307 11.5
-1.838263 0.64196825 -0.63292414 10.5
-1.7755511 0.67765999 -0.7019279 13
-1.8309277 0.89710903 -0.70023394 11.666667
-1.769987 0.8689974 -0.73387182 14.75
-1.8246398 1.088668 -0.74346888 15
-1.7802528 1.3520212 -0.7199316 20.5
-14.217675 1.5236748 -0.78587818 6
-1.843994 0.18336505 -0.43790469 4.2222219
-1.8450214 0.33770904 -0.5556367 6.5
-13.540986 0.49618214 -0.59510517 3
-1.8704127 0.4145118 -0.48048699 7
-1.7805896 0.49862534 -0.53187799 11
-1.3758339 0.42702889 -0.43143952 9
1.4279926 0.44022691 -0.44328809 11
-13.426292 0.74278212 -0.52984142 4
-1.8561037 0.64809942 -0.43900049 10
-1.7642945 0.62934637 -0.52596003 13
1.4029499 0.62393939 -0.47247776 14
-1.844359 0.89224356 -0.47185016 14.166667
-1.858687 1.0675147 -0.52206266 14.6
-1.831239 1.2071264 -0.52718914 14.5
1.3403167 0.16869093 -0.33916685 5.5
-1.8485622 0.31071335 -0.3009544 7.333333
1.3571661 0.27925435 -0.37502214 8
-1.8526531 0.4797419 -0.25654367 10.125
-1.7392632 0.47968554 -0.39234269 5.5
1.4002184 0.41479376 -0.30654162 11
-1.8974402 0.70233059 -0.30804449 11.083334
1.4288636 0.61139911 -0.32778871 14
-13.441917 0.95393914 -0.33931589 5
-1.8756195 0.97292703 -0.33472908 16.166666
-1.882941 1.1326857 -0.32325292 15
-1.8776537 1.3027266 -0.34396231 19.5
-1.9018445 1.5092671 -0.31459343 19.5
-2.1413093 0.09870708 -0.061532497 3
-1.9435712 0.14608808 -0.028257608 3
1.2916894 0.17676258 -0.10880186 5.75
-2.1627197 0.24654271 -0.074104905 4.5
-1.8881587 0.2941502 -0.14439979 4.5
1.3119215 0.30963373 -0.074024469 9.333333
-13.695256 0.49287319 -0.13792801 3.5
-1.8776959 0.51230121 -0.094465718 9.25
1.3045127 0.57975268 -0.029995501 13.75
-1.9125688 0.74491644 -0.14271691 13.333334
1.3737298 0.6687538 -0.11684692 16.5
-13.282501 0.93655181 -0.092231274 5
-1.9163911 0.88903159 -0.10549586 13.285714
-1.8819784 1.0864532 -0.10871527 15.125
-2.1426356 1.3756069 -0.063232899 16
-1.9331683 1.335669 -0.079684496 18.75
-13.232842 1.4589822 -0.026195526 6
-2.14201 1.4771174 -0.054270983 17
-13.305047 1.8952849 -0.010771275 7
-13.317723 2.1929832 -0.0078687668 8
-14.658726 0.18047193 0.027161121 3
-1.9113172 0.032582089 0.1089654 3
1.2749181 0.18729845 0.1528784 4.5
-14.451065 0.35164243 0.17735147 3
-2.1655307 0.37080458 0.1424365 6
-1.9468572 0.26139751 0.10373623 5.5
1.2640834 0.31870955 0.14498422 8.1750002
-1.9303665 0.50977433 0.16406453 8.75
1.2870864 0.57217669 0.094690382 13
-14.653545 0.612872 0.08699131 4
-14.366616 0.74362403 0.15940142 4
-1.9413465 0.70315421 0.133276 12.4
1.3261447 0.70261616 0.072653919 17.25
-1.9771934 0.8833136 0.18214734 13.666667
1.3275158 0.91267264 0.073803186 16
-14.596972 1.187734 0.085692883 5
-2.2169633 1.1909766 0.19069791 14.5
-1.958218 1.0951663 0.1080356 14.333333
-14.483394 1.3416765 0.092505932 6
-1.9092822 1.2187488 0.076982617 16.5
-1.9440416 1.4763575 0.046845555 19.333334
-2.1480238 1.6246363 0.12731481 18
-2.0980136 0.13161564 0.32892731 3.5
-1.9818554 0.16503666 0.28092623 4.1999998
1.2377025 0.13640118 0.30090272 4.6666665
-1.9788129 0.32658249 0.27224338 7
-1.4477119 0.30165792 0.35798371 5.5
1.2382221 0.22881049 0.25158757 7.75
-2.1873598 0.46977022 0.29503703 7
-1.9769597 0.4537712 0.24979328 7.8333335
1.2633667 0.52592373 0.30608362 16
-2.0032132 0.60462683 0.34642506 12
-1.9719011 0.69040984 0.34461084 10.833333
1.2777101 0.78336775 0.29656541 15.5
-2.238651 0.98604405 0.28366518 12.5
-2.02949 0.91987419 0.30638775 15
-1.9429275 0.87847435 0.2793563 12.5
1.272638 0.8763715 0.29476172 17
-2.0293369 1.1615983 0.25551462 14.5
-1.9900442 1.128983 0.28339559 18.5
-2.2176402 1.2925997 0.32383156 16
-1.9950038 1.5683793 0.20660233 22
-2.260335 0.14353853 0.47872162 4
-2.0123167 0.10290974 0.44141325 3
-1.9769626 0.15143137 0.48121145 4
-2.2612185 0.30920747 0.45606208 5.5
-2.0223107 0.29119867 0.49209481 5.5
-1.9791129 0.25041926 0.41293514 4
1.2205311 0.24326769 0.55746347 10
-2.0204046 0.47458506 0.48662126 7.6666665
-1.9694004 0.49756908 0.4986245 9
1.2226744 0.562235 0.49065149 16.25
-2.0284646 0.71673083 0.53917009 12.75
-1.9771456 0.65708899 0.51492149 13
-14.230106 0.91177911 0.47456551 5
-2.2552516 0.99429405 0.5192399 13.5
-2.0259137 0.95781708 0.48693836 16.5
-1.9260416 0.89757591 0.45572552 13.166667
-2.01507 1.1534009 0.50231051 18.166668
-1.9825113 1.0167651 0.44651636 16.75
-1.7965388 1.0053442 0.44645548 9.5
-2.2169127 1.3619572 0.46375823 17
-1.9950876 1.2671676 0.45600462 16
-2.2350216 1.4740524 0.5188117 18
-2.0230956 1.4542832 0.43292594 21.5
-1.9851673 1.5195693 0.44940579 21
-14.634166 0.19937575 0.78139925 3
-2.2927837 0.13651904 0.71443021 3.5
-2.0432727 0.13200544 0.69620132 3.3333333
-1.960687 0.15306894 0.6431492 5
1.1686461 0.12466905 0.69471687 5.8333335
-2.0174468 0.35257542 0.65976375 7
-1.9856328 0.2806659 0.72025234 7
1.1681045 0.24810188 0.67846346 8.125
1.1585622 0.49821198 0.73874909 14.333333
-2.0362864 0.71580899 0.68775886 12
1.1618979 0.65586436 0.66663992 15.25
-2.2974024 0.8786121 0.63864589 12
-2.0504239 0.91080683 0.71350139 14.625
-2.3140948 1.182694 0.66470015 16
-2.0875902 1.1070755 0.72384655 17
-2.307802 1.5444145 0.75764561 19.5
-2.0664773 1.5305765 0.75227642 21.666666
-1.1992099 1.905988 0.77274418 20
-14.67742 -0.014824208 0.90034294 3
-2.738322 0.10311151 0.99030614 3.5
-2.2956426 0.17103314 0.903826 4
-2.0966411 0.1189324 0.9622432 3.4000001
-0.73016584 0.072365142 0.96142781 3.5
-0.54458773 0.1511336 0.99625182 5
1.1511649 0.11720905 0.91214609 5.5
-2.291326 0.28566259 0.89788991 5.5
-2.0601623 0.35203886 0.89521456 7.3333335
-0.64414597 0.3626802 0.96993983 5.25
-0.46291697 0.34212914 0.98842001 4
1.1251692 0.35478345 0.87290257 11
-14.755302 0.47965178 0.98428535 4
-14.495578 0.54965365 0.93396664 4
-2.0679862 0.48491353 0.90752906 9.2749996
-0.87504649 0.50882781 0.91194254 8.625
-0.77963364 0.54897296 0.91328955 7
1.1108115 0.51625192 0.99044681 14.75
-2.080081 0.72613597 0.89379185 12.9
-0.93387973 0.77808738 0.87177873 13
-14.76536 0.83020478 0.9463768 5
-14.473024 0.9970656 0.90737486 5
-2.306613 0.92558849 0.92413718 12.25
-2.0603862 0.87030816 0.8645063 14
-0.92109001 0.86769986 0.90923405 14.5
-2.3102787 1.1018943 0.89089352 14.666667
-2.0799434 1.0891885 0.95814157 16
-0.77336818 1.1073611 0.98973489 17
-2.3255067 1.2700622 0.88022375 17.5
-2.0330415 1.2755916 0.83149159 19.5
-2.0966983 1.4512992 0.90638465 21
-14.044001 0.045182627 1.069252 3
-2.3521574 0.099233754 1.1293143 3.75
-2.0917315 0.14904389 1.06674 4.3000002
-0.45936823 0.14768104 1.1005918 4.3333335
-0.34072071 0.11417579 1.0641916 4
-0.18826087 0.10871492 1.171468 4
1.0956948 0.10611981 1.1385748 5.5166669
-2.7298481 0.34398356 1.0250947 6
-2.3367033 0.36522946 1.0588645 7
-2.0912023 0.29113701 1.0509729 5.9000001
-0.45067096 0.26540047 1.1285362 6.666667
-0.30026016 0.30176297 1.1044422 6.3333335
-0.14187706 0.28717959 1.164856 5.3888893
1.1036553 0.32300711 1.0034231 10.5
-2.1093068 0.55032802 1.1186612 10.166667
-0.68973565 0.58612525 1.0065756 10
-0.53370786 0.49312311 1.0487157 8.875
-0.31673071 0.49699488 1.1285367 9.5
-0.18196332 0.52619463 1.1553319 10.75
1.0820007 0.54340935 1.1290334 15.5
-2.3407879 0.69037104 1.0253931 10.5
-2.0990734 0.67313766 1.1425916 12
-0.55225509 0.6655584 1.0805322 13.666667
-0.29684132 0.68030125 1.1598181 12.333333
-0.19433489 0.6302985 1.1622798 11.5
-2.1427631 0.89083612 1.1055536 14.5
-0.57302582 0.81786346 1.0684984 14
-0.31824702 0.87439173 1.1446347 13.8
-0.18424699 0.80257344 1.1822664 14.5
-2.7814915 1.1173179 1.1759408 14.5
-2.3218808 1.0281906 1.1130211 15.5
-2.1101432 1.0759796 1.0807922 16.976191
-0.37527418 1.1218933 1.1854825 16
-14.706209 1.3553559 1.0288601 6
-2.7716563 1.3262992 1.1083179 16.5
-2.3801439 1.2592131 1.1602371 17.5
-2.0669785 1.3154902 1.0435913 20.5
-0.40684932 1.3850899 1.1995012 19.5
-0.2932201 1.3612287 1.195374 20.5
-2.7283046 1.5693824 1.002268 18.5
-2.127593 1.4473543 1.1770952 22
-14.61023 0.088702254 1.2128406 3
-2.777374 0.12857538 1.3290586 3.5
-2.4171202 0.11033563 1.3686512 4
-2.1366935 0.12472574 1.2722284 3.5714285
-0.40858716 0.17154878 1.3178241 5.5714288
-0.048951462 0.12445424 1.2999887 4
0.12420555 0.1101439 1.3398746 3.6666667
1.0717177 0.12343466 1.3321826 5.2666669
-2.7841525 0.30021709 1.317899 6
-2.3850458 0.27606037 1.2112302 5.75
-2.134577 0.34350464 1.2843993 7.0357141
-0.30579069 0.32005429 1.3227905 9.041667
-0.020317651 0.39199078 1.2804687 8
0.073432922 0.32078677 1.2972933 6.125
0.21664435 0.23958479 1.3199308 6
1.0721033 0.32763365 1.3014083 10
-14.621259 0.58838809 1.2833619 4
-14.221985 0.57424319 1.3525853 4
-2.8264787 0.58329725 1.3412895 9
-2.7620981 0.57061672 1.224947 9
-2.1269758 0.50391966 1.2581574 9.25
-0.41715431 0.49890116 1.2065195 12.333333
-0.05347234 0.52310997 1.2706369 11
0.090153128 0.54026634 1.2941036 11.166667
0.26549011 0.54004288 1.3926346 11.875
1.0756519 0.51559502 1.275653 15.208333
-2.8053396 0.70463711 1.3323711 11
-2.7615049 0.69542259 1.2368143 10
-2.1566079 0.72971916 1.2945449 12.55
-0.36243299 0.65078008 1.2352692 15.5
-0.063941993 0.68853694 1.2955936 14.666667
0.12682424 0.69575411 1.3156419 13.75
0.23568915 0.77700633 1.3805758 16
1.0690355 0.63612217 1.2880832 16.333334
-2.8275487 0.96350044 1.3776097 13.5
-2.7691472 0.91650546 1.2389396 13
-2.4217713 0.91605556 1.3021796 13.75
-2.2107611 0.87087214 1.3185763 14.5
-2.1560912 0.93167382 1.2983166 15.1
-0.28215605 0.80669165 1.2319804 15
-0.13792175 0.93538779 1.2445065 15.25
0.10764488 0.92845708 1.321679 16.166666
-14.606955 1.1118975 1.3213038 5
-2.8132443 1.1554946 1.3605649 15.5
-0.10006128 1.1020828 1.2650783 18.4
0.075640641 1.0628375 1.340553 18
-14.658441 1.3870519 1.2183828 6
-2.7938755 1.3018239 1.3402135 17
-2.1537235 1.3129139 1.2944977 20.25
-0.26807082 1.3468914 1.2704661 20
-0.11496171 1.3195318 1.2956616 20.25
0.11423237 1.3018738 1.3812768 21
-14.258633 1.5396321 1.2110863 6
-2.7990425 1.4459733 1.319092 18
-0.37605071 1.456731 1.2186557 21
-14.284828 1.9522231 1.2622457 7
-14.222352 -0.046539549 1.4138789 3
-2.1537881 0.11453079 1.4719083 4.25
0.1059427 0.11638675 1.4222913 4.5
0.3361477 0.14668064 1.4730351 5.3000002
1.0443592 0.096745178 1.4966648 6.25
-2.1594317 0.33378676 1.4994279 6.6666665
0.1408715 0.28206477 1.4690726 8.125
0.33086899 0.24744487 1.476487 7.6666665
0.43961164 0.30605531 1.5553943 8.6499996
0.62057853 0.36548519 1.5180069 5.5
1.0659041 0.28364313 1.4800184 8.5
-2.2107468 0.48134524 1.527385 8.5
-2.1553228 0.49674952 1.410252 9
0.17231743 0.48910499 1.4586718 12.7
0.34604183 0.53610522 1.4777598 12.333333
0.48809069 0.45200914 1.5271428 10.6875
0.60070258 0.56493711 1.5407056 13.666667
-13.792351 0.71740532 1.4152434 4
-2.2351339 0.73775983 1.4557073 13
-2.1368079 0.65132296 1.4874835 11.5
0.078368813 0.65494347 1.4164743 17
0.34181303 0.71364415 1.5199521 16
0.497491 0.69101256 1.5045716 13.916667
0.66572708 0.71024144 1.5642229 14.5
1.0654972 0.62191623 1.5256749 17
-14.201775 0.92828816 1.4975438 5
-2.220963 0.8727572 1.5221354 14.75
-2.195802 0.93652791 1.5127583 15.333333
0.35243645 0.91787094 1.4414372 16.333334
0.41628167 0.84080547 1.5248606 17.5
0.69114602 0.82127577 1.5736525 15
1.0551351 0.85343653 1.5320606 18.5
-13.853712 1.0929366 1.5745413 5
-2.263181 1.1115606 1.4987346 16.875
-2.1777828 1.124257 1.554064 17.75
0.23543075 1.0272636 1.4070699 18.5
0.49929526 1.0461379 1.5214944 20
0.92985022 1.1641705 1.58289 19
-2.4162784 1.2497602 1.4368266 18
-2.1844773 1.3121433 1.5339351 18.75
0.28550583 1.2994277 1.4177439 22
0.54564667 1.3534127 1.454011 22
0.5431354 0.13691194 1.6561476 5.7777781
0.71746492 0.10619906 1.7179323 4.6666665
0.97748816 0.045252003 1.7188647 3.9000001
1.015774 0.13904971 1.6762872 4.6999998
-2.2054355 0.37775272 1.6451037 8
0.5445295 0.27386355 1.6770563 8.833333
0.66295415 0.33969569 1.6901777 9.1000004
0.92248219 0.36349288 1.6681064 9.3666668
1.0169642 0.26930156 1.6903791 8.2222223
1.5502301 0.34436163 1.7673364 5
-13.610246 0.57474387 1.7522497 4
-2.2140031 0.52294111 1.6582223 9.5
-2.1586792 0.44860724 1.6035012 8
0.68662602 0.48870632 1.7036995 12.583333
0.92996538 0.48952183 1.709905 11.02
1.0428995 0.49563545 1.7029068 12.366667
1.2921979 0.52058005 1.7696592 8.416666
1.515416 0.44712767 1.783323 6.5
-2.1794116 0.68015218 1.6160229 12
0.57894909 0.70575494 1.6652634 17
0.78235871 0.71088433 1.6578115 15
0.87243801 0.67522067 1.6651978 14.25
1.069616 0.69989216 1.7119862 14.2
-2.1819868 0.86746913 1.6073582 14.5
0.78551888 0.89536858 1.6635242 18.25
0.92651933 0.8889879 1.7648005 18.375
1.0486032 0.98771572 1.7521642 18
1.3826691 0.90330082 1.7557011 14.5
0.68995237 1.073449 1.6482909 21
1.3640828 1.032622 1.7602868 16.5
-14.019195 1.5896949 1.766984 6
-13.875551 1.7928413 1.6143794 7
0.70748925 0.10989016 1.9601479 6
0.95661277 0.10050394 1.875523 5.0333338
1.0891066 0.065596685 1.8781323 3.625
1.2514551 0.15024152 1.8578652 4.25
1.5003172 0.14951304 1.9528427 4.25
-13.660735 0.25175565 1.9602845 3
0.7762897 0.34204015 1.8067268 11
0.93912888 0.2812126 1.9063174 8.75
1.1092429 0.33558205 1.8824182 8.875
1.2810705 0.36837041 1.8691005 8.25
1.4699672 0.31178248 1.9691309 7.2222219
1.796265 0.3103258 1.8718792 4
0.79366744 0.47086725 1.8027205 13
0.88275766 0.4786323 1.8513436 13.333333
1.1042435 0.50273615 1.8759701 12.25
1.3510505 0.54317826 1.9104508 11.333333
1.7794521 0.55143011 1.9431981 8
0.93779212 0.66784102 1.850037 17.416666
1.1210492 0.7224052 1.8687878 15.625
1.2647239 0.68926924 1.9210995 14.666667
1.4958582 0.67700511 1.9396759 12
1.7584612 0.7977398 1.9173106 12
1.1071593 0.86917335 1.8767128 16.666666
1.2613794 0.88210696 1.9507376 17.666666
1.7346056 0.9148224 1.9499489 14.25
-13.640651 1.0103781 1.8944387 5
1.3829755 1.0311205 1.9938811 19
1.4391012 1.2471853 1.863143 20
0.9586482 0.16676109 2.1411152 6.1666665
1.2835768 0.10619196 2.0405138 5.6666665
1.505942 0.09727215 2.1171601 4.9375
1.6420139 0.10798164 2.0817416 3.8333335
1.8835125 0.14336537 2.1488287 3.3333333
0.78311777 0.36183804 2.046349 9
0.91696674 0.2548593 2.040206 7.5
1.354448 0.27753216 2.0556741 8.708334
1.5468268 0.29986995 2.0842879 8.083333
1.6331573 0.30253544 2.1324379 7.6666665
1.859118 0.3605575 2.1532116 7.25
2.0804431 0.32301283 2.0783753 4.5
0.92651129 0.50172716 2.0872526 12.25
1.0082941 0.40426776 2.0485272 11
1.3197051 0.45614254 2.0345917 12.416667
1.5497379 0.50990123 2.0711288 11.6
1.7320234 0.48985061 2.1469364 11.166667
1.945058 0.52974939 2.1011171 8.666666
2.0984046 0.51664513 2.1365302 7.5
0.96383327 0.73016667 2.0229268 15.5
1.0050504 0.63637042 2.0470099 15
1.3526248 0.68792528 2.0319934 16.333334
1.5160612 0.73330081 2.0998776 15.666666
1.7012113 0.68199688 2.1071274 13.2
1.9460778 0.75609511 2.0755057 11.333333
2.0249422 0.77347833 2.1515849 12
0.98648173 0.86732888 2.002377 16.5
1.5325755 0.92669028 2.0774729 17.25
1.6840926 0.94030315 2.1521845 16.5
2.0132675 0.93084705 2.1975155 14
1.464847 1.0850616 2.085695 19.666666
1.7147529 1.0904319 2.1736608 19.375
1.8718085 1.1021527 2.1481161 17
1.611814 1.3562108 2.0774498 21.5
1.859882 1.313182 2.1873703 19.5
1.8851671 0.083685458 2.2858255 4.8333335
2.130909 0.13416165 2.3526309 4.25
1.4838449 0.33049351 2.268872 7.25
1.7474142 0.27953118 2.2139657 8
1.8670802 0.29034692 2.2910438 7.375
2.1288557 0.33869615 2.318361 7
2.2186093 0.22744372 2.3528235 5
1.3925955 0.44671643 2.2886848 9
1.7823083 0.56488633 2.3321836 12
1.9097358 0.46432248 2.3048134 10.666667
2.1219132 0.49036476 2.2919848 9.666667
-13.585494 0.67775357 2.2111609 4
1.7287412 0.66852635 2.2626374 14.5
1.9569311 0.70287943 2.3354559 14.5
2.0933316 0.71037161 2.2871029 12
1.7026623 0.83752841 2.2646897 17
1.9279751 0.90443289 2.2996659 17
2.0345128 0.91620767 2.2799635 15.125
-13.72366 1.0091918 2.2659774 5
1.8544137 1.0153799 2.2381096 18
2.0679359 1.0709234 2.3471289 16
-13.674349 1.2710109 2.2427163 6
1.8177087 1.2580813 2.2613115 20
1.9182012 1.4307498 2.2371008 21
-13.723545 1.6467643 2.2699218 7
2.1804371 -0.028183661 2.4695551 3
2.0977669 0.13503277 2.4119475 5.25
2.3082154 0.011053793 2.4800274 3.6666667
2.5597959 0.097150505 2.5452814 2
2.3708253 0.32892793 2.4309161 6.5
2.567256 0.34067613 2.5217295 6
2.6158423 0.34136805 2.5702765 6
2.1031191 0.43421045 2.4362164 10
2.2851105 0.48720178 2.4152064 9.125
2.5264111 0.55262643 2.5360122 9.5
2.0663865 0.69243079 2.4508035 13.166667
2.2907181 0.69751149 2.4534268 13
2.4992318 0.70656711 2.5339999 11.5
2.1974075 0.81771094 2.500006 17
2.2839723 0.9165206 2.5187006 15.25
2.4560232 0.89823592 2.5572734 16
2.2692754 1.0945722 2.438503 16
2.4091899 1.3601955 2.4648905 17.5
2.7136168 0.15469387 2.6018033 4
2.5422759 0.3550784 2.6407809 6
2.5063527 0.54821122 2.6224332 10.5
2.714812 0.52609807 2.6947052 9.166667
2.5996475 0.6942082 2.6483259 13
2.5139875 0.88726473 2.6925409 14
2.6343687 0.80029851 2.6538367 14.5
2.6756337 1.0495441 2.7351782 16.666666
2.9216084 0.92797351 2.8125522 14.5
2.9831541 1.2506747 2.8106902 15
3.0202997 1.215919 2.8081255 14
-6.4935045 0.081119567 3.0541425 3.5
-6.5163708 0.34389183 3.0653424 5.5
-6.4931421 0.60687661 3.0943356 7
-6.4831662 0.91057062 3.1332929 8
-6.8935575 1.9300457 3.1806984 12.5
-2.0758629 -0.0027347282 3.2404854 5
-2.3029413 0.048248101 3.3879478 5
-2.0271285 0.1001262 3.2607665 6.5
-6.0157137 0.38893494 3.3505039 5
-5.9399061 0.52450788 3.3735228 6
-1.880542 0.5781002 3.3732045 15
-5.9825926 0.64529192 3.3888898 7
-6.5147691 1.997308 3.316988 13
-2.2270231 -0.06039146 3.4107602 3
-1.710875 -0.047300782 3.4670391 4.75
-1.538661 -0.025631608 3.5056984 5.6666665
-1.7678347 0.039710321 3.4398053 7
3.9854989 0.24362816 3.4616933 4
4.0221272 0.39016598 3.4649808 5
-2.2562442 0.59433818 3.4590757 14
-2.0021009 0.59061033 3.5589025 15.5
-1.7278531 0.55650812 3.5396917 16
4.056601 0.45988631 3.4899902 6
-2.2411571 0.74634331 3.4793506 16.5
-1.9615593 0.66175103 3.4501374 16.5
-1.7322842 0.79498178 3.5054817 18.5
-1.9042792 0.80558133 3.4143624 18
-6.0065527 1.1086895 3.4471855 9.5
-5.958519 1.548715 3.4930668 12
-6.4383416 1.7756572 3.4286304 12
-6.2687664 1.7856985 3.5147395 11
-5.9886093 1.7109044 3.5280719 13
-6.4861021 1.9911849 3.5030277 13
-6.2524629 1.966553 3.49898 12
-6.0139523 1.871348 3.4542928 14
-6.2248259 2.2583323 3.4908295 13
-5.9786577 2.2442806 3.4884658 16
-1.2748637 -0.039033595 3.6196742 5.5
-1.0770141 -0.037817948 3.6820498 5.75
-0.88121915 -0.036550913 3.7220278 5.5
-0.64857578 -0.087058574 3.7632275 4.5
-0.47213316 -0.081115015 3.7956104 5
-5.2765384 0.13777234 3.7549934 3.3333333
-3.0974512 0.18808196 3.7544842 6.5
-1.2960596 0.14538524 3.7512734 8.333333
-1.0822014 0.088652231 3.7028239 8.833333
-0.93271315 0.10340701 3.7267871 9.25
-0.69994384 0.097668722 3.7739067 9.5
-5.6614561 0.2543779 3.6663668 3.5
-5.2506504 0.31816247 3.7258112 5
-4.9014697 0.29366192 3.7448297 4
-3.0837426 0.32426506 3.759552 8
-1.3013144 0.3685528 3.6925864 13.75
-1.0329247 0.33805987 3.7208707 14
-0.89698446 0.27716094 3.7825148 13.333333
-5.6579723 0.49458641 3.6653848 5
-5.3359113 0.59994388 3.7032673 6
-4.9215183 0.55730546 3.7453151 6
-3.0248854 0.55567223 3.7673368 11
-1.8838516 0.58709753 3.6132784 16
-1.4576572 0.51297009 3.7199464 15.75
-1.3786418 0.43387499 3.6233404 16
-1.0203108 0.43773794 3.6660099 16
-5.2836423 0.61351687 3.7271907 7
-5.3862767 0.89844638 3.7348847 7.5
-3.0114002 0.86771017 3.6794131 12.5
-2.7304733 0.81807053 3.7961602 12.5
-5.3236957 1.0876849 3.7555072 9
-3.682198 1.1901808 3.6159296 12
-2.9579909 1.0117199 3.6707511 14
-5.4134979 1.2767934 3.7877798 9
-3.6304235 1.3384953 3.6068423 13.5
-5.60219 1.494099 3.6203661 12
-5.303369 1.4925804 3.763011 10.5
-5.6170521 1.7816392 3.7391443 13
-5.33041 1.7842793 3.7831712 12
-3.2191994 1.7340001 3.7950048 17
-5.5809026 1.9029698 3.6162925 14
-3.436017 1.9113146 3.7287643 18.25
-3.2085071 1.9425507 3.7550511 19
-3.1836941 1.8274089 3.7711959 18
-6.3188853 2.1692319 3.6679969 13
-5.5972013 2.1113987 3.7093863 15
-5.2432685 2.1899834 3.7229948 14
-4.010253 2.1041508 3.6764278 18
-6.2661257 2.322 3.6375771 14
-5.4456058 2.2275953 3.6506925 16
-5.3150339 2.2040517 3.7761619 14
-3.3574638 -0.030489463 3.9341516 3
-2.8927917 -0.022684809 3.9730418 3.5
-2.596108 -0.09621533 3.9721143 3
-2.1730773 -0.051281754 3.8552403 3
-0.87820315 -0.042167589 3.9123027 6
-0.67945576 -0.11533833 3.8591747 3.5
-0.47223851 -0.091853902 3.9419105 4.375
-0.26021248 -0.12317698 3.952558 4
-5.2197099 0.12599854 3.8413332 3
-4.9371939 0.10797722 3.8356121 3
-4.4801159 0.046585113 3.9282188 3
-4.2476826 0.12081558 3.8939571 3
-3.7882471 0.13578904 3.9066398 3.5
-3.4489133 0.13699989 3.9609082 3.75
-3.3480687 0.09772487 3.967319 3
-3.0769336 0.17253099 3.9141822 5.75
-2.9093614 0.11494745 3.9860804 5
-2.7297893 0.14344175 3.9609184 6
-2.1794007 0.046819892 3.8820803 4
-1.0153449 0.10370024 3.8565407 7.5
-0.90438622 0.099291243 3.8080673 9.5555563
-0.72902453 0.1169242 3.9045711 8.791667
-0.49072281 0.08819709 3.9070256 9.5
-0.23660471 0.09895774 3.9392538 10.75
-5.2128987 0.3278313 3.9292092 4
-4.9099565 0.34669292 3.8122199 4
-4.329855 0.29459739 3.9118462 4
-3.7637608 0.31670046 3.9132922 4.6666665
-2.8871946 0.31126362 3.9144101 8.25
-0.86864555 0.32605723 3.8212771 15
-0.72429419 0.29120621 3.8527424 14
-0.50718212 0.29232788 3.9624887 15.075
-0.24503104 0.25826272 3.9287288 15
-5.2868419 0.55981457 3.906884 5
-4.6666522 0.49734583 3.9022577 5
-3.7089663 0.47566694 3.9309008 6
-3.4789805 0.59607077 3.9819527 7.5
-3.3284211 0.52517986 3.9862273 7.25
-3.1141376 0.49027997 3.9430737 9.8125
-4.6408391 0.67074776 3.898875 6
-4.4594812 0.69603062 3.8879974 7
-3.7191486 0.6033172 3.9071655 7
-3.4819164 0.73054135 3.991559 8
-3.281538 0.60848665 3.9865856 7
-2.2910802 0.74418515 3.8973379 13.5
-5.2908506 0.92041218 3.8294811 8
-4.697669 0.847166 3.9442937 7
-4.5140295 0.98017538 3.8795626 8
-4.2173829 0.80901009 3.9925866 7
-4.1765237 0.86559963 3.9451642 8
-2.6549919 0.92704076 3.8093097 14
-4.4890594 1.076965 3.8916318 9
-4.2070723 1.1259528 3.9921265 9
-3.8091552 1.0941103 3.9501061 12
-2.820569 1.1207644 3.8361154 14
-2.3364911 1.1069713 3.9107902 14.5
-4.8411503 1.3016515 3.9234407 9
-4.4380436 1.2054607 3.9212146 10
-4.0333281 1.2555157 3.9563878 13
-3.8171017 1.2611675 3.9471951 11.5
-2.7851474 1.3199656 3.8062148 15.5
-5.3106313 1.4316621 3.8764594 10
-3.8908756 1.4833133 3.9352486 14
-5.3139029 1.6910498 3.8529 11
-3.7952785 1.7293081 3.8880186 14.5
-2.8777256 1.6032202 3.8496337 17.5
-5.2983141 1.9053597 3.8137581 12.5
-5.3529515 2.0001578 3.8610895 13
-3.1019156 -0.011711907 4.0063949 3
-2.6486313 -0.0073519144 4.0442901 3
-2.4261389 -0.0074038375 4.0822721 3.5
-2.2314711 -0.025419835 4.0725884 4
-2.1039224 -0.045688074 4.1755176 3.625
-1.8112836 -0.027279742 4.1986847 4.5
-0.49616599 -0.018701345 4.1548662 7
-0.30527863 -0.0090021277 4.1034241 5.1666665
-0.13595001 -0.022430921 4.1069036 6.2777781
0.1532727 -0.1361295 4.0448284 4
-3.6536529 0.11827694 4.0769434 3
-3.4672399 0.17498222 4.0825243 4.5
-3.3418369 0.13930067 4.0779934 3.5
-3.1776938 0.19578843 4.1343641 5
-2.9584999 0.15159625 4.0345497 4.25
-2.7266278 0.085392788 4.062819 4.625
-2.4882863 0.10483961 4.0888338 5.1999998
-2.3369663 0.10341047 4.1126266 5.3333335
-2.0685234 0.16223425 4.1754675 5.25
-1.919554 0.015328658 4.1608124 4
-1.4406781 0.090178005 4.1345406 5.916667
-0.84734178 0.040128522 4.0063958 8
-0.72344983 0.036217302 4.0687323 7.5
-0.47231153 0.15634172 4.1151247 8.833333
-0.30554309 0.13190211 4.0689783 9.9333324
-0.10956639 0.087503612 4.121069 9.125
0.13107111 0.08410126 4.0953665 10
-4.0694518 0.32945386 4.1045046 4
-3.7087059 0.33463764 4.1046185 5
-3.4774988 0.24917617 4.0916395 4
-3.3238149 0.33055291 4.0743008 4.5
-3.0895789 0.32779449 4.0343132 5.375
-2.9142151 0.28098673 4.0969267 5.25
-2.760042 0.31187373 4.0934796 5.625
-2.4863536 0.31032643 4.1637897 6.3333335
-2.2665234 0.34559172 4.0813565 9.5
-2.0477846 0.32509121 4.1598983 7.8333335
-1.8012679 0.32676178 4.1981845 5
-1.4624078 0.39908567 4.1503863 11
-0.60993034 0.32852238 4.0214067 12.5
-0.40056288 0.35486436 4.1190104 12.5
-0.088048935 0.33713934 4.1543531 16.6
0.17683084 0.25050977 4.1269646 14.5
0.23588143 0.244394 4.1623693 14
-4.0232892 0.46532282 4.1096234 5
-3.6778195 0.47892737 4.0978584 5.75
-3.3296976 0.44351098 4.0953269 5.6666665
-3.1191368 0.51472849 4.0430875 6.5
-2.9082663 0.52733415 4.0838771 7.5
-2.7384076 0.44826654 4.0592294 9
-2.5053489 0.52092695 4.1116247 10.375
-2.2740409 0.42658797 4.1542134 8
-2.1250856 0.51168585 4.1436014 12.5
-1.6957009 0.52891177 4.0743017 12
-3.2402723 0.69551939 4.032515 7.5
-3.1200495 0.65721494 4.074955 8.833333
-2.9231739 0.78926969 4.0911098 8.5
-2.7377841 0.74425399 4.1831555 8
-2.4807153 0.71895868 4.1358981 12.5
-2.3382194 0.73400533 4.1365914 14.875
-2.039434 0.65994531 4.1780639 14.75
-1.7788637 0.68676519 4.0722075 13.75
-0.83517504 0.63291484 4.0675998 18
-4.0345311 0.80065262 4.1131825 7
-3.500289 0.91831106 4.0731997 9.5
-3.2508059 0.94249719 4.1661739 9.5
-3.0797803 0.95481819 4.0454078 14
-2.8936033 0.81277168 4.1752672 8.5
-2.6618102 0.88993233 4.1697292 13.5
-2.3837326 0.87341869 4.1222005 17
-1.6310399 0.9866637 4.1917515 14
-1.4782233 0.97149789 4.1710486 14.5
-4.2529569 1.0601163 4.1246834 9
-3.4594967 1.0672979 4.0835009 9.5
-3.084691 1.076509 4.0967145 12.375
-2.6989281 1.0949439 4.1291394 10
-2.4474928 1.0738351 4.1938553 11.25
-2.2816737 1.0821041 4.1913204 13.5
-2.1537344 1.1845002 4.1964731 16
-1.8772297 1.0599689 4.0920439 14.5
-1.596051 1.0510013 4.1274481 15
-4.2600951 1.2816938 4.0917029 10.25
-3.6498394 1.3697077 4.1545238 11.25
-3.4733708 1.279669 4.059761 12.166667
-3.139056 1.2975744 4.1018262 13.166667
-2.693038 1.3186749 4.1852798 14.333334
-2.5887635 1.3858309 4.18397 14
-4.2384834 1.4898714 4.1171861 11.166667
-3.6556334 1.4547269 4.0835609 12
-3.5140405 1.4860877 4.0477691 14
-3.358264 1.5645654 4.1302109 14
-3.0309441 1.4932079 4.1045742 14
-2.8408329 1.4610357 4.1491895 19.5
-4.1024055 1.6573054 4.1149964 12
-3.656532 1.6973248 4.1369343 12.666667
-3.4814739 1.6380703 4.0810823 14
-3.3200309 1.7063179 4.1019559 14.833333
-3.1637526 1.6461861 4.1541953 13
-3.6174154 1.8911054 4.0818701 14
-3.2072182 1.8090215 4.1830864 15
-3.1552286 1.9857892 4.1669779 16
-3.6779206 2.0685897 4.117506 15.25
-3.1748822 2.0931995 4.1923251 17
-3.5928168 2.2973244 4.0282288 17
-3.3378248 2.2561028 4.0884962 18
-2.6204777 2.2351472 4.1901278 16
-2.4619651 -0.013085146 4.3164954 2.5
-1.7572888 -0.040727243 4.2477307 3.5
-1.5529717 -0.027875423 4.2744913 4
-1.2117168 -0.023723731 4.3384132 3.5
-1.1163715 -0.09293367 4.3453569 2.625
-0.83495486 -0.082751364 4.3892393 3.5
-0.30938625 -0.021498345 4.2443972 6
-0.082842477 -0.086816609 4.3233929 4.5555553
0.06935858 -0.046244208 4.2913051 5.6666665
0.23996638 -0.067877136 4.2664881 4.875
-2.2709188 0.0699635 4.3291268 3
-2.0685627 0.15880255 4.2278333 5.6666665
-1.8797889 0.047228482 4.2688208 3.75
-1.703069 0.11393093 4.2631106 4.5714288
-1.5156858 0.091393977 4.297832 4.9000001
-1.2321204 0.14563841 4.3389382 8
-1.1198981 0.075744808 4.3598518 5.5
-0.94436806 0.087861486 4.3464746 5
-0.790658 0.012405332 4.3867426 4
-0.42220652 0.16116929 4.3972764 5.5
-0.27337006 0.10489035 4.2571545 9
-0.095059134 0.076829985 4.3606477 8.25
0.068180382 0.13035055 4.3081269 10.208333
0.2363559 0.14151992 4.2825413 9
-2.6428306 0.27536571 4.2344208 4
-2.403142 0.32582107 4.25945 7
-2.3088205 0.31918636 4.230515 6.6666665
-2.0638483 0.37784836 4.2397294 8.166667
-1.8596321 0.29630077 4.283112 7.6666665
-1.7600449 0.2942245 4.2870522 7.75
-1.5409533 0.27087152 4.3135815 6.9166665
-1.3236293 0.29789343 4.3692613 8.333333
-0.21250957 0.35587129 4.2272825 11.5
-0.12296613 0.25904849 4.2659049 12.833333
0.09711235 0.3052175 4.3065038 15.166667
-3.1303649 0.5605281 4.2552614 6
-2.9639211 0.5457052 4.2416215 7
-2.6098766 0.59289736 4.360383 7
-2.2708881 0.52426738 4.213203 9
-2.1590133 0.52786678 4.2483706 7.5
-1.8922501 0.54478681 4.2538118 10.6
-1.7090098 0.48106092 4.3170252 9.2857141
-1.515753 0.52101892 4.3317966 7.25
-1.2547023 0.54340124 4.3133497 14
-1.008327 0.53517318 4.3198471 13
-0.94723815 0.59178323 4.3852582 10.5
-0.65424615 0.49344367 4.3821425 10
-3.2989664 0.74018937 4.2592201 8
-3.1577313 0.64387095 4.2601471 7
-2.847409 0.67688018 4.3093152 8
-2.7427073 0.74986768 4.2243891 7.5
-2.5203769 0.6782186 4.264596 8.75
-2.2890129 0.7012223 4.2405281 10.3
-2.0438192 0.70429957 4.2653608 13.5
-1.8807656 0.66426843 4.27528 10.833333
-1.6869949 0.65824956 4.3164868 11.25
-1.4895893 0.71134526 4.357172 13.75
-1.2977426 0.77614462 4.377192 12.5
-1.1596494 0.71454883 4.2761688 16
-0.65912873 0.65849912 4.3404369 12
-0.59508932 0.61483705 4.3992429 11
-3.0831122 0.98092651 4.2214637 8.5
-2.8004572 0.91608262 4.2600965 9.5
-2.739691 0.97866422 4.2146826 9
-2.517312 0.90911853 4.2413812 12
-2.3250487 0.89128876 4.2569923 11.166667
-2.0754011 0.8940981 4.2992249 12.375
-1.8490108 0.91618949 4.2776065 18.333334
-1.6634771 0.85391593 4.3265562 15.875
-1.3882545 0.92958474 4.3854628 20.5
-2.746855 1.0916177 4.2355871 12
-2.4730675 1.0833545 4.3179998 9.5
-2.327728 1.0654858 4.2816586 11.833333
-2.1211135 1.0983578 4.2768774 11.6
-1.7941968 1.0339674 4.2738848 15.5
-3.0178475 1.3019233 4.2318802 10
-2.8918614 1.2969871 4.2099824 11.5
-2.6503155 1.2073488 4.2625294 11.5
-2.460372 1.3269511 4.3102055 11
-2.2865093 1.2602034 4.2864122 19.5
-2.0775321 1.2917588 4.3251605 13.291667
-1.9841822 1.2531235 4.3559208 12
-1.5783789 1.2047734 4.3653231 15
-3.5475998 1.4120173 4.2201853 11
-3.3462973 1.5028076 4.2934971 11.5
-2.8126271 1.479221 4.3765016 12
-2.734283 1.4660891 4.2827969 13.5
-2.5437126 1.5096123 4.2853503 13.5
-2.37567 1.5603287 4.3691587 13
-2.0758178 1.4286308 4.3383441 15
-3.1946373 1.7629342 4.2123499 15
-2.6954069 1.7173333 4.2579479 14.5
-2.3551495 1.6312141 4.2818723 14
-2.0746295 1.7266687 4.3550591 15.333333
-3.7723553 1.9604279 4.202302 15
-3.1626089 1.9810714 4.2324839 15
-2.8951824 1.8680459 4.2662034 17.166666
-2.7957189 1.9140102 4.3534427 14
-2.5329473 1.9269166 4.3347149 16
-2.2413473 1.9403601 4.3704405 17
-2.1849828 1.9109763 4.388443 15
-2.7532425 2.1277344 4.3148651 15
-2.5704119 2.005718 4.2878675 17
-3.2153473 2.2120457 4.2336955 15
-2.8594346 2.2053123 4.2504025 17
-2.0443616 2.2170131 4.3431354 17
-1.0333993 -0.014268113 4.4051075 4
-0.93108433 -0.06928391 4.4326549 2.7777777
-0.48105073 -0.057849314 4.5022473 3.1111114
-0.2181592 -0.053172756 4.5974264 3.5
-0.052861791 -0.02048938 4.4663448 3.5
0.14026096 -0.088491917 4.4763098 4
0.31620401 -0.1136255 4.4403906 3.75
0.46516418 -0.062909305 4.5119686 4.9047618
-1.5112097 0.10016795 4.4945068 3.5
-1.0991466 0.12374602 4.444809 6.5
-0.90907609 0.10068994 4.448966 5.375
-0.50604242 0.097758807 4.4968023 5.2142859
-0.32875139 0.11669882 4.5824881 5.375
-0.059453499 0.10082051 4.5097628 4.5
0.029304206 0.12693191 4.434165 6.6666665
0.28617197 0.11569273 4.4501257 7.5
0.52396601 0.088754088 4.5291004 7.8166671
0.69196343 0.066956185 4.5749779 6.4000001
-1.731246 0.34167808 4.481782 5.5
-1.4009727 0.28719282 4.431572 8
-1.2885824 0.3472842 4.4991808 6
-1.0657434 0.31590858 4.4498463 8.625
-0.90525228 0.28964478 4.4805818 9.3999996
-0.6763978 0.26572475 4.4915991 6.6666665
-0.4669463 0.31945014 4.5550661 8.25
-0.34999621 0.34000978 4.5565963 9.6111107
-0.090201713 0.29467151 4.4941883 7.625
0.075615339 0.33373201 4.4838352 12.5
0.30260804 0.26415348 4.4642935 10.5
0.53999496 0.29871929 4.546895 9.166666
-2.0571566 0.50844657 4.4097624 7
-1.3107111 0.45661831 4.4960909 8.25
-1.0456207 0.50518233 4.5938072 7
-0.92119586 0.5166043 4.4674435 9.333334
-0.69145262 0.46769264 4.492939 9.625
-0.45177498 0.45586619 4.530272 9.166667
-0.33673602 0.50125396 4.4869862 9
-0.081500009 0.45646566 4.5076232 11.25
0.11741103 0.51274616 4.4921131 13.133334
0.37499756 0.48017648 4.5216303 13
0.51174265 0.50189501 4.5624337 15
0.99313986 0.43071651 4.5176029 14
1.1436875 0.55665493 4.5960054 15.5
-1.7241691 0.67730665 4.4742765 8
-1.4558262 0.71027023 4.5002828 8
-1.3190103 0.66294086 4.4450855 12.416667
-1.0982231 0.663885 4.4598894 10.75
-0.87525928 0.6912235 4.4810767 11.1
-0.76040792 0.6279341 4.4968438 17
-0.50169325 0.74574423 4.5481944 9.5
-0.33144245 0.68503046 4.5691381 10.3
-0.011970937 0.67438817 4.4194198 18
0.54219139 0.71179307 4.5917649 17.25
-1.425588 0.98315984 4.5012212 10
-1.3608496 0.90685236 4.4200912 17.5
-1.0035571 0.82740515 4.4978619 15.5
-0.91816121 0.94869429 4.5147724 16.625
-0.70461547 0.86417961 4.5278907 15.8
-0.5725503 0.92155647 4.5329475 14.5
-0.38055676 0.92757565 4.5963755 19
-0.048102487 0.85450858 4.5842843 13
0.47390977 0.84664023 4.5795231 20
-1.8588023 1.1279144 4.5196257 11.5
-1.6434187 1.1041125 4.4380393 10.666667
-1.5058562 1.1655009 4.5070586 10
-1.148064 1.0305514 4.5690994 12.5
-0.76239049 1.0654671 4.5677834 15.5
-0.47187066 1.0063225 4.5864205 12.5
-0.15282795 1.0710813 4.5851178 13
-2.1516492 1.2844487 4.4748473 12
-1.6930196 1.279953 4.5113125 13
-1.5111902 1.2674339 4.4368181 14
-1.332046 1.2602992 4.4420967 16
-1.0850135 1.3066814 4.46171 13.75
-0.81790578 1.3952879 4.5539136 16
-0.44392163 1.2329358 4.5920529 14.5
-2.4470513 1.4152839 4.4183054 12
-2.0458543 1.501351 4.4720111 15
-1.9833977 1.4302335 4.4276128 12
-1.6283734 1.5280197 4.4886971 13
-1.4052802 1.4806497 4.5353255 14
-1.3974314 1.5758698 4.587656 17
-1.0625869 1.4273536 4.5361838 14
-0.92107964 1.528924 4.5487685 15
-2.0866024 1.616672 4.4724898 16
-1.7049127 1.7020254 4.445375 14.75
-1.3221682 1.687283 4.4969969 15.333333
-1.1471288 1.7040193 4.50316 18
-0.94380713 1.6359735 4.5787024 16
-2.2792454 1.9311943 4.4830437 18
-1.9537568 1.9778934 4.4433079 17
-1.6456305 1.8490055 4.4777994 15
-1.2378012 1.8195884 4.5538921 17
-0.96809292 1.8308399 4.5854836 16
-2.3299296 2.0554514 4.5084705 19
-0.25702649 2.1887791 4.5912886 20
-0.063302487 2.1761045 4.5573711 20
-2.2489109 2.2371516 4.4475436 20
-1.3744013 2.244658 4.50488 20
-0.70344585 2.2552824 4.5575032 22.5
-0.35000053 -0.060217261 4.6233702 3.3333333
-0.052582502 -0.044578481 4.6083674 3.5
0.017243952 -0.038119964 4.6542296 4
0.27825192 -0.05188635 4.6800938 3.125
0.5093326 -0.053340368 4.7222891 3.25
0.73498356 -0.1009861 4.7051506 4.25
0.89206719 -0.094473779 4.7173796 4
1.0806162 -0.024779797 4.7368679 5.5
1.2220694 -0.09537816 4.6781406 4.5
1.4070489 -0.11063544 4.6803498 4
-0.28828067 0.17400984 4.6188841 6
-0.072339825 0.07929679 4.6336441 4.375
0.045601755 0.094193801 4.6808662 5.0714288
0.30922094 0.11527862 4.6987634 5.625
0.49175018 0.11688677 4.7248945 4.9000001
0.69188547 0.075173795 4.723979 4.6666665
0.85175103 0.08332175 4.6847968 5.6666665
1.084437 0.12182663 4.746069 7.333333
1.2211832 0.028329425 4.6850019 6.5
1.4108558 0.073718287 4.6985407 7.25
-1.0355195 0.30257282 4.6540422 5
-0.98332769 0.33708754 4.6079092 6
-0.28286922 0.29682398 4.6952105 7.1666665
-0.055294197 0.25574753 4.6514683 7.3333335
0.10511412 0.32839218 4.681983 7.9375
0.31328288 0.31750301 4.7227602 8
0.48181477 0.29110846 4.6958327 6.9428568
0.67003775 0.32241428 4.7141461 8.5625
0.91980869 0.28026861 4.7028527 9.5
1.0880003 0.29421017 4.714335 7.8333335
1.3556025 0.22917733 4.7175503 9.5
-0.65878409 0.59228402 4.6100588 14
-0.4693993 0.5583908 4.6269755 10.666667
-0.21739551 0.52507043 4.6604338 10.25
-0.092561401 0.49472579 4.6544166 11.571428
0.12741783 0.47774222 4.69345 9.333333
0.29460567 0.49621606 4.7136726 11.5
0.48714793 0.51377201 4.7046375 11.333333
0.6762557 0.50643069 4.7012525 13.5
0.93340874 0.4821097 4.7165809 13.333333
1.1523315 0.41636956 4.7978973 7
1.3725861 0.49458399 4.701767 13.5
-1.2132406 0.74523902 4.6261168 9
-0.50057489 0.68561476 4.6248784 14
-0.33557236 0.66528422 4.6314864 12
-0.092121638 0.72887254 4.6624837 13.75
0.10958372 0.69396716 4.6877847 14.571428
0.25000408 0.66226262 4.7053404 12.8
0.42130172 0.67244285 4.6927433 14
0.7214914 0.70341009 4.7133102 14.583333
0.99359947 0.71765667 4.7873516 17.5
1.1192865 0.66789204 4.7239885 17
-1.1471958 0.91347605 4.6361079 10.5
-0.6828953 0.94450206 4.7115726 12
-0.45611477 0.87590981 4.6527267 17.611113
-0.29549456 0.83439022 4.6018887 17.5
-0.067873955 0.90738207 4.6843519 13
0.09888991 0.88373518 4.71946 13.1875
0.34193158 0.89833522 4.7000055 12.875
0.53711063 0.98634273 4.7855539 11
0.66948003 0.86786717 4.7135406 13.666667
0.9280898 0.89693755 4.7211394 18
1.0006567 0.97481704 4.7637095 13
-0.99887586 1.1981704 4.6572924 12
-0.67079705 1.046671 4.6196389 11
-0.51844323 1.0298783 4.6268873 13.75
-0.37798303 1.1137686 4.611989 12
0.082684591 1.0762064 4.7012072 14.5
0.52664763 1.106137 4.7627707 14
0.66192317 1.0137503 4.7042189 13
0.8666538 1.1497793 4.7596703 14
-0.74933529 1.3343996 4.628685 12
-0.5733102 1.2003031 4.6146116 12.5
-0.384682 1.2500864 4.6335011 13
-0.09659449 1.328572 4.6770463 13.5
0.15174396 1.2781534 4.7187877 13.5
0.33456492 1.3187169 4.771554 13.5
0.53418577 1.2828562 4.7420702 13
0.66618133 1.3863224 4.7512283 13
-1.4331163 1.428262 4.6159201 13
-1.3034787 1.4915211 4.6297436 16
-0.71442086 1.4062823 4.6232395 14
-0.4921267 1.488606 4.6611309 14.125
-0.038182445 1.4439514 4.6542969 14.5
0.31914467 1.507072 4.758317 15
0.43094683 1.4860113 4.7704749 15
-0.87165695 1.7107301 4.6739926 17.5
-0.74488139 1.702576 4.6767592 15
0.36623764 1.6672361 4.7598162 17.5
0.74942839 1.6694832 4.7655559 14.5
-0.87386274 1.8068304 4.6307888 14
-0.64110202 1.9198663 4.7004614 17
-0.46368366 1.8927606 4.6674404 16.5
-0.34686467 1.8205123 4.6850185 16.5
-0.15033074 1.819117 4.7293329 16.333334
0.16142729 1.8360491 4.7913065 16.5
0.88968068 1.8830241 4.7905855 15
-1.4103942 2.0887771 4.6461163 19
-0.89822638 2.0881963 4.6521416 16.5
-0.70319033 2.0819056 4.6992888 19
-0.56053132 2.1428251 4.6364799 21.5
-0.065951914 2.1341829 4.6998258 18.333334
0.10539556 2.1404037 4.751657 17.5
0.27860826 2.1224117 4.7620573 17.5
0.41056496 2.0087428 4.783658 18
0.68753916 2.1810331 4.7628794 18
1.40335 2.134414 4.761817 17
0.12982039 2.2199547 4.7955141 21
0.96898627 -0.0046561603 4.8175812 4
1.0535305 -0.088374473 4.8644013 4
1.2716694 -0.039435618 4.85993 3.5
1.8105485 -0.031514253 4.9022388 3
0.67087489 0.071401849 4.8405285 5
0.88756371 0.10043976 4.8613653 5.5
1.0977457 0.097825989 4.8951025 5.1428571
1.2815309 0.11527841 4.8970385 7.5
1.4559046 0.06133135 4.9031224 4.3333335
1.7234958 0.063063167 4.9495115 3
1.8220857 0.16614442 4.9329252 4
0.70298338 0.26539198 4.841166 7.5
0.87069577 0.32794282 4.8586078 9.166667
1.1074889 0.29206455 4.8839641 8.0962963
1.3227795 0.3150093 4.9050546 6.3333335
1.6479933 0.30176973 4.9166813 5
1.8161309 0.33501625 4.932312 5.25
0.72264743 0.46485224 4.9350257 7.6666665
0.87982595 0.4938083 4.8156233 14.333333
1.1114918 0.45757747 4.9048538 10.25
1.3072896 0.50209445 4.88697 8.666667
1.5346572 0.43611676 4.8812084 7
1.6519916 0.44109717 4.9666572 6
1.820048 0.50836325 4.9485865 6.75
0.48452437 0.70574653 4.8355961 13.5625
0.74184954 0.74770391 4.8683271 12.5
0.83285707 0.68793738 4.8234329 12.5
1.0975854 0.67447215 4.8504009 13.4
1.5805402 0.7214976 4.9373236 9
1.7838119 0.76977021 4.9665322 9
-0.012164768 0.93429154 4.8155107 10
0.15270543 0.87555307 4.8865662 10
0.35986131 0.87143719 4.8314948 12.5
0.48897547 0.92882222 4.860261 17
0.69031322 0.91287124 4.8293028 14.5
0.92224658 0.90044582 4.9126887 11.9375
1.1378967 0.94901145 4.9259233 12
1.2788179 0.90248239 4.8347936 12
1.4329221 0.85000515 4.9744949 11
1.7105538 0.95566267 4.9672818 10
1.910454 0.8902086 4.9427004 11
0.31129965 1.1963758 4.8063087 11
0.5640735 1.0657114 4.8456645 15
0.67953515 1.0392749 4.8479595 11.833333
0.86233443 1.1004299 4.925632 13.833333
1.1104653 1.1067455 4.9026623 13.625
1.3942441 1.0705352 4.8981051 11.625
1.6540875 1.0731847 4.9750805 10.5
1.8776739 1.0780129 4.9586263 11.25
-0.04404908 1.3350149 4.9433527 15.5
0.038195074 1.3331529 4.9676433 16
0.53995126 1.2619829 4.8458452 12
0.6812399 1.3166549 4.8914585 13
0.95817894 1.3949618 4.9280438 12
1.0140455 1.3061361 4.9109607 17.5
1.2986432 1.3024338 4.9097753 13.166667
1.7163776 1.2372653 4.9864421 14
1.8508853 1.2213992 4.9348626 13
-0.78355104 1.4686433 4.8137484 15.5
0.019177705 1.5065781 4.9142966 17
0.22489922 1.4094535 4.9439826 15
0.41237897 1.4953876 4.8748169 14.75
0.7155174 1.5034513 4.8562837 13.5
1.1526517 1.4841666 4.8578401 14.5
1.3699743 1.5549173 4.944128 14
1.422628 1.5702213 4.8976865 13
1.699625 1.509145 4.9517221 15.5
0.080018699 1.6327283 4.9022903 15.5
0.560844 1.6161354 4.8687248 13
0.99050969 1.7081566 4.8271308 13
1.1144379 1.7187234 4.942739 15.333333
1.4173384 1.6932538 4.9411955 14
-0.7033264 1.9231008 4.8381991 15.5
0.12834518 1.8534765 4.8505182 17.333334
0.42463517 1.8512454 4.9312782 17
0.62787449 1.8870937 4.8881817 15.5
0.80872279 1.8877513 4.9123144 14
1.0441104 1.8389909 4.8988833 15
1.3695463 1.8824593 4.8870521 15
-0.062138733 2.108227 4.8216667 16
0.037732247 2.0079703 4.8307567 15
0.27445483 2.0511119 4.9065175 19.5
0.57797742 2.0962687 4.8030829 17
0.76940888 2.0076897 4.8209848 17
0.90314734 2.1623297 4.8330245 22
1.0839709 2.077127 4.9192257 17.166666
1.4925101 -0.060932849 5.0186362 4.5
1.4570587 0.070807211 5.0167942 6.5
2.160562 0.095412478 5.1594105 4.5
2.2338781 0.10819042 5.1258712 4.5
1.4915564 0.28718638 5.0456324 7.5
1.6535027 0.36543953 5.1004839 7.5
2.2975025 0.31195024 5.1795192 6.25
2.5729938 0.22099203 5.1787815 5
3.3729703 0.27994743 5.191812 5
1.5190854 0.5101316 5.0649376 9
2.1027458 0.51227194 5.1547389 7
2.2544198 0.46040905 5.1548262 8
1.501299 0.67779267 5.0545382 7.5
1.8875822 0.79577798 5.1319814 8
2.1114459 0.724967 5.193984 10
2.2448897 0.65020961 5.1638064 9
2.5496929 0.64485013 5.1701255 7
1.0706058 0.86452752 5.0554776 12
1.2762511 0.96425152 5.0415654 11
1.5160687 0.9339515 5.0744958 9
1.6540489 0.96718115 5.105967 14
1.810427 0.89716184 5.0301542 9
2.1750224 0.82700562 5.0965772 8
2.376313 0.93366325 5.197216 9
1.5304719 1.1130781 5.0260277 13
1.8817912 1.0514109 5.0729704 10
2.2115934 1.0069243 5.1632228 8
1.0827169 1.3782551 5.0452051 13
1.8736955 1.2711072 5.0672007 12.333333
2.1950378 1.3683803 5.1786842 12
1.8261766 1.4771736 5.0391741 13.5
1.0978954 1.6216515 5.0271821 16
1.3962969 1.8885071 5.1415849 17
1.7564142 1.8887006 5.0094442 14.75
1.3477162 2.0635953 5.0052576 19
1.4457949 2.0446005 5.0983357 18
2.7474685 -0.24286932 5.3306007 3
2.5939314 -0.012783695 5.2503028 3
2.7899156 0.064835683 5.35006 2
2.6886969 0.30429447 5.2954268 5.3333335
2.6625934 0.53224444 5.2378297 6.5
3.4484239 0.42430001 5.2622266 6
2.1270041 0.61376333 5.2029634 9
2.700711 0.71442729 5.226387 7.5
3.3884768 0.60907078 5.2231288 7
3.4043574 0.76137805 5.2491441 8
2.1022823 0.84353405 5.2409029 9.75
2.7148664 0.98355097 5.2618227 9
3.3598199 0.96560562 5.2487078 9
2.1350715 1.0193062 5.2090101 10
2.9429035 1.005317 5.2557821 9.5
3.3826134 1.0906391 5.282608 10
2.7083035 1.3026966 5.2780199 10.5
2.0176508 1.5229472 5.2970629 16
2.6377816 1.4528217 5.2593746 12
3.6234469 1.9042286 5.3865743 14
3.5679433 2.0505693 5.3380594 15
2.6735735 -0.031424783 5.4222946 4.6666665
3.5065622 1.4653225 5.5156479 11.5
3.6197541 1.8645984 5.4683475 13
2.7088163 1.0850704 5.6686006 14.5
2.682986 1.2121894 5.6666784 16
2.7896981 1.7927315 5.6793299 19
2.8855171 1.6216435 5.7022963 17.5
3.4007471 0.2136322 5.9056902 6
3.3986106 0.42852214 5.9341812 8
3.3140764 1.9522203 5.8717394 14
3.2397861 2.1715453 5.9024138 15
3.2780528 1.7465483 6.0223289 13
3.2310834 1.9865947 6.0163584 14
3.2863441 2.1650896 6.0548763 14
4.1488547 0.10389706 6.3357296 4.5
4.1794453 0.36301303 6.3286848 6
4.3180656 1.3856663 6.398159 12
10.431985 0.2682575 6.5490937 4
4.4385986 0.71138245 6.464592 8
4.4603395 0.91841531 6.4758916 9
4.2163987 1.0735581 6.5351572 10
4.4022694 1.1277058 6.4134445 10
4.3018632 1.3035673 6.4510913 11
5.0632782 -0.078632839 6.6982079 3.5
10.469709 0.020601274 6.6565099 2
5.0513425 0.30749375 6.7276773 5.5
5.0068798 0.52425849 6.7784958 7
10.527163 0.67367828 6.6189876 5
6.2904801 0.5955587 7.3566833 6
6.2375174 0.70085019 7.36726 7
6.3072066 0.96629995 7.3978801 8
6.2375693 1.289135 7.3403907 9
3.9375157 2.4806156 7.8130932 13
3.9477487 3.0110111 7.8266215 15
19.6765 -0.14039707 10.704016 3
19.76799 0.54420787 10.808018 4
19.431604 0.36913645 11.352087 3
19.653908 0.50216591 11.494259 4
