# .PCD v0.7 - Point Cloud Data file format
VERSION 0.7
FIELDS x y z intensity
SIZE 4 4 4 4
TYPE F F F F
COUNT 1 1 1 1
WIDTH 1108
HEIGHT 1
VIEWPOINT 0 0 0 1 0 0 0
POINTS 1108
DATA ascii
2.0485976 0.32625678 -2.2424154 6
2.0286317 0.46190256 -2.3103366 7.5
-1.170637 0.6876356 -2.2165842 11
2.0658114 1.3126538 -2.276175 16
2.0403464 1.4838972 -2.2586601 17
2.0386221 0.24699154 -2.1452694 5
2.0591414 0.56747371 -2.1953669 9
2.0659597 1.1285442 -2.0718009 15
2.0776868 1.4695524 -2.045001 18
2.0331516 0.34499958 -1.9306856 6
-1.174193 0.45708147 -1.9517832 9
2.0461915 0.46590853 -1.943471 7.5
2.0573127 0.66213256 -1.9449247 9
-1.2008029 0.90529048 -1.9524558 15
2.0397477 0.81023556 -1.9417385 10
2.0285814 1.0175762 -1.8742706 12
2.0430005 1.2406306 -1.9004977 15.5
2.0231867 1.5270447 -1.8260695 17
2.0063887 0.28436899 -1.6196553 6
-1.1771629 0.53361523 -1.7465551 10.5
2.0207436 0.43309051 -1.6578496 7.25
-1.1893325 0.63372046 -1.6909666 12.5
2.0330489 0.75779879 -1.6977105 11.5
1.9927368 0.87869644 -1.7021279 11
1.9939008 1.1397399 -1.6415417 13
-1.2212911 1.3446597 -1.6433984 19
1.9777427 1.300663 -1.6216197 14
2.0541711 1.240566 -1.7753317 15.333333
-1.2073759 1.4106055 -1.6099041 20
2.0320559 1.4910965 -1.6606699 19
2.060632 1.8494227 -1.6399224 17
-1.1972133 0.37754261 -1.5785813 9
1.9534271 0.26727343 -1.5091456 5
2.0174668 0.34659225 -1.4490452 6
-1.2308748 0.51294553 -1.5615537 6
1.9502342 0.51520389 -1.4968759 7
2.0111856 0.48577058 -1.482877 7.5
-1.2061101 0.87051886 -1.4170737 16.5
1.9824988 0.83387446 -1.400691 12
2.0117407 1.0977111 -1.5347782 14.25
1.9974457 1.3784789 -1.4859327 19
2.0081384 1.3287467 -1.5338095 16.5
2.0188022 1.7937925 -1.4034333 19
2.0032201 1.8920138 -1.4102888 18.5
-1.21998 0.26075581 -1.2709303 6
-1.1986033 0.35816211 -1.319295 9
1.9754577 0.29266486 -1.2880294 5
-1.2238615 0.56073916 -1.2994032 10
-1.1956103 0.45252329 -1.3269607 9.25
1.9997264 0.57141906 -1.3576692 9
2.0133502 0.54588377 -1.2175076 8
-1.208858 0.71730691 -1.3920338 15
-1.1855357 0.67689955 -1.3705755 14
1.9653248 0.69325304 -1.2734295 9.5
2.004082 0.7890777 -1.3683739 13
-1.2299984 0.8987599 -1.2539086 18
-1.1994162 0.94984978 -1.3910877 18
1.9808971 0.89667022 -1.2780883 12.25
2.0007236 0.89522958 -1.3628683 14
1.9951624 1.0738577 -1.2563609 16
2.0186746 1.0962099 -1.330905 15.5
-1.23062 1.2300892 -1.2854341 19.5
1.9730468 1.3366878 -1.2538966 19.5
2.0093629 1.261482 -1.2323996 18.5
2.0059483 1.4127015 -1.3152615 18
1.9857559 1.6967878 -1.2024373 19.25
1.9402742 0.18682805 -1.0039701 5
-1.2033095 0.33668584 -1.0612068 8.333333
-1.1941482 0.38733658 -1.0818753 10
1.9149536 0.34246469 -1.1012816 6
-1.2112008 0.45252055 -1.0513028 10.5
-1.194779 0.48863068 -1.0649023 12.5
1.9106531 0.47137764 -1.0618129 6.5
-1.2103983 0.71906871 -1.0087153 16
1.9644258 0.704651 -1.0666964 10
-1.2597873 0.9741658 -1.1274655 11.5
1.9861881 0.87819254 -1.0598879 13
1.9714913 1.0098144 -1.1570702 13
2.0192885 1.1256298 -1.1759349 15
2.001534 1.5630363 -1.0077825 18.5
2.0280671 1.6796311 -1.1100471 18
-1.2434552 0.1545352 -0.85309291 6
-1.24743 0.32655203 -0.86324561 6.5
1.9259032 0.31685364 -0.84945107 6.25
-1.2374561 0.50275332 -0.91686124 9.333333
-1.1951132 0.40902212 -0.86919105 11
1.929204 0.49976677 -0.87345618 8.1999998
1.9393964 0.74131578 -0.9582423 10.5
-1.2374587 0.90541559 -0.98565 19
1.9607214 0.92869341 -0.87000656 12.5
-1.2221909 1.062224 -0.98801434 19
1.9530171 1.0522647 -0.85796291 12.5
1.9706527 1.2829081 -0.93166727 15.5
1.9555225 1.4297297 -0.83694577 18
1.9746964 1.7396289 -0.92573261 20
1.9120363 0.093050443 -0.62018353 4
-1.2329448 0.34307635 -0.69983828 10
1.8743829 0.34238839 -0.68668979 4.1666665
-1.2469668 0.52634501 -0.66419756 11.5
1.9184246 0.54165328 -0.64378595 10.25
-1.2467701 0.68726927 -0.64895415 14.333334
1.9066695 0.70836681 -0.75455195 10.833333
1.9323039 0.89678597 -0.6951251 12
-1.2589569 1.0721517 -0.76369458 16.25
1.955398 1.0977904 -0.66157812 15.166667
1.9427786 1.2780061 -0.66759205 15.375
1.9599212 1.4895188 -0.62085086 16.75
1.9524654 1.6889791 -0.68064147 19.75
-1.2684056 0.13983232 -0.5214026 5.5999999
-1.2656525 0.27292526 -0.45339584 7.8333335
1.9230161 0.29356825 -0.53266567 6
-1.2700547 0.53292507 -0.47476286 11
1.8726978 0.50956857 -0.54196644 6.5
-1.2687911 0.73500872 -0.53897065 14.5
1.9047931 0.71490473 -0.53048205 11.333333
-1.2772038 0.90234762 -0.52386916 14.25
1.9123331 0.94547063 -0.50423229 14.1
-1.288394 1.0934267 -0.54935318 17.833334
1.9163431 1.1108426 -0.48210731 14.458333
1.9159462 1.2831069 -0.48288086 17.875
1.9545352 1.5110774 -0.59080231 20
1.9843421 1.7176542 -0.45042938 17
1.9699883 1.8249141 -0.41035092 17.5
-1.2813345 0.36103061 -0.33386892 7.8333335
1.8732713 0.34654683 -0.35194078 6.5
-1.2778988 0.53211218 -0.26412785 12.75
1.8478651 0.50677752 -0.28746411 6.3333335
-1.2730721 0.71240103 -0.28091747 13.666666
1.8918498 0.70466709 -0.38422942 10.5
-1.313835 0.88557482 -0.24159552 12.166667
1.8828676 0.93720275 -0.26380065 14.625
-1.2556989 1.0377145 -0.3893455 22.5
1.9194973 1.1136916 -0.30135065 15
1.9278786 1.3004842 -0.30524293 14.75
1.91651 1.454561 -0.30475429 18
1.9464625 1.6077509 -0.39821917 20
1.9354292 1.8216532 -0.20380461 20
-1.3060834 0.15270126 -0.13160288 5.666667
1.912316 0.18709959 -0.16115281 5
-1.2858289 0.25281805 -0.098552138 7
-1.2705749 0.44288796 -0.16488054 12
1.8469141 0.47068664 -0.08450827 6.5
-1.2993399 0.6968205 -0.084970951 13.166667
1.8629059 0.67643946 -0.10296985 10.583333
-1.2947025 0.87078094 -0.10346343 17.02
1.8811202 0.91942173 -0.12701018 13
-1.3337948 1.0513904 -0.14596409 14.5
-1.3226243 1.233102 -0.010000229 18
1.9058152 1.3215824 -0.11473255 17.928572
1.919067 1.5668111 -0.036620736 18.666666
1.9290479 1.692119 -0.10583665 19.666666
1.9529791 1.8022449 -0.1328907 18
-1.3026665 0.1791732 0.074784078 7
1.8684731 0.18137044 0.1113833 5
-1.3018588 0.25846335 0.030435316 7.1666665
1.7750803 0.34560102 0.17734873 6
1.8462938 0.32696274 0.048893452 6.625
-1.3218988 0.53007233 0.10206643 9.0124998
1.8309305 0.4940064 0.038919479 6.75
-1.3116541 0.71146643 0.037440643 14
1.8638752 0.70341808 0.027983047 10.5
-1.3094132 0.87815928 0.087494887 17.25
1.8735529 0.90283597 0.10008793 12.375
-1.3437343 1.0793144 0.075897396 19
1.8749934 1.0805625 0.054805398 15.214286
1.8916816 1.2907792 0.03470381 18.666666
1.9040042 1.5492874 0.045319378 21
1.9332342 1.6733884 0.16325557 19
-1.2985148 0.19917169 0.241062 7
1.8903232 0.10115033 0.25186181 3
-1.3165524 0.29365528 0.28711894 7.875
1.7603122 0.32033819 0.29019833 6
1.8138143 0.36951303 0.25272214 5
-1.3501006 0.52782243 0.34045947 10.599999
1.797484 0.45724681 0.26467577 9
1.821452 0.50238782 0.2831406 6.5
-1.3342263 0.73256922 0.28434426 12.358334
1.7969242 0.71978092 0.27772722 12
1.8660409 0.68236923 0.2867761 7.75
-1.3130572 0.8710593 0.30326962 16.766666
1.8842283 0.94258857 0.34580377 12.333333
1.8630899 1.1355156 0.3048431 14.9
1.8687118 1.2889495 0.30461425 17
1.888922 1.4744345 0.25127316 17.75
1.8837794 1.7231891 0.20813191 21
-1.3522772 0.10500661 0.44635579 4.5
1.8703291 0.11987543 0.46720821 3.75
-1.3633604 0.29216659 0.55293936 6.3333335
1.7962831 0.34664577 0.433667 5
-1.3557152 0.52387726 0.48497683 9.791667
1.8123585 0.51049232 0.44170737 7
-1.3494247 0.6963414 0.50790089 12.5
1.7952833 0.75950998 0.51025754 11.25
1.8410364 0.71155453 0.49126092 10.833333
-1.3442037 0.88586569 0.49483413 15.2
1.7912719 0.86568272 0.52459788 13.5
1.8380151 0.9417935 0.5338043 14.25
2.0156868 0.95525986 0.53601336 6
1.8426853 1.0845785 0.46530035 15.333333
1.8645109 1.3334252 0.53110641 17.5
1.8849478 1.6838289 0.50239015 20.5
2.0964839 2.2150218 0.53058696 17.5
-1.3614452 0.10783786 0.69553018 4.5
1.8362662 0.14001559 0.64628291 4
-1.3539577 0.32834178 0.70795268 8.5
1.7492764 0.32835931 0.65857887 6
-1.3662363 0.48353642 0.68610311 10.85
1.7762244 0.53037411 0.66911572 8
-1.3569952 0.63925064 0.72332615 12.5625
1.7927479 0.70944548 0.65668523 9.5
-1.3472723 0.91592693 0.6972028 15.285714
1.7979025 0.86980319 0.72347814 16
1.815649 0.89700204 0.67351341 16.666666
2.0069888 0.99642861 0.61375391 7
-1.355312 1.0212353 0.76648301 20.833334
1.7950647 1.1593006 0.76141244 17
1.8330052 1.0853931 0.76702785 15.875
2.0138454 1.0991535 0.66571426 8
1.8271289 1.3268729 0.70190543 20.166666
1.8560691 1.490364 0.74388564 16.5
1.7732395 0.18914539 0.9882127 4
1.8142182 0.1461938 0.92035192 4
-1.4112105 0.31456518 0.94597483 4.5
-1.3530532 0.33111137 0.9005729 9
1.7503829 0.37458932 0.89174604 5.916667
1.8336239 0.28790334 0.89755225 6
-1.4153152 0.47635862 0.90873915 5.6666665
-1.3730714 0.51244247 0.8787694 9.25
1.7865866 0.50184244 0.92316508 7.8333335
-1.4036188 0.61443591 0.86964536 6
-1.3623877 0.71600538 0.87642765 11.12
1.7714815 0.72286773 0.90457159 11.25
1.8442547 0.68607211 0.85015631 7
-1.3546667 0.94823474 0.90614384 15.916667
1.7916498 0.89477742 0.90283918 14.5
1.8774074 0.89275217 0.89337158 8.833333
-1.4000033 1.0561011 0.90318441 21
-1.3669248 1.0528667 0.91043723 18.666666
1.7921391 1.1742146 0.92846245 20
1.8403563 1.1048807 0.95665252 18.25
1.7962754 1.2917187 0.90259492 19.25
1.8320417 1.2081105 0.90321457 14
2.0448198 2.1165152 0.81048226 18
-12.532581 2.8775535 0.82039356 7
-12.529156 3.164712 0.86627793 8
-12.486741 3.3823009 0.9304316 9
-1.3956852 0.15059143 1.1689171 5
-1.3829305 0.28304693 1.1087042 7.5
1.7785861 0.29755801 1.0520148 6.166667
-1.3821 0.48200059 1.0913521 10.375
1.7838616 0.56491262 1.1312747 11
1.8042105 0.53392988 1.0740209 10.5
-1.4016763 0.71109986 1.1294968 13.5
-1.3801773 0.70522183 1.1075805 14.033335
1.7930511 0.69251305 1.0418607 13
-1.3802718 0.9195165 1.0576185 18.5
1.7742864 0.8916536 1.0340321 15.25
1.8682933 0.9262253 1.0618153 11.5
-1.3711647 1.0820696 1.1047275 19.700001
1.7840164 1.1137564 1.1039051 14.833334
1.8196902 1.0727862 1.1696619 17.5
1.7660246 1.3424941 1.095873 21.166666
1.8318241 1.3374295 1.0745473 18.75
1.7773578 1.4424318 1.1729536 21.166668
1.8310534 1.4417679 1.1104133 17.5
-1.4039634 0.066167966 1.2348909 4
1.7928581 0.19176561 1.3036554 4.5
-1.4239583 0.28765985 1.2653228 4.75
1.7457536 0.32546034 1.3447825 6.3333335
-1.4258987 0.51486772 1.3333019 9
-1.3893771 0.54026949 1.2487485 11.875
1.7607151 0.48268208 1.2979358 7.8333335
1.8057688 0.45895958 1.2680082 9
-1.409111 0.6790452 1.3178954 13.583333
-1.3847439 0.68963313 1.3060508 14
1.7600822 0.73825687 1.2739055 10.333333
1.8152595 0.77770019 1.3557848 13
-1.4165201 0.91569144 1.2900945 17.966667
-1.3482239 0.90844882 1.2234855 12
1.762893 0.90650481 1.2656533 14.2
1.8565096 0.83708239 1.2978073 10.75
-1.4112138 1.0843135 1.2951175 20.608334
-1.3858957 1.1015991 1.2799188 20.85
1.7860079 1.1117815 1.2622135 17.4
1.8624184 1.0524734 1.3046544 13
1.7827612 1.3281631 1.3009216 20
1.8504581 1.3051023 1.3518209 17.333334
1.9410205 1.7884007 1.3398284 18
1.9449553 1.8761797 1.3478572 19
1.7598734 0.12106168 1.5168281 3.3333335
-1.4409558 0.33457765 1.4800382 5.75
-1.398169 0.28185627 1.5615385 6.5
1.7533855 0.24537663 1.5623679 5.75
-1.4285997 0.51080632 1.5436326 9.1388884
1.8085167 0.49377239 1.4860758 9.5
-1.4258827 0.72489911 1.4873949 14
-1.3962488 0.7127887 1.4889374 13.5
1.7096789 0.61028177 1.5758135 8
1.8057773 0.71378177 1.4879392 12
-1.4277315 0.89633048 1.5425105 16.5
-1.3824794 0.93280292 1.497854 14.5
1.7718732 0.83197582 1.445739 12.5
-1.4221125 1.0951414 1.4851362 19.803572
-1.3515195 1.0785505 1.4904803 16.333334
1.7579839 1.0900903 1.4476106 16.416668
-1.3819928 1.2895204 1.4528698 23
1.764403 1.2905767 1.5668259 20.5
1.7956971 1.5365682 1.4645097 22.5
1.9254797 1.4007435 1.401691 14
1.8804221 1.6264739 1.4749389 17
-1.4072077 0.13979053 1.673715 4.5
1.6925383 0.11594586 1.7347386 3.75
-1.4629624 0.30863297 1.6644394 5.25
1.6991973 0.29468086 1.7232101 4.75
-1.4474865 0.48919883 1.724363 8.4333324
1.7204224 0.52885419 1.6810392 9.8000002
-1.4409164 0.69851243 1.7248149 12.516369
1.752449 0.68554306 1.7388827 9
-1.4141884 0.95818424 1.6523796 18.666666
1.736312 0.9651044 1.6428709 16.166666
1.8008146 0.94802833 1.6574309 10
-1.4381559 1.0993034 1.7073683 20.213333
1.7541782 1.0586509 1.7182281 15.75
-1.3877642 1.2155664 1.7441399 20
1.7473804 1.2981528 1.6849689 19.6875
1.7686346 1.5288873 1.7105136 21
1.8418362 1.4727991 1.6583581 17.25
1.8042833 1.6336086 1.6697506 22
-12.159252 1.908628 1.6392479 5
-12.107531 2.172785 1.7079787 6
-1.4838588 0.18476203 1.952868 3
1.7144561 0.17966154 1.8825343 4.5
-1.4717741 0.36404431 1.8816173 5.5
1.749002 0.34070477 1.8664608 6.6666665
-1.464799 0.5644998 1.8946897 10.222222
1.7033676 0.48185024 1.9227414 7.25
-1.4470087 0.69232708 1.8122181 13.111111
1.7270991 0.68127042 1.9119262 11.166667
-1.4541579 0.85374928 1.8530041 14.59127
-1.355242 0.81563342 1.9906236 13
1.7301501 0.90316343 1.9206791 13.375
2.2199321 0.8940134 1.8666484 8
-1.4541177 1.0991986 1.9021566 18.875
1.7458652 1.1095693 1.9120767 16.700001
-1.4432007 1.2800081 1.8679575 19
1.7486486 1.3148742 1.8779262 19.625
1.774502 1.5181165 1.9206959 21
1.7787162 1.6313685 1.9740807 21
-12.132872 2.6586199 1.8211675 7
-12.181446 3.0613158 1.8575797 8
-1.4495913 0.15491652 2.0230114 4
1.7310802 0.18824306 2.1808176 5
-1.481724 0.33428138 2.0945897 5.6999998
1.6892112 0.31138563 2.0949547 5.9000001
-1.4838756 0.48198494 2.0627515 8.0999994
1.7005986 0.52260172 2.0468092 9
2.1960921 0.56406033 2.1559207 5.5
-1.4587402 0.67706215 2.0092351 11
1.7177773 0.69968158 2.0969169 10.25
2.1924562 0.72220039 2.1787724 7
-1.4302968 0.92650652 2.0848687 16.5
1.7532679 0.93672448 2.0902579 13.416667
-1.4597726 1.1260377 2.0454302 19.4
1.7421955 1.1151041 2.0887995 16.24074
-1.481344 1.2793677 2.1145213 20.25
1.7299314 1.3176917 2.09641 19.25
-1.4649106 1.4278855 2.1472745 21.5
1.7446026 1.4936517 2.1148517 20.611113
1.76017 0.15598464 2.2163272 4
1.671266 0.29799336 2.2248182 5.5749998
1.6699044 0.50148225 2.2820385 8.0555553
-1.6051426 0.62908137 2.2821786 10.5
-1.4949514 0.66755176 2.2679715 10.5
1.6867466 0.73302603 2.3010631 11.1
2.1991999 0.72555506 2.2164111 8
-1.4860611 0.88690662 2.2506242 14
1.5707996 0.81726545 2.2918868 10.5
1.708322 0.94853592 2.339772 14.25
2.215744 0.94144177 2.2613621 10
-1.4782978 1.0827394 2.2895598 17.25
1.7609396 1.1347528 2.3009243 14.75
-1.4451106 1.2752595 2.3813062 16.5
1.7245814 1.324932 2.3267059 18.333334
2.227819 1.3237084 2.2479193 14
1.7168468 1.5284029 2.3452129 20.25
2.2418673 1.552202 2.2965357 16
1.7311776 1.6679144 2.2744606 21
1.7077413 0.17358802 2.5653026 4
1.5954303 0.24611691 2.5605464 4.5
1.6434155 0.3238242 2.5306864 5.5999999
-1.5149467 0.57238448 2.4205525 9
1.6738575 0.48410806 2.4881849 7.75
-1.514773 0.67807752 2.4122601 10
1.568047 0.61256158 2.5231237 8
1.6770986 0.66932982 2.5082219 10.083333
-1.4741931 0.8712579 2.4308593 12.75
1.6868743 0.88002509 2.5322952 12.625
1.7309 1.1629952 2.4666977 15.75
1.7149385 1.2929204 2.4565253 18.333332
1.716143 1.4583319 2.4816871 19.4
2.2443848 1.7132881 2.4262607 17.75
-12.301547 1.8245884 2.586133 5
1.6919202 0.47665128 2.6176426 7
1.6982105 0.68872559 2.6119177 9.5
1.6846144 0.87826717 2.6130638 12.25
1.6985189 1.1348686 2.6401656 15.25
-12.98352 1.3847759 2.6704142 4
-1.531489 1.3721027 2.7131081 17
1.6897295 1.2741442 2.6364024 16.75
-12.918664 1.4794476 2.6240644 5
-1.5169156 1.4709314 2.6895509 18
-1.5232292 1.6340514 2.6649384 20
-12.456726 2.0066009 2.6804481 6
-12.446527 2.4702902 2.7057157 7
1.5570807 0.3059566 2.8201075 6
1.5686582 0.43909237 2.8377037 7.5
1.6820872 0.90956628 2.8313389 13.25
-12.841423 2.4383686 2.8479619 7
-12.264446 2.6897266 2.8211217 8
-12.828604 2.8472524 2.8968334 8
-12.857855 3.0597045 2.9734602 9
-12.302288 0.94923484 3.7684908 4
-12.393852 1.922688 3.6973963 6
-12.321396 1.3992106 3.9580956 5
-12.396627 2.3757908 3.8265004 7
-12.299019 2.7487328 3.9068365 8
-1.8519456 2.6711638 3.9864974 21.5
-4.5534496 0.32978085 4.1625652 4.5
-4.5669155 0.54555255 4.1991777 6
-12.807066 1.4061143 4.004374 5
-12.279648 1.7755115 4.0419626 6
-12.873627 1.8192146 4.1077337 6
-12.983999 2.3388679 4.1974092 7
-12.310087 2.262445 4.1422191 7
-3.8416302 0.097640663 4.3173933 3
-3.3317089 0.13007945 4.3813915 4
-2.8991463 0.12575784 4.3411207 4
-1.0405381 0.064035773 4.3942232 3
-4.0945473 0.32139441 4.3467779 4.5
-3.8469193 0.38448459 4.3574476 5
-4.2859797 0.42212796 4.3013773 5
-3.904562 0.44906056 4.3611197 6
-4.5769897 0.79704642 4.2362509 7
-4.673429 0.82321358 4.2182894 8
-4.4897194 0.94399381 4.3713937 8.5
-4.7187519 1.1463641 4.277595 9.5
-4.7227497 1.4090319 4.3494997 11.5
-4.4439802 1.8207309 4.3720431 13
-2.07651 -0.032728225 4.4252357 2
-1.8096132 -0.078521013 4.4739885 1
-1.7033203 -0.0040637851 4.4829559 3
-0.67598552 -0.018020272 4.5606489 3.75
-0.11092621 -0.00522241 4.582674 4.5
0.26971328 -0.050374836 4.5841236 4
0.41507345 -0.070168704 4.5764809 4
-3.062494 0.16985506 4.4556446 4
-2.6997399 0.11947703 4.4466934 4
-2.4978623 0.072139204 4.4349179 3.5
-2.2728205 0.032025307 4.4191632 3
-2.0245349 0.10629016 4.430995 4
-1.8641446 0.12755381 4.4393945 5
-1.6410456 0.17916729 4.4148717 4
-1.4727907 0.045267433 4.4784365 4.4000001
-1.1409328 0.14480767 4.471303 5.25
-0.98800808 0.055414498 4.532227 5
-0.11666489 0.079187199 4.5622387 6
0.32588431 0.066540405 4.4719305 4
0.5988009 0.16531272 4.5394568 5
-4.2669415 0.38667494 4.5745225 4
-3.6053598 0.29753649 4.4706974 5
-3.320683 0.32537201 4.4162531 5
-3.1384463 0.30692235 4.4767966 5.5
-2.7349081 0.30062121 4.4680767 5.75
-2.5141723 0.25805083 4.540103 6
-2.090131 0.27748066 4.5043554 6.5
-1.9070282 0.24233568 4.5848837 6.5
-1.6395987 0.24925804 4.5282602 7
-1.1038071 0.32271954 4.471694 6
-0.70020008 0.39405969 4.5065422 7
-0.44514617 0.32501239 4.4838505 7
-0.1405696 0.25781432 4.5112686 6
0.060851842 0.27184132 4.525311 6
0.33810243 0.20963939 4.533639 5.5
-4.6685557 0.48365253 4.5029364 4
-3.857285 0.50458264 4.4253464 6.5
-3.5830147 0.43496102 4.5034218 6
-3.2708485 0.47979552 4.4654489 7
-2.8701859 0.46989569 4.5098691 7.5
-2.6331675 0.47864377 4.565752 8
-2.458534 0.50238121 4.5644932 8.375
-2.1212873 0.48234373 4.5308075 9.5
-1.8116944 0.5608567 4.563262 12
-1.727 0.45121855 4.5085182 8.75
-1.5877039 0.50958866 4.5929356 11
-4.7859168 0.6779542 4.543457 5
-4.4118299 0.75564754 4.5437918 6
-3.8757956 0.71186268 4.4470463 8
-3.4421847 0.75619912 4.4833255 9
-3.2695353 0.72871792 4.5152359 9
-2.8068609 0.68961138 4.5786667 10.5
-2.7158973 0.73945975 4.5585852 10.25
-1.6500388 0.64066809 4.5266237 11
-4.8314137 0.92392778 4.574604 7
-4.7910304 0.82653135 4.5259075 6
-3.8472517 0.94019747 4.5770369 10.5
-3.4267199 0.89078951 4.5468016 10
-4.7679181 1.1544081 4.584125 8
-4.507834 1.1925033 4.4381027 10
-4.2680726 1.1128553 4.4724264 9
-4.1842451 1.1721339 4.5094705 10
-3.8420649 1.1725708 4.588202 12
-4.5474401 1.3307049 4.5303164 10
-4.208045 1.3708345 4.503006 11
-4.0776482 1.290838 4.533258 12
-2.5797672 1.5842584 4.5284758 16
-1.9183851 1.541661 4.5664868 17.5
-4.7610092 1.7522252 4.4065657 13
-4.4785666 1.7213757 4.4601393 14
-2.5694654 1.7684114 4.5661898 17.5
-1.8750541 1.6661179 4.5781002 19
-4.4124179 1.9904689 4.4139986 15
-3.7539234 1.9345472 4.5873375 16
-1.9084874 1.9355905 4.5530233 19
-3.7338977 2.116039 4.5922651 17
-1.9031208 2.0659506 4.5534778 20
-2.3810148 2.5445759 4.5543647 19
-0.98244154 -0.013774127 4.6872692 4
-0.67181426 -0.071049452 4.7047281 3
-0.16203576 -0.07071358 4.7857027 4
-1.9497062 0.13449758 4.6367722 3
-1.5050542 0.11106236 4.6242638 4.75
-1.2491322 0.17332205 4.7676125 4
-1.0682814 0.027630389 4.6885967 4
-0.78713119 0.19279298 4.7550402 7
-0.47170356 0.094459623 4.6933513 6
-0.26479506 0.08208289 4.7078834 5
0.46157736 0.034685791 4.6387577 5
-2.2911155 0.35610545 4.6831326 5
-1.9019756 0.28113672 4.6935201 4
-1.674425 0.37052116 4.7389526 5
-1.4838228 0.30835322 4.7090435 6
-0.96830386 0.3654505 4.7987099 9
0.11357355 0.21758424 4.6316347 8.5
0.26034647 0.35427916 4.6800308 10.5
0.62768579 0.29956064 4.6163378 7
0.90107942 0.32385874 4.7515249 9.166667
1.2913443 0.30876052 4.7755551 8.5
1.8869474 0.24050575 4.7853389 7
-4.2957764 0.57117891 4.6100378 5
-3.4282937 0.56947994 4.707087 5.5
-2.7655649 0.47762311 4.6554708 5.5
-2.4427445 0.55855012 4.7078371 5.5
-2.34863 0.59209979 4.6960382 6.5
-1.8319672 0.46553564 4.6750064 7.6666665
-1.3467941 0.58684409 4.6314516 11
-1.1457162 0.52723145 4.706079 10.75
-0.85427988 0.51827395 4.7537785 9.5
-0.75858909 0.43734461 4.7903042 6
-0.5283733 0.54656512 4.7768297 7.5
-0.13078225 0.46735808 4.6739426 12.5
0.1965068 0.57228601 4.7389545 14
0.27565509 0.55468857 4.7086401 13
0.90957022 0.51650214 4.7522445 11.25
-4.2687979 0.79649544 4.632514 6
-2.5260148 0.68116587 4.6147118 10.75
-2.089956 0.70242012 4.6961241 9.375
-1.7212743 0.71340197 4.7627497 7
-1.5066346 0.73214757 4.7070026 11
-1.3243699 0.68379974 4.672658 13.666666
-1.0344243 0.6484592 4.6875992 15
-0.81015837 0.72322178 4.6986227 16
-0.53126109 0.70678544 4.6917315 10
-0.13258839 0.66198546 4.7229271 15
-4.5849562 0.86072862 4.6116405 7
-3.2403765 0.95273572 4.7029328 10.25
-2.8715234 0.93385196 4.726686 10.5
-2.7153351 0.94391835 4.6884975 11.25
-2.5078995 0.88780379 4.6971006 11.25
-2.3917704 0.98591042 4.7136183 10
-2.0777717 0.90568107 4.701407 12.25
-1.8219787 0.87279207 4.7635045 13.5
-1.7120056 0.8301754 4.6346092 16
-1.3401582 0.98873389 4.7281084 19
-0.92670345 0.80669248 4.7531238 8
-0.46869805 0.86188048 4.7407217 18.25
-0.1340096 0.93576598 4.7885461 19
-4.9816656 1.1799867 4.727644 8
-4.2844958 1.1484256 4.6951904 8.333333
-3.9371626 1.1615529 4.7419949 9
-3.5547104 1.1053892 4.7586584 8.75
-3.2304525 1.0966575 4.6799068 13.5
-3.1943545 1.1252013 4.7589078 10
-2.6313372 1.0610929 4.7058315 15
-2.0319064 1.0477251 4.7076797 17
-1.9170151 1.1156856 4.7666402 16.333334
-1.6675773 1.1000161 4.6898432 19.25
-1.5368073 1.1132088 4.7137947 19.75
-1.1547832 1.1583371 4.7655659 22
-0.6561144 1.1242613 4.7902327 22
-0.49035627 1.0843899 4.764008 21.5
-5.0413198 1.3068122 4.7764668 9
-4.2813387 1.3118826 4.636549 9.5
-2.7626123 1.2070692 4.7623115 11
-2.4748755 1.3033605 4.7752619 14
-2.3080652 1.2337643 4.7591 14.25
-1.9113942 1.3183918 4.7933893 17.5
-0.95449984 1.3935863 4.7359576 18
0.3093107 1.3796923 4.6965432 18.5
1.4200906 1.3774624 4.7519217 17
-4.8990393 1.5347681 4.6199279 10
-4.4294014 1.575585 4.6797657 11
-4.2286072 1.5776728 4.7488198 11
-3.7707071 1.5612658 4.7576051 12
-3.4980934 1.444124 4.7559938 11
-2.7340491 1.4260556 4.7484331 12
-2.5992131 1.4271778 4.7698746 12
-2.3408475 1.4032305 4.7752647 20
-2.1413372 1.4704303 4.7968826 13
-1.8567873 1.4594327 4.7783432 14
-1.3327526 1.4938941 4.6539764 17.5
0.33353284 1.4867258 4.7204428 20
0.83667898 1.4646218 4.7341366 18.5
1.1547818 1.4264848 4.7742805 17.5
1.3793764 1.5388339 4.7073212 18.5
1.9095752 1.5737357 4.7794542 17.5
-4.8010302 1.6123425 4.6066465 11
-4.2294259 1.7979014 4.7345629 12
-1.304937 1.6967666 4.6204209 19.25
0.79016161 1.6525755 4.740809 20
0.90053844 1.6160328 4.7584553 20
1.8874354 1.7873805 4.7561216 19
-4.6557617 1.8375813 4.6404848 12
-3.7808132 1.8866478 4.7017984 16.75
-1.9754672 1.8437318 4.6455364 18
-1.6006346 1.8360598 4.7034779 21
-1.5648806 1.9698337 4.6861391 22
-4.7955394 2.2815411 4.6703458 14
-4.5681076 2.2886384 4.707263 14
-2.4746954 2.3428905 4.7076254 18
-4.8221884 2.4666798 4.7038713 15
-4.5693712 2.4119041 4.7155824 15
-4.5422297 2.6641707 4.7342019 16
-4.4636803 2.8008785 4.7258587 17
1.9609298 -0.20233671 4.8538098 0
2.3249588 -0.2297705 4.8765144 0
-2.5339792 -0.18184966 4.9212098 1
0.28514111 -0.022625268 4.927258 4.5
0.94073069 -0.034271702 4.8491135 1
1.4707518 -0.13067719 4.8784113 0.5
-0.35891354 0.15436417 4.8745866 6
-0.15811676 0.079412878 4.8161669 5.5
0.10842309 0.11131089 4.8896656 5.25
0.34625888 0.12845659 4.8899264 4.6666665
0.87167037 0.082525089 4.8518806 3.5
1.2915261 0.079169556 4.9319267 4
2.5920086 0.11314067 4.8077421 6
2.8123064 0.0073600262 4.9769177 3
-2.6514697 0.33265486 4.9802699 4
-2.5832241 0.36768559 4.9760375 5
-1.9188032 0.29502222 4.9917469 4
-1.4767201 0.27823389 4.9716725 7.5
-1.3786533 0.24602632 4.9710054 7.5
-0.46592334 0.24945316 4.8566914 8
-0.15155125 0.38264704 4.9804487 9
0.052886717 0.29452831 4.8953571 6.75
0.33671528 0.39547861 4.8493786 9
0.5143255 0.34096459 4.8462911 6
0.77818251 0.24682185 4.9219055 4
1.1412396 0.20456097 4.9182463 5
2.1236205 0.34887835 4.8292503 8.5
2.3164525 0.21566032 4.9484096 5
2.6164227 0.25845924 4.8483896 7
2.8775775 0.20864128 4.9999752 4.5
-4.6733155 0.48313457 4.8217125 5
-3.7848399 0.5956797 4.9830332 6
-2.7681293 0.48654225 4.9612646 5.5
-1.0479439 0.43198663 4.932941 5
-0.90869111 0.54466444 4.8684187 7.8333335
-0.58122796 0.48703656 4.8603516 11
-0.01683493 0.48499918 4.9142218 7
0.35083991 0.48589516 4.8536072 10.5
0.92111355 0.46868834 4.8037834 11
1.1015944 0.46096212 4.9513044 6.5
1.2839471 0.50646883 4.8467045 11
1.557549 0.46024394 4.8363452 10
1.9147806 0.43803811 4.8330755 9
-4.5385189 0.74124545 4.8007712 6
-3.5098929 0.64224762 4.993454 6.5
-3.3129785 0.78480297 4.991271 7.5
-2.9112508 0.69650573 4.9663692 7
-2.0044608 0.77569389 4.9653473 9
-1.0994202 0.63894933 4.9664998 6
-0.9480806 0.71557355 4.8689399 13
-0.75361073 0.78571022 4.9375529 10.5
-0.49905968 0.65143031 4.951087 12
-0.32848072 0.69918394 4.9408412 13
0.032979324 0.68217874 4.9869671 9
1.1976922 0.79227173 4.9729152 9
1.3423483 0.67372984 4.8546181 13
1.5127108 0.65029395 4.8321285 12
2.1466382 0.69082093 4.8960171 11.25
-4.9028912 0.85771185 4.8297763 7
-4.3398619 0.82720673 4.9628792 6.5
-3.9785664 0.97526652 4.8102059 8
-3.7738206 0.97438198 4.9725041 8
-3.3952417 0.96850032 4.974421 9
-2.7593014 0.88555431 4.9621811 7.3333335
-2.424607 0.87532532 4.9835825 8
-2.2494843 0.87383664 4.9646206 8
-1.5334945 0.83844393 4.8236346 14
-1.1666117 0.99541605 4.9760098 16
-0.85751182 0.83689868 4.9376221 11.5
-0.26442242 0.9103474 4.9982157 16
0.026664734 0.88642937 4.8950067 10.5
1.1038995 0.80090046 4.9681015 10
1.2530265 0.8603121 4.9030256 15
1.4312613 0.80261016 4.8978033 14
-4.4170604 1.0999557 4.9454775 8
-3.8382778 1.0266433 4.9612174 9
-2.7539873 1.0465114 4.9635744 8.5
-2.3135664 1.0450343 4.8565578 10
-2.0098352 1.0681669 4.8594475 10
-1.5803874 1.0507226 4.9039245 10.5
-1.1556885 1.1418452 4.9560604 14.5
-0.68605053 1.1223552 4.9246187 10
-0.14499384 1.0911067 4.811738 21
0.53723359 1.0350653 4.9411621 14.5
0.65287429 1.0492594 4.9427586 15
1.0841323 1.1243231 4.9927416 14.75
1.6399243 1.0041184 4.975246 15.5
2.03403 1.0189078 4.9540138 14.5
-4.3395953 1.2016165 4.9021387 9
-3.8209453 1.2067972 4.9496241 10
-2.8489692 1.3892347 4.8185425 17
-2.0011446 1.2387676 4.9872017 10
-1.4925518 1.2894682 4.8652668 15.75
-1.1839571 1.3167419 4.9644375 19
-0.95894426 1.2847651 4.8729115 13
-0.65945345 1.3142636 4.9467497 11.5
-0.55836761 1.342775 4.894917 14
0.63671166 1.2197841 4.9438343 12
0.97298938 1.2696029 4.9786777 19.5
1.2595453 1.2776929 4.9731336 19
-3.91536 1.5790248 4.8058968 11
-3.3280668 1.500895 4.8104229 11.5
-2.89641 1.5145471 4.8333445 16
-2.7677243 1.4713559 4.9836378 11
-2.5334182 1.5800486 4.8015194 13.5
-2.104984 1.472253 4.8066287 17.75
-1.7687252 1.4019299 4.8456407 13
-1.5580221 1.465137 4.8789577 17
-0.9671616 1.4999164 4.8850594 15.5
-0.53904307 1.5304769 4.9546328 15
-0.36768419 1.5442532 4.8451986 19.5
0.059070542 1.4753972 4.979804 15
1.2562265 1.4005308 4.9883647 20
2.0012517 1.5103046 4.9794779 13
-3.6404123 1.7371432 4.8539047 17
-2.9672077 1.6860838 4.8550024 14
-2.7685072 1.6781775 4.9940748 12
-2.2110026 1.6736978 4.8251772 15
-1.797256 1.6428409 4.8167162 15
-1.3024702 1.732597 4.888669 16
-0.95008069 1.7396441 4.8845882 17
-0.48410898 1.7828405 4.9669805 17
0.038306907 1.6371022 4.952714 16.5
-3.6152616 1.8582649 4.8637872 18
-2.5903273 1.9411502 4.8283868 20.5
-2.2993515 1.9535776 4.8437157 16.5
-2.039259 1.9141992 4.8635426 15.5
-1.6665559 1.9257729 4.8616285 17.5
-1.340796 1.8444726 4.928751 17
-1.0422299 1.9921764 4.8999557 19
-0.15143789 1.9462876 4.9558811 19
-2.6053252 2.0587969 4.8602304 22
-1.9936504 2.1174574 4.8318286 16
-1.5841393 2.0970979 4.8934631 19
-1.3075699 2.1066201 4.9219751 19
-0.94272006 2.1368341 4.9479561 20
-0.52737868 2.1912234 4.9514313 20
-0.29794756 2.0788088 4.9441166 17.666666
-2.7475357 2.2595093 4.9995375 15
-2.2793896 2.209245 4.8518205 18
-0.63872439 2.26987 4.9531841 21
-0.48414159 2.275775 4.9489069 17.5
-0.35136423 2.2986929 4.9455514 18
-2.0148864 2.44752 4.9318347 20
-1.5451365 2.5231104 4.9683704 21.5
-1.9701681 2.6838121 4.9350319 21.5
-1.6758699 2.6238463 4.9685307 18
-1.5035508 2.7339551 4.9036002 23
-1.9975059 -0.21210285 5.0082483 1
0.21853474 -0.26591569 5.0787535 0
1.1867599 -0.25569358 5.1448555 0
-1.1575439 -0.13785031 5.0993981 1.5
0.21167001 -0.088468447 5.1233506 1
1.3744347 -0.0054657459 5.1066914 5
2.0826621 -0.13140565 5.1735973 4
-1.4600852 0.19681795 5.078125 4
1.0529177 0.043367237 5.0768003 5
2.2456746 0.17866559 5.021245 4
3.5916762 0.17795172 5.1669025 4
4.5312271 0.077769727 5.083499 3.5
5.3807697 0.12679452 5.1749058 4
-1.7348192 0.29645142 5.0686646 4
-1.4763795 0.36707231 5.0237088 7
-1.393752 0.36709183 5.1078973 5
-0.71499544 0.36842188 5.1331201 5
-0.29555067 0.31472939 5.1211233 5
0.16303355 0.35391599 5.0822749 9
0.52923757 0.26384366 5.1435766 6.25
0.64778847 0.2827059 5.0839596 8
0.80589253 0.24623203 5.0804501 7.5
1.1209317 0.27341247 5.1199474 7.5
1.5253217 0.22222778 5.1974516 7
-1.5340722 0.57749397 5.0354376 6
-1.3337305 0.53142655 5.1043992 7.5
-0.81405139 0.41079974 5.158936 6.5
-0.54804748 0.45961609 5.1578074 5.5
-0.19459969 0.5353778 5.1604443 6.5
0.15636086 0.45827553 5.0087805 10.5
0.56722713 0.46237433 5.1021624 6
1.1282082 0.40800264 5.1595726 9
3.5835931 0.46120459 5.1675682 6
4.5697775 0.44378281 5.1296854 6
-3.3461468 0.63073027 5.0132842 6
-3.0562818 0.76223618 5.0908437 8
-2.2658584 0.72170484 5.0077262 8
-2.051615 0.66985899 5.0110593 8
-1.8773546 0.72060698 5.0508475 7.5
-1.3791562 0.70526874 5.1186795 8
-1.0508491 0.77833843 5.0702648 7.5
-0.82382721 0.62202144 5.1872153 8
-0.075436629 0.65649086 5.0998507 9.5
0.15784913 0.67507201 5.0015268 12.5
1.1907505 0.6233539 5.0552225 8
1.4711541 0.79637599 5.0503592 9
1.8285939 0.61936218 5.0068169 8
2.8545537 0.76457447 5.1475334 8
-3.0795636 0.91921961 5.0636368 9
-2.4476078 0.90717977 5.0221376 9.5
-2.0533814 0.90635246 5.0300145 10
-1.8332454 0.92864639 5.044507 9
-1.747273 0.98020488 5.0595822 8
-1.2219365 0.82096756 5.0712481 8
-1.0251869 0.94699466 5.1032019 9
-0.95399106 0.96876967 5.1666203 11
-0.48053575 0.99601489 5.0044794 16
-0.34074283 0.94220942 5.145484 9.5
-0.085219711 0.92130041 5.0600567 15.5
0.27949458 0.859514 5.1329632 14.666667
0.52463996 0.88779187 5.1004524 11.833334
-2.6680658 1.0192603 5.0022869 9
-2.5951593 1.0065235 5.0134954 8
-2.2666168 1.0354627 5.0172892 9
-1.8884778 1.1265584 5.051796 9
-1.3536634 1.051774 5.1536565 11.5
-1.0235674 1.068902 5.123528 11
-0.51117176 1.0554678 5.0742035 13.75
-0.33091685 1.1863509 5.1521645 11
-0.18072756 1.163909 5.1468658 10
0.039767563 1.0753355 5.0870762 17.5
1.3330266 1.0261903 5.0492015 10
1.4329112 1.1838279 5.0275769 11
1.6174853 1.1832982 5.0314727 17
2.1197157 1.175947 5.0032816 16
4.9622722 1.0295858 5.1830382 10
-3.3517742 1.2111012 5.0504208 10
-3.182137 1.3507301 5.07057 10
-2.1114793 1.2056919 5.0824242 9
-1.99821 1.2954144 5.054184 11
-1.6582439 1.3381845 5.1229095 11.5
-1.3499408 1.2941966 5.0800176 12.25
-1.0032287 1.2047454 5.1837158 13
-0.8883642 1.3098161 5.1338754 14
-0.77994025 1.336107 5.1885281 15
-0.52961099 1.2046701 5.0205173 13
-0.36792779 1.3741953 5.1438675 20
-0.042368829 1.3251293 5.0712252 20
0.069203697 1.2604965 5.0689659 16.25
1.5786297 1.2672815 5.0057068 18
2.9634826 1.3824404 5.1208858 12.5
-3.1625791 1.5930417 5.05797 11.5
-2.7723818 1.4124366 5.0092463 10
-1.6891905 1.584967 5.1166048 13
-1.0340774 1.4798181 5.0993838 12
-0.93885636 1.5468868 5.0605469 21.5
-0.56769747 1.4870808 5.1798277 16
0.59857142 1.4786477 5.1083446 14.5
0.91779971 1.4701955 5.1661034 14
1.132789 1.5207192 5.1728663 15
1.8556652 1.4443516 5.0348721 19
2.3860457 1.419965 5.0724049 17
2.4189413 1.5145119 5.0967417 18
-2.5851502 1.6033759 5.0335355 11
-2.2932603 1.7486115 5.0861702 12
-1.9910651 1.6252803 5.1144347 12
-1.500677 1.6716619 5.1489387 12
-0.55866826 1.6190562 5.1720209 22
-0.23498397 1.7027988 5.005208 17
1.1621172 1.6889144 5.0539565 16
1.5429847 1.6128819 5.0598574 15
2.0183771 1.7438004 5.1399889 16
-2.28947 1.938532 5.1007814 13
-1.2904789 1.8603417 5.1634922 14
-1.1243898 1.8627529 5.156857 14
-0.9949649 1.953589 5.1870232 16
-0.7509234 1.9249024 5.1512003 14
0.51996124 1.9705248 5.0314684 19
1.2183921 1.8587214 5.0743718 17
1.6907797 1.9327203 5.1158924 17.666666
1.8924835 1.9775708 5.1570759 18.5
-1.5994588 2.0626795 5.1451912 14
-1.2345436 2.0908434 5.1546059 15.5
-1.1975402 2.1187842 5.0502501 17
1.123377 2.0501523 5.0718431 18.75
1.762673 2.170146 5.1317148 19
1.8032309 2.0024595 5.1420474 17
2.077225 2.0127394 5.1043396 17.5
2.8527782 2.0598593 5.1882143 16
-2.1088364 2.2003572 5.0546908 15
-1.1843196 2.2662187 5.1420298 16
-0.15297191 2.2515969 5.1165085 18
1.9589404 2.2766106 5.1473446 16
2.0677738 2.287369 5.0721283 19
-2.8036778 2.543433 5.0873413 17
-2.6261995 2.5222814 5.045229 16.5
-1.3956722 2.4572461 5.0078411 21
-0.041054409 2.5987628 5.0738425 18
0.48656631 2.4283547 5.1746578 19
1.9080315 2.4923718 5.1487794 17
2.4891641 2.5886426 5.1465735 17
2.9000247 2.5660932 5.1905594 19
-2.8154695 2.7476878 5.0375566 18
-2.1885452 2.634716 5.0382261 17
-1.8633049 2.6247489 5.1280789 17
-1.3553269 2.6144416 5.1366301 17
-0.94700772 2.6037161 5.1658812 18
-0.66815722 2.6727335 5.1659136 20
0.72207689 2.6213968 5.1223722 19
1.6706961 2.6105754 5.0822377 17
2.2583065 2.6438165 5.0586276 18
0.36507332 -0.087093376 5.2217093 1
0.60780019 -0.14948435 5.2128344 0
2.5817821 -0.091483526 5.3096008 2.5
1.3154125 0.12661795 5.2216725 2
2.0053916 0.041865706 5.2253127 5
2.3202055 0.18369773 5.3096533 2
0.40334338 0.3969835 5.2246509 9.5
0.62266916 0.32978016 5.2258611 9
1.304143 0.30486798 5.2622004 4.25
1.5187626 0.29777324 5.2547355 8.5
1.7152369 0.20726687 5.2040701 7
1.803921 0.30243394 5.2367253 8
2.1057775 0.31776002 5.3240519 7.8333335
2.4222484 0.20369183 5.3137288 4
2.7205565 0.26351145 5.2869239 4
3.6392245 0.22771923 5.2060308 5
-2.8559813 0.5800271 5.2685614 7
0.43806094 0.54160124 5.2754641 11
1.4340605 0.52865279 5.3490877 7.5
1.9944353 0.4829165 5.2686634 6
2.077419 0.52471566 5.3189025 9.5
2.5007129 0.44885615 5.300478 5.5
-3.2780859 0.66787267 5.3189912 7
-2.7702036 0.79928339 5.2564192 9
1.8180627 0.79560149 5.2598038 7
2.021826 0.66824627 5.2154818 7
2.4774089 0.71815264 5.2400331 7
3.236155 0.74816561 5.3917975 8
-0.28700536 0.93371814 5.2554688 11
0.5997287 0.84743249 5.3615689 9
0.75993657 0.87610412 5.3867736 10
1.0571814 0.85220897 5.3750296 10
1.5580909 0.8363378 5.2518382 7
2.8729093 0.92609507 5.2764487 8.5
-0.47937557 1.1301267 5.2533503 15
-0.36456084 1.1447953 5.203558 9
-0.19931993 1.0893351 5.2712755 12.5
0.4434067 1.1028907 5.3661914 12
0.76484221 1.0791856 5.3132768 11.5
1.054828 1.0826507 5.3494072 11
1.2789823 1.0992965 5.2720013 10
1.8886591 1.121691 5.3356357 9
2.3139963 1.1452339 5.295567 9
2.4646423 1.1323444 5.3156343 9
2.8948612 1.0085075 5.2253199 10
-0.47888017 1.3127155 5.2774367 14
-0.28142354 1.3992155 5.2201562 15
-0.07257162 1.2305731 5.2890191 14
0.50985932 1.2530773 5.324625 15.75
0.71216953 1.3370812 5.3332825 13
1.5559222 1.2940023 5.381001 13.5
1.7331203 1.3998675 5.2724957 11
1.8907242 1.3260766 5.3365726 11
2.0275338 1.3858987 5.2724314 10
2.6801586 1.3159783 5.3535509 10
2.8586059 1.2638445 5.372088 9
3.2701797 1.2053968 5.3431616 10
4.966042 1.2439814 5.227778 11.5
-0.50507885 1.5882264 5.219882 13
-0.11287063 1.4682865 5.2385349 16.333334
0.5656994 1.4271133 5.2870817 19.5
1.2893426 1.4870303 5.249197 13
1.5723231 1.4826658 5.3158207 11.5
2.3141 1.5700635 5.3052096 11
4.4957356 1.5739007 5.2952766 12
5.0136237 1.5356504 5.2925739 13
-1.0313462 1.6738371 5.2014046 14
-0.48606396 1.7520852 5.2227383 14
-0.047559969 1.6709206 5.263382 14
0.10659582 1.6576701 5.2113667 13
0.50058419 1.6157984 5.2872992 14
0.80030185 1.7628447 5.3050718 14
1.1435766 1.6505449 5.3048687 13
1.6991789 1.7200863 5.2372675 15.5
1.8208134 1.6211272 5.2647467 13
4.9849591 1.7223077 5.334064 14
-0.44602966 1.8234391 5.2221823 14
-0.3894155 1.8334563 5.2030458 14
-0.064858355 1.8415333 5.2499123 15
0.032498784 1.9248732 5.2357574 14
0.57741505 1.8631952 5.2723417 13.5
1.9567137 1.9033465 5.3184881 15
2.2890892 1.9882171 5.3409858 13
2.5238419 1.9412409 5.361114 13
2.6702709 1.8860382 5.391449 12
2.9694033 1.9722939 5.3806138 13
4.4958115 1.8461457 5.2927756 13
5.0131583 1.8694575 5.37781 15
-0.066600986 2.0687513 5.2203636 16.5
0.032327037 2.0449581 5.2282386 15
0.60034657 2.1966612 5.3055596 15
0.82894659 2.1387248 5.3439169 16.5
1.6614556 2.1548715 5.347321 14
2.1291931 2.0285184 5.3402381 14
2.350045 2.1337824 5.3925223 15
2.5121126 2.085757 5.2006917 17
-0.70679218 2.3681498 5.2407961 18
-0.060462497 2.3949764 5.3535242 16
0.074276321 2.3391662 5.2385297 16
0.48165959 2.2617619 5.3166695 17.25
0.77623743 2.3257143 5.3271618 18
1.7517809 2.2946641 5.3564916 15
2.0557115 2.3540523 5.2984729 15
2.9454525 2.2668915 5.2887516 15.5
4.5302806 2.3300202 5.3100486 15.5
-0.69697529 2.5050268 5.2534361 19
-0.28710145 2.5009139 5.2932649 17
0.040730875 2.4850852 5.2242494 17
0.60755819 2.4600718 5.3432484 17
0.817366 2.5507464 5.2129602 19
1.1023433 2.5409544 5.3018289 17
1.6514874 2.4617348 5.3252764 16
1.9960461 2.4709773 5.2331109 16
2.5280049 2.5004416 5.2837539 16
2.9345591 2.4699655 5.3142853 16.5
-0.56651849 2.605828 5.2150178 18
0.51783174 2.6179309 5.232729 19
3.0936298 0.28983811 5.4532065 4.3333335
3.3679936 0.37851533 5.4385543 4
3.1240697 0.59338808 5.4831786 5.5
3.3645084 0.55598539 5.4876556 5
3.1146228 0.73238689 5.4807739 6.5
3.8258681 0.71485841 5.4918594 6.5
1.2116275 0.98034573 5.5236583 8
1.6448852 0.89785391 5.5627694 8
3.1065555 0.89743137 5.4829535 7
0.8792218 1.3932934 5.4220972 14.5
1.0796077 1.200037 5.4045782 12.5
1.5443637 1.3914962 5.4393673 17.5
1.628607 1.3912853 5.4788704 14
1.9295437 1.3008351 5.4828348 15.5
2.00302 1.2763445 5.4922647 16
2.4868724 1.3493047 5.5928512 15.5
1.88024 1.4882729 5.5094662 17
2.083329 1.519794 5.5311155 17
2.2766502 1.5573182 5.5586286 14.5
10.508029 1.4300171 5.5268002 8.5
1.5324945 1.7777789 5.5421305 20
1.6782179 1.6409614 5.5112157 15.5
2.2421408 1.7747824 5.579433 16
2.4512799 1.6573601 5.5668173 15
2.9319775 1.7442632 5.4041381 11
2.9113109 1.9010189 5.438735 13.5
3.0394866 1.8588536 5.4727802 12
10.258356 1.983794 5.5448284 10
2.9169974 2.1287682 5.449892 15
2.2838373 2.3362913 5.4530869 16.5
0.48276132 2.4450781 5.5677032 19
0.68442702 2.4866438 5.5292068 19
0.48290306 2.6197178 5.5556107 20
0.66906625 2.61362 5.4375486 20
2.2824888 2.6016381 5.4165335 18
1.2279259 0.70702934 5.6107249 7
1.6305757 0.69375038 5.6167746 6.5
4.1640229 0.67707449 5.6334667 9
4.2623267 0.79907542 5.6560068 10
4.2787604 0.97993445 5.7250328 11
2.8116801 1.7557874 5.6268568 14.5
2.763103 1.9123554 5.6530075 16
4.501667 2.1911952 5.7569776 14
0.48374069 2.2786198 5.637177 18
0.64926004 2.2818696 5.6426625 18
4.3903494 2.2700682 6.1661992 15
4.3888884 2.4945676 6.1757541 16
4.3755312 2.0647933 6.3020115 14
-5.12744 3.2640135 6.9166737 16
