# .PCD v0.7 - Point Cloud Data file format
VERSION 0.7
FIELDS x y z intensity
SIZE 4 4 4 4
TYPE F F F F
COUNT 1 1 1 1
WIDTH 1265
HEIGHT 1
VIEWPOINT 0 0 0 1 0 0 0
POINTS 1265
DATA ascii
2.8214915 2.5062048 4.8263416 22.898899
3.0344377 2.5031044 4.8144403 22.099701
3.2438893 2.550359 4.8658452 17.587999
3.3543258 2.5598407 4.8262472 18.589251
3.5908051 2.5453732 4.8923321 18.491398
4.0974846 2.5126793 4.8298831 17.091499
-6.8132863 2.6724691 4.8428731 15.057
-6.2473154 2.6914041 4.8904505 16.057751
-6.1175733 2.6709106 4.8181124 16.0485
-5.5715265 2.6960373 4.8263264 17.04925
-1.4423089 2.622443 4.8657289 19.265301
-0.97061938 2.6436207 4.8729119 18.567499
-0.73662871 2.6449599 4.8228488 19.068501
0.085187018 2.6623075 4.850688 22.2955
0.45147923 2.667661 4.8463135 21.742125
1.259181 2.6565471 4.8895922 21.746666
1.6140978 2.6295736 4.871942 22.511856
2.0140524 2.6205149 4.8671784 21.799641
2.3457179 2.6133358 4.8072042 21.372786
2.5475402 2.6066718 4.8445649 19.8862
5.2520237 2.6124945 4.8592949 17.10425
-4.4769278 2.7586491 4.8312216 18.05125
-1.9506407 2.7508345 4.84517 21.624115
-1.6994189 2.7117748 4.8806148 22.437813
-0.76330614 2.7156055 4.8697629 21.06875
0.80456066 -0.30100161 4.9958735 1
1.1261188 -0.35223699 4.9866867 1
0.3688426 -0.23623285 4.9502683 0
0.82196569 -0.29890242 4.9527826 1
2.9163945 -0.24807592 4.9536142 1
-2.5339792 -0.18184966 4.9212098 1
-2.1970961 -0.11833752 4.9566464 1.5
-1.8495765 -0.12382889 4.9798632 1.5357143
-1.7775638 -0.1421552 4.9343886 1
-1.6271824 -0.14768726 4.9687638 1
-0.65472662 -0.14241293 4.9347172 1
-0.43220842 -0.15143237 4.9303231 1
0.40920079 -0.15652835 4.9852886 3
0.62861562 -0.17312515 4.956522 3
0.99485821 -0.12879519 4.97118 1
1.3537188 -0.18297133 4.9573498 0
2.2810481 -0.13092558 4.9142056 0.83333331
2.6743708 -0.1910129 4.9234986 1
-3.21509 -0.081588045 4.9026775 1
-2.5367789 -0.073868014 4.9538269 1.6666666
-0.45347857 -0.021585494 4.9938121 4.5
0.2818065 -0.038097136 4.9532251 2.75
2.2083437 -0.0495129 4.9523544 1
2.5521908 -0.071639866 4.9290757 3
-2.6291556 0.088638224 4.9395714 3
-0.74903154 0.033409417 4.9485593 5.1999998
0.34156674 0.078565702 4.971817 4.5
0.43943128 0.030032843 4.9511395 5.25
1.2834256 0.067759469 4.9466829 3
1.5239717 0.0897751 4.9076877 3.5999999
1.6658791 0.011033528 4.9778595 2
1.8815788 0.06496121 4.9259491 3.5
2.2544482 0.027854428 4.9381003 3
2.5049846 0.0058717132 4.9411612 3
2.8123088 0.0073595941 4.9769163 3
4.432714 0.050969303 4.9859138 4
-2.9727464 0.16953987 4.94454 4.25
-2.8139749 0.12735051 4.90311 5
-2.2217357 0.18712507 4.9946995 3.625
-1.4214803 0.14903647 4.9548244 4
-1.2512348 0.14816982 4.925746 4.7083335
-0.4285368 0.18842459 4.9387798 4
-0.053533792 0.12354374 4.9361482 3
0.16200939 0.14633483 4.9337626 7
0.84943962 0.15891066 4.9290094 3.3333335
1.1726826 0.16420755 4.9256535 4.6666665
1.5308117 0.14252768 4.9404902 4.25
1.8972863 0.11293988 4.9542089 4
2.3055577 0.10811599 4.9668341 4
2.7021878 0.12584946 4.995295 4
-2.5855885 0.24025153 4.9663062 3.8
-2.177227 0.28369966 4.9851418 4.5
-1.9188075 0.29500589 4.9917464 4
-1.4766726 0.27839929 4.9716859 7.5
-1.3786062 0.24619059 4.9710197 7.5
-0.99187666 0.23221929 4.928844 3.5
0.012363404 0.28819379 4.9558573 8
0.32351467 0.25769106 4.9004698 5
0.77818197 0.24682012 4.9219055 4
1.1412412 0.20455939 4.9182453 5
2.3164542 0.2156595 4.9484081 5
2.8775797 0.20864092 4.9999733 4.5
-3.9097488 0.32508013 4.9783053 5
-3.2545831 0.32334989 4.9529181 3.8333335
-2.6514697 0.33265486 4.9802699 4
-2.5832241 0.36768559 4.9760375 5
-1.4438941 0.34330022 4.9850106 8.3500004
-1.2819424 0.38859257 4.9137697 9.0799999
-0.24956408 0.37160146 4.9318018 9.2023745
-0.15755923 0.39013177 4.968791 9.4735899
0.10688621 0.3973155 4.9545517 9.6027184
2.797049 0.37939405 4.9080858 8.1075001
-4.3515439 0.43533626 4.9345398 6
-4.0295696 0.4886685 4.950017 5
-2.7681293 0.48654225 4.9612646 5.5
-2.6088471 0.40719947 4.9490309 5
-2.0913844 0.46486232 4.9447813 9.2405005
-1.6582469 0.42761031 4.9219995 9.1483564
-1.0479439 0.43198663 4.932941 5
-0.27790037 0.43689591 4.921607 10
-0.016833425 0.48499686 4.9142213 7
0.9140749 0.47706997 4.965632 6
1.092748 0.48661911 4.9869466 7
1.1074541 0.43520415 4.9117823 6.25
-3.784833 0.5956912 4.9830375 6
-2.647733 0.56875753 4.9585629 7.4349999
-1.4613426 0.57278657 4.925787 8.5647497
-0.85937744 0.54887164 4.9709287 5.75
-0.27693671 0.59430969 4.9050226 9.7401009
0.53819954 0.52064192 4.9417534 9.1628752
1.255659 0.52847177 4.9306507 10.60075
-3.5101025 0.66112435 4.9507442 7.533
-2.9112444 0.69651729 4.9663706 7
-1.0994202 0.63894933 4.9664998 6
-0.49902922 0.65151477 4.9510689 12
-0.32845035 0.69926763 4.9408188 13
-0.058105201 0.62558407 4.9613976 8.333333
0.032980725 0.68217647 4.9869661 9
2.866096 0.67904377 4.9625888 8.0904999
3.2724395 0.63380682 4.9503798 8.0935001
4.1068931 0.66188395 4.9084797 8.0959997
-4.2110567 0.7349183 4.9465995 6.5
-3.840549 0.73345649 4.9756422 6.5
-3.3129721 0.7848146 4.9912729 7.5
-2.6010211 0.72503483 4.9994526 7.5
-2.1492956 0.75755167 4.9940977 8.5612497
-2.0044544 0.7757057 4.9653463 9
-0.88658494 0.76169491 4.9918175 8.0684996
-0.77519107 0.78516638 4.9907212 7
-0.58883572 0.78240174 4.994586 8.0695
-0.48675245 0.70741069 4.9683118 8.0705004
-0.33449638 0.74923748 4.9870734 8.0707502
0.04704985 0.7563889 4.9156828 11.6759
1.1976937 0.79227024 4.9729133 9
2.2978125 0.70910889 4.9731503 8.085
2.6317363 0.72677886 4.9060888 8.5897503
3.7565823 0.70140171 4.9990568 8.0947495
4.6075583 0.78620672 4.9492617 8.5970001
-4.3398557 0.82721782 4.962883 6.5
-4.1720529 0.85490292 4.9523516 9.0637503
-3.4779954 0.86547929 4.9831638 10.56625
-2.7446299 0.83071238 4.9476247 7
-2.5712616 0.86562288 4.9733629 8.166666
-2.4546957 0.86069596 4.9646349 8.0305004
-2.2494888 0.8738203 4.964622 8
-1.8788159 0.8674165 4.9462085 11.062
-1.63633 0.83974099 4.9815216 14.018089
-0.85749656 0.83694053 4.9376101 11.5
-0.61021924 0.81389451 4.9583263 14.3741
-0.57136095 0.80612862 4.952899 14.166667
-0.24313369 0.86311138 4.9263391 12.518055
-0.091875255 0.83032113 4.9192672 10
0.03598097 0.86050791 4.9263554 10
0.30739602 0.87679005 4.9017577 10.57575
0.7376672 0.87797564 4.9359584 10.4783
1.1510925 0.84056282 4.9485769 9.6396999
2.358747 0.82652771 4.9884472 8.0844994
-3.7738142 0.97439325 4.9725051 8
-3.4167414 0.94598615 4.9941339 8.722333
-3.3952353 0.96851182 4.9744215 9
-2.7472396 0.9891094 4.9859891 8
-1.1665803 0.99550295 4.9759831 16
-1.0815295 0.99549603 4.9010687 9.4004164
-0.72573924 0.93295163 4.9120827 8.8687992
-0.26439103 0.91043353 4.9981828 16
-0.054319728 0.94079256 4.9220691 10.68768
0.35498011 0.95559722 4.9320889 10.07525
0.47965506 0.94995779 4.9477258 9.1997499
0.89376521 0.98942518 4.9468989 9.0767498
1.6008953 0.92643136 4.9601703 9.2062492
1.9760412 0.96666741 4.9576535 9.483284
3.2347293 0.98874211 4.9098048 9.4219999
3.7125688 0.98413831 4.9794693 9.0900002
4.0592031 0.97155845 4.9700389 9.0909996
4.4107809 0.96291459 4.9614396 9.092
4.8574195 0.95775217 4.9630837 8.0930004
5.212235 0.96063417 4.9746623 8.09375
-4.4170542 1.0999666 4.9454794 8
-3.9007628 1.0805217 4.9503479 9.303875
-3.8199866 1.0369563 4.9756112 9
-2.9695141 1.0380363 4.9641676 9.55725
-2.7539873 1.0465114 4.9635744 8.5
-2.2424233 1.0372522 4.9433589 11.726501
-2.0094116 1.0114291 4.9936771 8.666667
-1.6354692 1.051389 4.9086399 10.6638
-1.3073717 1.0287552 4.9351292 10.6657
0.57928395 1.0041465 4.957726 10
0.63090914 1.0150591 4.9518886 11
0.76784641 1.0134447 4.9748125 10.5
1.3096709 1.021753 4.9831247 9.6500721
4.1271811 1.0977671 4.9642305 10.096
4.6234331 1.0529914 4.9239664 10.09725
-5.1395483 1.1170336 4.9933949 8.0500002
-4.3027468 1.1165053 4.9292049 8.5
-3.2717423 1.1889533 4.9356756 11.055
-3.0909834 1.1656781 4.948123 11.389167
-2.6463695 1.1052858 4.9248023 11.4577
-1.5969127 1.1002592 4.921567 11
-1.3021948 1.1215534 4.9451332 11.666667
-1.1556723 1.1418865 4.9560437 14.5
-0.68605113 1.1223533 4.9246192 10
-0.57878566 1.1935405 4.9984088 13
0.072006777 1.1317339 4.980226 10.32275
0.41134679 1.1636926 4.9570298 18.6665
0.56570661 1.1328 4.9979553 17.667585
0.78588796 1.1982118 4.9645386 12
1.1508468 1.1581948 4.9942236 11.666666
1.297521 1.1547761 4.9914846 11.08025
2.1111226 1.1577318 4.9825201 10.0835
-4.3395891 1.2016271 4.9021392 9
-3.8209391 1.2068084 4.9496241 10
-2.5449352 1.2084049 4.9589119 12.059001
-2.0011497 1.2387514 4.987206 10
-1.3998444 1.2534746 4.9364953 17.995752
-1.0570859 1.2584668 4.9693646 17.739054
0.58576405 1.2561588 4.9840021 16.204813
0.63670492 1.2197605 4.9438438 12
0.90700054 1.2014753 4.9961329 15.482
1.9212228 1.2762161 4.9301291 16.60475
2.2094536 1.2169597 4.9200773 13.088
2.6163912 1.27473 4.9586391 12.6896
4.3802824 1.2586638 4.9372525 10.092
-4.4424338 1.3886847 4.962718 12.729167
-3.9089582 1.3012708 4.9202223 11.05275
-3.3930645 1.3644366 4.970356 14.566
-1.5300719 1.3485856 4.9294543 16.259809
-1.4273916 1.3796233 4.9000258 16.564417
-1.1839254 1.3168284 4.9643965 19
-0.64450246 1.3072145 4.9366951 11.5
0.23171487 1.308026 4.9538221 16.877201
1.6126434 1.3763473 4.9510012 18.103251
2.0505137 1.3457048 4.9700074 10.881901
2.5195065 1.3265865 4.9430594 12.587437
-4.5195732 1.4584219 4.9473066 10.552
-3.379163 1.4960902 4.9414577 12.4554
-2.7677243 1.4713559 4.9836378 11
-1.8517181 1.4106872 4.9061174 11.507999
-1.2990699 1.4085771 4.9306889 13.06575
-0.86183965 1.46402 4.9032426 14.857142
-0.44263285 1.4519016 4.9219561 15
-0.14870554 1.4551424 4.9329114 15.203041
0.059071481 1.4753951 4.9798021 15
1.7193009 1.4179754 4.9597788 14.836438
1.9241054 1.4330348 4.9678316 17.760168
2.2641859 1.4460927 4.9396048 17.095249
2.430624 1.4980807 4.9390421 17.107
2.6631246 1.4624292 4.9224391 16.097
-3.8234377 1.5736557 4.9779568 12.054001
-0.53904223 1.5304743 4.9546318 15
-0.35959589 1.5692499 4.9670477 16
0.90130723 1.5089085 4.9155564 21.099167
2.0045111 1.5102398 4.978014 13.25
3.8313498 1.5033766 4.9353561 14.1005
4.3415461 1.5093422 4.9072776 13.101749
-2.7685072 1.6781775 4.9940748 12
-1.8632375 1.6841688 4.9000478 14.06275
-1.7975719 1.6997887 4.9241858 21.278074
-0.28919217 1.6138299 4.9687433 14.0715
0.038307741 1.6371 4.9527121 16.5
1.2694123 1.6238649 4.9419665 13.411834
2.7171106 1.6008797 4.9677954 17.108
-5.1149154 1.7951202 4.9330759 13.5605
-0.65056777 1.7515681 4.9317703 15.736
-0.56485271 1.7942402 4.9747066 17.07
-0.45054734 1.7630283 4.9550891 17.194445
-0.33735946 1.7693908 4.9261465 15
-0.083801925 1.7331946 4.9664617 17.142857
2.9625413 1.7217629 4.9087372 16.093
-4.8150911 1.8115592 4.9739914 14.06125
-3.5613875 1.8638564 4.9187241 15.0535
-1.9194524 1.8488576 4.9088674 19.311001
-1.3407955 1.8444694 4.9287496 17
-0.83660573 1.8454418 4.9215584 17.72456
-0.78843069 1.8094717 4.9533134 17.25
-0.28405493 1.8073864 4.9585271 14.642428
-0.040632367 1.8355874 4.957592 22.075001
0.037893739 1.8890197 4.9087434 15.405917
0.10984614 1.8015933 4.9885631 17.574249
0.33416632 1.8059437 4.9809117 17.5
0.47767153 1.828065 4.912457 15.07475
0.55395973 1.8725469 4.9867463 18.077
0.85801983 1.8037298 4.9494596 14.409917
2.4196625 1.8641362 4.9312906 15.0855
-4.2709165 1.9741949 4.9680958 14.0525
-2.2030389 1.9274938 4.9107227 22.060875
-1.8295572 1.9243914 4.9613419 23.063499
-1.0590931 1.9853625 4.9498057 18
-0.87874854 1.9026006 4.9531927 18.068001
-0.15143731 1.9462852 4.9558792 19
2.8153 1.9647818 4.9519792 16.087
4.2580242 1.9533923 4.9976025 15.0965
12.071117 1.9685109 4.9607592 9.118
-0.43840051 2.0694942 4.9862514 19.570749
-0.34179723 2.0017548 4.9011302 16
-0.24027841 2.005357 4.9680419 19.072001
11.30031 2.0047219 4.9597778 9.1040001
-5.8226738 2.1792119 4.965661 14.059
-4.8322554 2.1513307 4.958993 16.060833
-2.6878834 2.164176 4.9743772 19.657001
-1.9891803 2.1667676 4.9879956 16.396334
-1.6067802 2.10642 4.9972339 16.064751
-1.5891746 2.1822736 4.9080868 19.25
-1.3360574 2.1050043 4.9144568 19
-0.94271958 2.136831 4.9479542 20
-0.82746494 2.157969 4.9804749 20.068251
-0.74788141 2.1465936 4.9330955 18.367695
-0.65892285 2.1105072 4.980093 19.5
-0.55467021 2.1782594 4.9592466 20
-0.36577877 2.143837 4.9453397 18.134834
-0.25284064 2.1217706 4.9813585 18.464035
-0.18597522 2.1041064 4.9864249 20
0.073558807 2.1194794 4.9877882 17.07275
1.335431 2.1343453 4.9750342 22.584999
10.216096 2.1029725 4.9326649 10.10775
-5.2808323 2.2182546 4.9914083 15.393333
-2.7475357 2.2595093 4.9995375 15
-1.6217148 2.2338338 4.9229131 19.563499
-1.2048591 2.2674346 4.9437599 20.2659
-0.63872409 2.2698674 4.9531817 21
-0.51543111 2.2758763 4.9673939 17
-0.47138143 2.2729621 4.9321575 18
-0.35136494 2.298691 4.9455528 18
1.0478762 2.237493 4.9536552 22.081665
2.0702357 2.297014 4.9667058 16.082001
2.344008 2.2429731 4.9561176 22.696199
7.4976778 2.2845299 4.9678798 13.116
7.5398674 2.294513 4.9263277 13.101749
-4.523026 2.3243115 4.9684534 15.05175
-2.7573342 2.384887 4.9159145 23.057501
-2.0579133 2.3365517 4.9121795 19.394501
-0.73656261 2.3407025 4.9680262 21.06875
5.2745285 2.3389077 4.9236155 16.353874
5.5613322 2.3647728 4.915247 15.614374
5.79182 2.3940122 4.9694328 14.598
-2.7023373 2.4364347 4.9125013 21.056499
-2.0148861 2.4475167 4.9318333 20
-1.9889255 2.4535844 4.951582 20
-1.8220237 2.4496555 4.9691558 20.0625
-1.6418195 2.4579964 4.9956989 21.063499
-1.548848 2.4457147 4.9818583 21
-1.4083633 2.447845 4.9879131 21
-0.93172312 2.4732835 4.9669023 22.067499
2.5798512 2.452785 4.9539232 21.691601
3.0014169 2.4653859 4.9048214 20.926752
3.5704913 2.4972465 4.9066038 20.7113
4.1694112 2.4802873 4.9029369 19.112499
4.7682133 2.4434171 4.9550204 15.8943
5.0377126 2.4170573 4.9112191 15.095
-5.7025261 2.5848351 4.9896469 16.392334
-4.3995852 2.5135376 4.9924765 17.051001
-1.8606815 2.5714636 4.9394641 18.349285
-1.4935026 2.5991993 4.9522581 22
-1.3659011 2.5492663 4.9513364 19.932949
0.039267953 2.5264051 4.9159703 19.072584
1.2764064 2.5309124 4.9285979 18.4786
1.6554254 2.5915267 4.9049907 21.081999
1.8319635 2.5985234 4.9318008 23.08625
2.0582621 2.5798383 4.9898272 17.881901
2.5997171 2.5832131 4.9406691 16.583082
2.6856356 2.5537479 4.9812775 20.965
2.7006555 2.5138001 4.9517283 23.108749
2.8752391 2.5823534 4.9438882 18.169626
2.9578261 2.5449307 4.9932795 16.084249
3.1215775 2.5474131 4.9061337 19.289801
3.6130943 2.5150309 4.9414425 17.58975
3.8856058 2.5015244 4.968009 18.094
4.3220053 2.5210612 4.9554362 17.09325
-5.3978114 2.6231267 4.9998388 17.050251
-4.1715107 2.6500413 4.9896412 21.22875
-3.9105897 2.6944308 4.9326239 22.0625
-2.9134698 2.6146672 4.9198914 22.0555
-2.8916776 2.6144514 4.9654207 17.0595
-1.9665174 2.6440253 4.9362879 21.25
-1.6758699 2.6238463 4.9685307 18
-1.5241741 2.6655962 4.9330568 22.333334
-1.2300236 2.6331019 4.9176831 22.465601
-0.28021905 2.6217101 4.9621744 19.471001
0.21719098 2.6072321 4.9028902 18.573
0.57792723 2.6513524 4.9906507 23.077
0.88740492 2.6096587 4.9466801 19.410082
0.94761109 2.6149626 4.9419379 19.82725
1.2525581 2.6349962 4.9432602 22.747833
2.244683 2.6018939 4.9411025 22.088249
-4.154726 2.7379146 4.9505453 18.0525
-3.0514598 2.7393916 4.9119487 21.056
-2.8125458 2.7551284 4.9130535 18.726
-2.765677 2.7554803 4.9363375 19
-1.9614812 2.7547615 4.9282465 22
-1.5035509 2.733952 4.9035978 23
3.0300012 -0.42203122 5.0427094 1
1.2541221 -0.30620572 5.0491114 1
1.4333087 -0.37441295 5.0562077 1
2.3446193 -0.32793498 5.0811934 0
-1.9975059 -0.21210285 5.0082483 1
-0.94524968 -0.25842637 5.0041747 1
0.21853474 -0.26591569 5.0787535 0
1.1102759 -0.23289582 5.0891423 0
1.5952432 -0.20127282 5.0680761 0.33333334
1.9443642 -0.29143125 5.030354 0
3.1469936 -0.21858069 5.0921459 1
-3.1711066 -0.15018579 5.0472517 1
-1.5899526 -0.12524839 5.0252156 1
-1.3537605 -0.16507165 5.0275817 1.3333334
-1.1575439 -0.13785031 5.0993981 1.5
-1.0060738 -0.16997373 5.0283403 1.4
-0.73215729 -0.11292282 5.0538058 1
-0.66060764 -0.12411904 5.0821037 1.4
-0.538158 -0.14585775 5.0305877 1
0.51656246 -0.13838406 5.0296516 0
0.13438034 -0.077421844 5.0357428 4.4285712
0.88971871 -0.044061571 5.0380006 1
0.97178948 -0.051527366 5.0267992 2.6666667
-1.8767166 0.097361952 5.0213051 3
0.61764508 0.027353503 5.0019908 3
1.0529482 0.043454438 5.0767927 5
1.2357666 0.0209997 5.097136 5
2.7867136 0.06394998 5.0546422 3
3.219471 0.0056131482 5.0689626 3
4.3743057 0.081787929 5.097373 3.6666667
4.5268073 0.0028783679 5.0866532 3
4.6653705 0.067446753 5.0035934 4
-1.4600852 0.19681795 5.078125 4
-1.1074357 0.15408407 5.0816507 3.5
-1.0140878 0.17210543 5.0823288 3.5
-0.87810242 0.13128242 5.0861487 3.25
2.2456765 0.17866485 5.0212436 4
4.5356493 0.15266266 5.0803399 4
-1.9703799 0.2637766 5.0120702 4
-1.8114196 0.21535307 5.0099063 3.5
-1.7348192 0.29645142 5.0686646 4
-1.3944045 0.22049382 5.0515008 4
-1.0228227 0.29704428 5.0043097 8.0710001
0.4198527 0.24464986 5.0151119 8
0.64781976 0.28279418 5.0839453 8
0.80592358 0.24631992 5.0804358 7.5
1.9352459 0.24078891 5.0215216 4.3333335
-2.9894238 0.38969076 5.0241303 4
-1.5103118 0.3394011 5.0293407 5
-1.4671239 0.38637555 5.0474305 8.5338125
-1.1262013 0.30043626 5.0699878 4
-0.87465441 0.33021235 5.0968437 4.25
-0.39605689 0.3960118 5.0937829 10.087858
0.16308403 0.35407203 5.0822525 9
0.53263164 0.32675314 5.0567799 8.6309738
1.3968552 0.38408113 5.0019593 5
1.6526361 0.30319172 5.0005054 5
2.0719967 0.37423158 5.0125999 8.0932503
-0.70878029 0.44050574 5.045537 10.370857
0.15639147 0.45836142 5.0087643 10.5
1.1236225 0.48678946 5.0070372 6.75
1.2435541 0.40311182 5.0100961 6
-2.0835733 0.57448256 5.0621133 6
-1.5340722 0.57749397 5.0354376 6
-0.98289824 0.59801328 5.0323133 5.9000001
-0.71211898 0.59379488 5.0492458 6.25
0.028569818 0.50897855 5.0358229 6
0.69799232 0.57979792 5.0157356 8.0780001
0.96139657 0.52800333 5.0538979 7.5410624
1.8059279 0.59480113 5.0018539 7.75
2.7971859 0.58150947 5.0592542 7
3.6630564 0.57893932 5.039052 9.1094999
-3.3461404 0.63074207 5.0132871 6
-2.223464 0.64139825 5.020071 6.1999998
-2.0516086 0.66987109 5.0110593 8
-1.9041009 0.65533257 5.0247154 8
-1.8380328 0.69111717 5.0325189 7.5
-1.4524457 0.69640326 5.0550413 8.6652994
-1.385963 0.6162101 5.0845389 7.25
-1.012769 0.6616264 5.0377064 8.6929998
-0.15007839 0.68806338 5.0683041 13
0.15788028 0.67515755 5.0015001 12.5
0.3225629 0.61682582 5.007298 8.0757504
0.49055734 0.61679822 5.0542793 7
1.09047 0.61473626 5.044848 8.0801668
1.1907518 0.62335247 5.0552216 8
1.4866619 0.63355494 5.0574212 8.0822506
1.8285953 0.6193611 5.006815 8
1.9016696 0.66528529 5.0244155 8.0843325
2.2637694 0.65682775 5.0111356 8.0860004
2.5168383 0.6208899 5.0337601 8.0869999
3.5684383 0.64134628 5.0512714 8.0924997
3.9000406 0.6091125 5.0531635 9.1099997
-3.3895001 0.70116007 5.020771 7
-3.029371 0.75556403 5.0607648 7.8191667
-2.2394204 0.72562665 5.0058489 8.1000004
-2.0544872 0.75720358 5.0322156 7
-1.942342 0.77015793 5.0732288 7
-1.8486857 0.70871717 5.0488424 7
-1.7857387 0.70279598 5.0198965 8.6632996
-1.25743 0.78322333 5.0903006 14.080301
-1.0566529 0.75819671 5.0051875 7
-0.26205516 0.79241127 5.0374136 14.0385
0.11912027 0.73438776 5.0229807 13.433382
1.4711479 0.79635268 5.0503664 9
-2.2671542 0.8048963 5.0252566 7
-2.1579294 0.85484904 5.0111346 13.07325
-1.2219365 0.82096756 5.0712481 8
-1.096163 0.81324232 5.035109 8.0675001
-0.88198799 0.87731081 5.0470581 8.0679998
-0.16268279 0.84873533 5.0194592 15.2449
0.1219472 0.81150848 5.0697155 14.1
0.22604644 0.80026746 5.0844049 8.5745001
0.4065367 0.83351636 5.0738339 9.0755005
0.58344781 0.88057899 5.0285778 9
1.0984447 0.89032549 5.089437 10
1.2915267 0.88603544 5.0281258 14.089251
1.7651776 0.86641526 5.0258293 11.515571
2.1467025 0.85775304 5.0606203 11.08875
2.7675762 0.81980091 5.0183172 8.0859995
-3.2060542 0.96292961 5.0456276 8.0584993
-3.0464149 0.91129208 5.0367475 8.833334
-2.5937276 0.97879612 5.0019712 7.909091
-2.4377019 0.94678736 5.0203724 9
-2.2299705 0.93247074 5.0150242 7.8888888
-2.0528147 0.93638283 5.0354156 9.5333338
-1.9221902 0.92087758 5.050281 10
-1.8332446 0.92864448 5.044507 9
-1.7240713 0.9820267 5.0439401 8.0322495
-1.449365 0.972875 5.0835848 11.208143
-0.96355617 0.99703556 5.0988164 8.666667
-0.8437714 0.95397395 5.0334396 9.0684996
-0.74246943 0.90498 5.0802889 15.751332
-0.48050407 0.99610186 5.0044456 16
0.82138491 0.94058859 5.0224619 9.8000002
1.1363047 0.95150834 5.0439701 9.8000002
1.2891488 0.90099996 5.0879407 9.4800997
1.3201021 0.92650163 5.0549874 12.417778
1.4601918 0.92780834 5.0659828 9.5
1.6939526 0.99301571 5.0517831 8.7469168
3.493711 0.91147625 5.0648222 9.0922499
-3.4233186 1.0266854 5.0154924 9
-2.9201391 1.0753074 5.0544853 8.0600004
-2.6638196 1.014432 5.0051165 8.75
-2.5951638 1.0065066 5.0134974 8
-2.4497299 1.016646 5.0135565 9.0612497
-2.2410288 1.063102 5.0189619 10.101856
-2.0590765 1.0597579 5.0478115 9.0629997
-1.9242915 1.0711756 5.0368519 9
-1.840167 1.0319283 5.0406818 9.7606983
-1.5670023 1.0698161 5.0675073 9.7319164
-1.4019648 1.0625403 5.0879998 9
-1.236848 1.0352855 5.0925555 9.495429
-1.0400739 1.0543184 5.0867515 9.75
-0.82817852 1.0534616 5.0598264 11.2115
-0.48375422 1.0299076 5.0303907 17
0.039800256 1.0754249 5.0870333 17.5
0.32869074 1.0910286 5.0067282 17.082251
0.72414112 1.027458 5.0668817 11.328
1.33302 1.0261668 5.0492105 10
2.6041489 1.052861 5.0685773 10.086
-2.7499733 1.1350403 5.0279479 9.3101254
-1.8526689 1.1819246 5.0667434 9
-0.67808092 1.1867012 5.0735617 15.07025
1.3713387 1.1809175 5.0294199 16.701399
1.4329044 1.1838049 5.0275869 11
1.6586504 1.1370473 5.0144992 11.082001
-3.5264983 1.2770134 5.0676498 13.566
-3.3517678 1.2111133 5.0504198 10
-2.9638658 1.2742422 5.0670929 15.068438
-2.523325 1.2585173 5.0829153 16.070833
-2.1114793 1.2056919 5.0824242 9
-2.0975184 1.2088225 5.0884733 16.573572
-1.9982151 1.2953978 5.0541878 11
-0.67186737 1.2137831 5.0526066 18.638718
-0.52960986 1.2046676 5.0205164 13
-0.41194284 1.2807928 5.0949287 13.321125
0.033347189 1.2984211 5.0696568 13.5
0.11458601 1.2485485 5.0422621 15.036501
1.3939284 1.2727082 5.0315218 15.751667
1.5032334 1.2452878 5.0734982 12.58225
2.45964 1.2357793 5.0387106 11.08475
3.2242496 1.2526431 5.0648098 12.0915
-3.3994405 1.3246577 5.077034 11
-3.1821423 1.3507125 5.0705738 10
-2.7038789 1.3992448 5.0827575 16.736334
-2.2876959 1.3448024 5.0677795 14.393167
-1.944981 1.3548923 5.0787983 11.563499
-1.8497424 1.3483515 5.0166883 15.2621
-1.7159156 1.3258179 5.0604143 10.0645
-1.4076326 1.3922265 5.0824423 14.565375
-1.3737524 1.3293985 5.0581732 11
-1.0438246 1.3605267 5.0013952 11.638786
-0.68669486 1.3504447 5.0393777 11.735751
-0.31421098 1.3025858 5.0218716 11.499428
-0.042335838 1.3252182 5.0711718 20
0.4885191 1.3620667 5.0429969 11.82475
1.0193446 1.3030026 5.0647526 18.0875
1.3004419 1.3433294 5.047801 18.0895
2.7169695 1.3491786 5.0096121 12.0865
2.8541665 1.3250713 5.0456553 10.835501
2.9116383 1.3287611 5.0293989 12.5905
-4.2138672 1.4588513 5.0615225 13.0635
-3.8524265 1.4328308 5.0785456 14.06475
-2.9890909 1.4647614 5.0318422 11.9286
-2.7723818 1.4124366 5.0092463 10
-2.6347167 1.4287083 5.0382257 12.229
-2.2091103 1.415157 5.0448608 10.5
-2.1554487 1.4225333 5.04984 13.811125
-1.7778482 1.432814 5.0876369 12.642778
-1.0293491 1.4533168 5.0905004 13.742208
-0.93988287 1.4964525 5.0671263 21
-0.38929635 1.4556642 5.0555735 18.072334
-0.073226027 1.415029 5.0048566 14.6
0.36738178 1.4201772 5.086937 20.0825
0.61339879 1.4930502 5.0857854 20.941641
0.933824 1.4646974 5.0934429 13.538375
2.4501572 1.4097507 5.0002604 12.5855
5.1823449 1.4414595 5.0353098 10.0935
-4.2087679 1.5620645 5.0609922 11.719833
-3.1625848 1.593024 5.0579739 11.5
-3.0613136 1.5009408 5.0626254 11
-2.9149845 1.5824655 5.0455537 11.06
-2.780663 1.558717 5.0559669 12.06
-2.4040408 1.5458934 5.071373 12.061501
-0.92274511 1.5705193 5.054667 21.833332
0.92795587 1.5989398 5.0697985 21.087
1.337996 1.551789 5.0236893 12.578751
1.425529 1.5576595 5.0263143 20.0905
4.4622502 1.5544513 5.0759254 13.0965
-3.174459 1.6626832 5.0529127 12.0585
-2.581367 1.6312091 5.0393181 14.654875
-2.2339537 1.6432613 5.0801167 19.06175
-1.3619145 1.6886417 5.0325556 22.267401
-0.010740295 1.6741977 5.0029454 14.672999
1.1621181 1.6889129 5.0539541 16
1.5429856 1.6128808 5.0598545 15
10.28711 1.6082629 5.0443888 8.6032505
-4.433989 1.7612596 5.0403337 14.729167
-3.2882771 1.7168081 5.0089617 12.058
-2.9144905 1.7405442 5.0663242 12.06
-2.5508347 1.7677164 5.0345478 12.6
-2.2932603 1.7486115 5.0861702 12
-1.8351114 1.7681 5.0924096 12.8
-1.7759893 1.7759037 5.0540457 16.863001
-1.3694603 1.7330868 5.0944977 17.732166
-0.23498318 1.7027966 5.0052056 17
0.37061355 1.7893525 5.0186372 17.25
0.42296565 1.7641492 5.0474854 15.07525
0.68417692 1.7542875 5.0245342 17.077751
0.75676262 1.7484783 5.0329776 17
1.0959462 1.7946217 5.0654869 16.799999
1.5752474 1.7877011 5.0464363 18.651501
-3.7130976 1.8398446 5.0496845 13.554501
-2.2232394 1.8373744 5.0733204 12.78125
-1.5871813 1.8923943 5.0234127 23.0655
-0.70763445 1.8851464 5.0771141 16.069
-0.39768645 1.8421437 5.0930371 16.070751
0.82666504 1.8387306 5.082356 15.07725
1.218393 1.8587201 5.074369 17
1.4826342 1.8146365 5.0384436 22.090998
1.6255665 1.8687912 5.0162258 22.091999
3.0841756 1.8802652 5.0342569 18.108999
-3.5779455 1.9171871 5.0855713 17.0555
-1.5793335 1.9110137 5.0725722 15.464399
0.51996195 1.9705229 5.031466 19
1.146445 1.9920658 5.0793662 18.333334
2.8718214 1.9536119 5.023859 17.0905
4.5107903 1.9828022 5.0168447 15.097
11.407388 1.9996122 5.0245967 9.1079998
-1.9252173 2.0018706 5.0939317 15.56275
-1.4169704 2.0365238 5.033865 22.064501
-0.66687787 2.0274634 5.0549989 22.869999
1.0558057 2.0901189 5.0772862 19
1.1909494 2.0101826 5.0663939 18.5
1.9277883 2.0013144 5.0182343 22.09375
2.1342483 2.0579433 5.0497169 22.105751
-4.3235912 2.1702271 5.0517235 17.052999
-2.6007433 2.1743019 5.037632 14.571428
-2.4390912 2.1998219 5.0681596 16.061251
-2.2462602 2.1367288 5.0699587 14.65625
-2.1600432 2.1213207 5.0521183 18.394085
-1.3469502 2.1129379 5.0902467 20.0655
-1.2491602 2.1078651 5.0208378 17.0665
-1.1975456 2.1187682 5.0502591 17
-1.0484052 2.1188233 5.0395441 17
-0.97697395 2.1238534 5.0451612 17
-0.7708289 2.1435075 5.0578747 17.069
0.4778603 2.1479433 5.0430603 16.474701
0.69845194 2.1731858 5.0722303 21.4125
0.72034359 2.1445065 5.0615959 19.777851
0.95179105 2.1395478 5.04949 17.705124
1.0118883 2.1641905 5.0981812 23.0825
1.3110223 2.1466181 5.0396414 16.278601
1.5207103 2.1987271 5.0923543 22.085751
1.6887871 2.1908324 5.041759 16.08025
2.1258166 2.1039808 5.0279574 22.094749
2.9465733 2.1402864 5.0841799 15.0865
8.8221245 2.1881008 5.0581565 11.6165
9.9261923 2.1106329 5.0672684 10.117
-4.4628963 2.2197163 5.0295172 17.0525
-2.6317501 2.2888427 5.0729365 16.0595
-2.5545471 2.2595396 5.0432682 18.05925
-2.4059148 2.2067435 5.0652623 16.060499
-2.1473584 2.2062626 5.0756435 17.280376
-1.904636 2.2627251 5.066215 17.063499
-0.052746594 2.2071292 5.0242 20.527683
0.37452653 2.2384744 5.0480866 20.520222
1.9975888 2.2547162 5.0592966 19
2.0677748 2.2873678 5.0721245 19
7.1379766 2.26561 5.0408587 13.1155
-4.3395786 2.300209 5.0523291 15.0525
1.7571625 2.3524375 5.0148573 22.837376
4.6278925 2.3882422 5.0663309 16.095501
4.9329238 2.345242 5.0074778 16.098
5.3937521 2.3995862 5.0754671 15.097
5.7889299 2.3594134 5.0618782 14.096
7.6718884 2.3056455 5.0464811 12.1015
-2.7742682 2.4036555 5.0448151 18.05825
-1.3956721 2.4572427 5.0078387 21
1.4618212 2.4286468 5.0125284 22.417334
3.0157547 2.4922609 5.0767393 21.7591
3.4559655 2.4730155 5.0214825 19.293499
3.82231 2.4935801 5.0638952 18.762001
3.927177 2.4609864 5.0476265 19.351
4.2607965 2.4706872 5.0280724 17.2948
4.4583673 2.4245446 5.0784693 18.101999
-3.1679072 2.5069492 5.0672536 16.0585
-2.9102418 2.5830235 5.029624 16.059999
-2.8036842 2.543416 5.0873513 17
-2.7484365 2.580363 5.0043616 16.060499
-2.6261995 2.5222814 5.045229 16.5
-2.5227511 2.5462389 5.0329776 16.666666
-2.2022095 2.5512638 5.0311584 16.666666
-1.7856417 2.5549664 5.0616746 16.857143
-1.6809044 2.5474575 5.0833573 17.064667
-0.71121716 2.598799 5.0968442 22.569
-0.041054409 2.5987628 5.0738425 18
0.45073637 2.5346448 5.0351081 18.741249
1.5241339 2.5921602 5.0762568 20.080999
1.7495694 2.5265348 5.0660672 17.747166
1.8750788 2.5935941 5.0266681 18
2.1352577 2.528178 5.081007 17.333334
2.241107 2.5683947 5.0263281 19.835751
2.7670894 2.5120115 5.029912 23.09775
3.1480985 2.5205045 5.0176482 19.758249
3.5556498 2.5156143 5.0199637 20.605499
3.6009109 2.5857956 5.0609894 16.08725
-10.016109 2.6133401 5.0326719 10.546
-3.648109 2.651711 5.0559158 23.064001
-3.3843346 2.6111572 5.001215 17.057501
-2.8124204 2.620847 5.0351138 17.059999
-2.7847657 2.663378 5.0771527 17.666666
-2.6809402 2.646981 5.0928359 18.060249
-2.3208113 2.6020494 5.072145 18.560749
-2.1885452 2.634716 5.0382261 17
-0.64280224 2.6382906 5.0128031 19.31925
-0.44551036 2.6277888 5.0534782 22.737249
-0.024521485 2.6082144 5.0977864 22.7875
0.012602136 2.6567912 5.0260925 20.573
0.75135183 2.6213646 5.0955429 19.03775
0.8722803 2.6077006 5.0130129 20.2775
1.6706961 2.6105754 5.0822377 17
1.7583508 2.6048474 5.0000262 17.413084
2.2583055 2.6438146 5.05863 18
-3.7901533 2.7226961 5.0620451 19.053999
-3.5410492 2.7132497 5.022419 20.386833
-3.3466551 2.7111979 5.0149879 19.855299
-3.1270437 2.7364862 5.038795 19.056749
-2.8227367 2.7394676 5.0499358 19.028999
-2.6055412 2.7149737 5.0960016 20.059
-0.62549382 2.7066863 5.073667 20.5
2.011157 -0.40583527 5.1124663 1
2.1341622 -0.42890123 5.1994381 1
-1.4851009 -0.23037021 5.1930943 1
-1.1909695 -0.26483315 5.1822243 1
-0.72429574 -0.21565099 5.1894846 1
0.34287041 -0.21937743 5.1207209 0
0.79868287 -0.22749823 5.1594319 0
1.0185751 -0.21268159 5.1907153 0
1.1867599 -0.25569358 5.1448555 0
1.3600868 -0.24959105 5.170661 0
1.6776377 -0.23129487 5.1700783 3
1.875463 -0.25245473 5.1549606 1.5
-1.2403234 -0.14740129 5.1920228 1
-0.18369946 -0.13039099 5.1164112 1.5
0.096116692 -0.16683429 5.1447458 0
0.22299887 -0.14361519 5.1624441 0.40000001
0.57656616 -0.14698043 5.1682711 0.33333334
0.9385739 -0.13408837 5.1663928 0.40000001
2.0859857 -0.12183575 5.1853924 4
-0.61082196 -0.023001283 5.1391287 3
-0.33787739 -0.0078341067 5.1677847 3
0.13440263 -0.067934066 5.1058321 3
0.21167001 -0.088468447 5.1233506 1
1.3744658 -0.0053777993 5.1066818 5
1.6992739 -0.027663916 5.1974182 4
1.7441871 -0.082006246 5.1483922 4.5
-2.7105198 0.034023404 5.1105299 2
-1.5392215 0.072755992 5.1901555 4.5
-0.1046467 0.00073314458 5.172359 3
0.37811625 0.019103885 5.1132345 6
1.1354519 0.065170199 5.1050816 6
3.9561338 0.060873076 5.1522713 4
4.6165266 0.070628092 5.1009564 3.5
5.7863808 0.054031447 5.1657658 4
-3.2279024 0.11872616 5.1122112 3.5
-1.1461331 0.11810264 5.1212559 6
-0.19883968 0.15771692 5.1324577 3.5
-0.044135556 0.19818813 5.1431427 4
0.94074178 0.14029759 5.1717577 4
3.5652032 0.16631626 5.1447353 5
3.6102498 0.1481716 5.1486902 4
5.2556524 0.15366784 5.1660819 4
5.3434086 0.13624966 5.1752129 4
-1.2318377 0.22098254 5.154829 3.3333333
-0.99681979 0.25485092 5.1650639 5.25
-0.6703952 0.23748574 5.1077065 6.0368748
-0.54801637 0.29058316 5.1421666 5
-0.45933747 0.24522941 5.1234674 4
-0.35022879 0.26818898 5.1371975 5
0.16939412 0.24880624 5.1378908 5.6333332
0.56246495 0.24222882 5.185257 5.5799999
1.1255429 0.2440277 5.110043 7
1.3231238 0.26903799 5.1659441 7.75
1.5253539 0.22231951 5.1974306 7
4.4316258 0.26169413 5.158885 5
4.6781278 0.21510944 5.1917515 5
-2.3261986 0.36821511 5.1013284 5
-1.393752 0.36709183 5.1078973 5
-0.71499544 0.36842188 5.1331201 5
-0.29555514 0.31471348 5.1211243 5
0.15449047 0.36218429 5.148366 9.3779631
0.55357623 0.33799493 5.1889915 5
0.61780894 0.37561488 5.1754427 9.7622499
0.87081027 0.33573717 5.1279502 8.5858335
0.90215051 0.31438425 5.1219864 8.2857141
1.1163833 0.30297524 5.1298141 8
1.2373607 0.34269869 5.1930847 8.5880003
4.2330379 0.37854236 5.1715283 5.5
4.543272 0.35929921 5.1350126 5.5
-1.8909552 0.43546537 5.1549854 8.865201
-0.81404448 0.41081333 5.1589355 6.5
-0.54805213 0.45959985 5.1578093 5.5
0.56072593 0.46069047 5.1076441 6
1.1282403 0.40809345 5.1595473 9
3.583595 0.46120483 5.1675658 6
4.5697799 0.44378361 5.1296821 6
5.2766371 0.42185485 5.1914268 5.5
-1.5307559 0.50321525 5.1481972 6
-1.4424669 0.51750827 5.1722264 6
-1.3337237 0.53143954 5.1043992 7.5
-1.0527939 0.58240885 5.1872964 6
-0.83573025 0.55525661 5.1624594 7.75
-0.4280639 0.52367955 5.1458497 6.1999998
-0.21997672 0.56938559 5.1603875 6.6666665
-0.18713766 0.5358938 5.1583953 6.0500002
0.17652744 0.56502354 5.178021 6
0.55619067 0.52261066 5.1905651 5.75
1.3552961 0.58855712 5.1463251 8.5836248
2.3650799 0.57081598 5.1231432 8.0895004
2.8399382 0.57169324 5.1138206 7
-2.0487487 0.60939747 5.1733146 6
-1.3904889 0.6883902 5.1130133 7
-0.83016729 0.64988017 5.1537557 8.2843752
-0.64682859 0.62752491 5.1392097 8.4038324
-0.38593078 0.69238579 5.191205 13.421166
-0.20571716 0.63103199 5.1395006 8.8233747
-0.0007630068 0.62500745 5.1313729 6
0.1808943 0.61319667 5.1914625 8.4508753
1.7079865 0.61506671 5.1343193 9.0862503
2.0880463 0.60635388 5.1821837 9.0880003
2.5008607 0.63280964 5.1068473 7
3.4791689 0.65676928 5.123456 8.092
-1.3678169 0.72216046 5.1243439 9
-1.0450501 0.7984637 5.135345 8
-0.91127574 0.76662266 5.1258025 8.0685005
-0.18406029 0.71555573 5.1181655 8.6440716
0.098309904 0.76927823 5.1579647 8.0737495
0.52549577 0.78295004 5.1101551 13.533525
0.67059302 0.7860145 5.1685195 8.0764999
0.82092822 0.7548492 5.1788945 8.0772495
2.8545554 0.76457423 5.1475301 8
3.1298871 0.71316534 5.1707473 7
3.5299957 0.77003121 5.1834712 8.4235001
4.1459699 0.75126702 5.1562586 7
4.3517122 0.73687232 5.1697984 7
4.6991615 0.72525281 5.1021309 9.1114998
-1.0576675 0.80203539 5.1252985 8
0.2795274 0.85960519 5.1329269 14.666667
0.36717492 0.84060419 5.168252 8.4750004
0.46585903 0.89507294 5.1722937 14.666667
0.58010697 0.8189975 5.1118279 12.079501
0.93528014 0.85434294 5.1278915 13.046657
1.5630826 0.86563766 5.1111078 9.7491674
2.1566489 0.87821466 5.1281991 8.0820007
2.8413637 0.88483888 5.1966801 9
3.2348647 0.811459 5.1160917 8.0877495
3.5706415 0.88093507 5.1814923 8.5890007
4.5829191 0.86133188 5.1990757 8.0930004
-1.3453711 0.99674892 5.148912 11
-1.0251918 0.94697833 5.1032052 9
-0.95398426 0.96878314 5.1666155 11
-0.86895192 0.98938024 5.1980581 11.4
-0.55036819 0.9812336 5.1481643 10.870399
-0.34074777 0.94219339 5.1454873 9.5
-0.04556489 0.95503294 5.1151733 12.536375
0.31799647 0.90396845 5.1073961 10.325625
0.46306166 0.91207433 5.186348 15
1.0967085 0.99545878 5.1098084 10.898228
1.7793887 0.96918273 5.1869564 14.0915
2.3048649 0.93611705 5.1511192 9.7101879
2.5082479 0.91112816 5.1243839 10.840125
2.7668066 0.90964341 5.1659966 9.9643116
-1.3536568 1.0517874 5.1536522 11.5
-1.1431829 1.045944 5.1754737 10.066999
-1.0515831 1.0244138 5.1466751 11.819465
-0.87341124 1.0230772 5.1061406 9.7353334
-0.56708038 1.053484 5.1336145 9.75
-0.42143083 1.0225677 5.1300049 9.9188328
-0.2006676 1.0580391 5.1766639 9
-0.1222496 1.086993 5.1357594 17.75675
-0.049593911 1.0968373 5.1123281 10.822876
0.17981859 1.0040574 5.19068 8.5
1.6628627 1.0006667 5.1630836 10.08175
3.9565854 1.0076216 5.1100101 9.0935001
-4.2779584 1.1233737 5.1787872 9.0527506
-0.35390604 1.1791141 5.1284981 14.593611
-0.18072756 1.163909 5.1468658 10
0.069335252 1.1428 5.105433 18
1.7503902 1.170899 5.110095 13.801001
4.0826063 1.180107 5.113276 9.0885
-1.5650806 1.2281176 5.1577244 17.804909
-1.3210133 1.2620991 5.1098323 13.5
-1.0233186 1.2147076 5.1583753 12
-0.95436066 1.2594624 5.184371 13.5
-0.85827696 1.2612534 5.1613011 11.06875
-0.50926661 1.2234105 5.1062298 18.799999
-0.21592292 1.2214239 5.1282196 18.666666
0.16174462 1.2385823 5.1637993 14.111773
0.62039292 1.2726585 5.1972098 13.07725
2.1838777 1.2227179 5.1424022 13.588751
3.9005203 1.2888296 5.1460896 11.09325
4.8438516 1.2109756 5.1582422 10.0955
5.1280661 1.2475616 5.1724253 9.0930004
-2.1884465 1.3639377 5.1482134 17.0625
-1.658249 1.3381677 5.1229143 11.5
-1.3751175 1.3731833 5.1058712 10.833333
-1.0110763 1.3737478 5.1372609 10.857142
-0.88835758 1.3098294 5.1338682 14
-0.77993351 1.3361207 5.1885204 15
-0.61264145 1.3879461 5.1615152 15.320499
-0.45499936 1.3964663 5.1898713 12.73725
-0.36789396 1.3742882 5.143815 20
-0.23354544 1.337396 5.183197 10.8
-0.11934529 1.3340544 5.1376109 13.628445
0.2967144 1.3702786 5.1237965 14.152308
0.74304116 1.3819561 5.1846895 13.714286
1.6010802 1.3427589 5.1174126 12.581501
1.8640795 1.3539222 5.1564388 15.038112
2.3077188 1.3014728 5.1045074 11.751334
2.7182372 1.373713 5.1830835 12.4874
2.9395008 1.3875126 5.1386266 12.5
3.270473 1.3347516 5.1966348 11.421333
3.3343956 1.3661673 5.1134219 10.08625
3.6317523 1.3193824 5.1194034 9.7538328
4.3892674 1.3146145 5.1428289 11.0945
4.571332 1.3167999 5.1163568 11.095
-3.4763203 1.4798285 5.1414132 10.390167
-3.3623161 1.4338489 5.1850033 12.5555
-3.1628551 1.4405452 5.1662993 10.058
-2.3793149 1.4273299 5.13273 11.061
-2.206362 1.4319201 5.1478906 15.0605
-1.9448503 1.4416646 5.1772699 12.063
-1.6264052 1.4579533 5.1222887 12.23255
-1.2564362 1.4652793 5.1430621 12.06675
-0.7610476 1.488023 5.1549416 13.2689
-0.57831103 1.4743618 5.1765513 14.444444
0.59857237 1.478646 5.1083422 14.5
0.69494653 1.4779685 5.1902971 16.079
0.91780055 1.4701941 5.166101 14
1.1386759 1.40174 5.1267624 14.080215
2.2280502 1.4100885 5.1334648 16.605249
-3.305665 1.5608168 5.1658478 16.066999
-2.5647159 1.5407739 5.1229439 13.726001
-1.6891959 1.5849502 5.1166105 13
-1.1220319 1.5643005 5.1819048 13.567
-0.55052722 1.5554638 5.1682258 21.5
1.13279 1.5207179 5.172864 15
1.2148284 1.5143745 5.1602578 13.5795
3.3591518 1.5410903 5.1986856 13.0915
3.4398379 1.5998905 5.1047215 14.59375
-3.9468493 1.695281 5.1149454 15.397667
-3.1081729 1.6877565 5.1640215 17.734417
-2.3701482 1.6413434 5.1238184 20.071501
-2.075284 1.6339517 5.1835022 20.448626
-1.9910651 1.6252803 5.1144347 12
-1.500677 1.6716619 5.1489387 12
-1.0341268 1.6146308 5.1094794 21.79759
-0.99279273 1.6699159 5.1484694 15.353554
-0.65833986 1.6138315 5.1539702 22.073551
-0.55863369 1.6191505 5.1719608 22
-0.27959663 1.6330773 5.1090555 17.739332
0.26683754 1.6996146 5.1215153 18.243002
0.68322897 1.6489583 5.1518493 15.07675
1.2638748 1.6641788 5.1278877 15.830873
1.5049891 1.6880196 5.1475186 15.718454
1.7192198 1.6664939 5.1388664 13.08025
1.9298013 1.6953605 5.1246428 15.369928
2.9534421 1.6879717 5.1906991 14
4.0106206 1.6721096 5.1456552 11.08825
6.0451918 1.633761 5.1035123 11.095
-3.5601811 1.7812736 5.1562214 17.31575
-2.171701 1.7654231 5.1203971 16.311127
-1.8335546 1.736647 5.172224 20.814499
-1.3921583 1.7219969 5.1193457 12.666667
-1.2907324 1.7105438 5.1237526 14.066
-1.0201336 1.795837 5.153295 13.5675
-0.97955334 1.7716402 5.1762753 13.85
-0.21355599 1.7668984 5.190516 13
0.014993191 1.7531968 5.1696858 15.6445
0.40854621 1.704561 5.1304388 15.075251
0.63696033 1.7322443 5.1194344 18.078728
0.99877375 1.7125493 5.1662154 17.636444
1.3889918 1.7703154 5.1880016 17.416418
2.0190039 1.737515 5.1392789 14.540751
2.1284389 1.762128 5.1812038 13.081833
2.3500521 1.726374 5.1600938 15.086001
2.6006651 1.7186944 5.1756473 15.087
-3.4433732 1.8301594 5.1435323 14.05575
-2.6307549 1.8978192 5.152945 16.059
-1.3243872 1.8324018 5.1602798 13
-1.2399652 1.8577361 5.1611118 15.73315
-1.1243898 1.8627529 5.156857 14
-0.62990367 1.818105 5.1800842 13.166667
1.1384493 1.8970633 5.1116581 15.578751
1.6441249 1.8269546 5.1026816 16.5
1.8916649 1.8295069 5.1302986 16.5
-2.7250254 1.9781473 5.1820116 15.059
-2.6212096 1.9314195 5.1914272 15.0595
-2.4402282 1.9878473 5.1592054 22.237501
-2.28947 1.938532 5.1007814 13
-2.162066 1.9955056 5.1222191 15.0625
-1.5718006 1.9253702 5.1685486 15.06525
-1.1531765 1.9204713 5.1805162 15.366917
-0.99497056 1.9535725 5.1870308 16
-0.7509234 1.9249024 5.1512003 14
1.5005064 1.9614687 5.1153584 16.0805
1.6896194 1.998697 5.1076665 18
1.7299656 1.984859 5.1248684 18.25
1.8598564 1.9672414 5.1532373 18.5
1.9754423 1.9873924 5.1040344 21.10475
2.856971 1.9712771 5.1353598 17.09
13.447981 1.9559852 5.110158 8.1084995
-2.9038868 2.019243 5.1811199 21.068401
-2.8238053 2.0816596 5.126533 17.058001
-2.3376479 2.0265787 5.1075497 15.06175
-1.6982994 2.0867169 5.1190052 19.463499
-1.5994588 2.0626795 5.1451912 14
-1.2621429 2.0497158 5.1555386 16
-1.1948551 2.03282 5.1862402 16
-1.0115008 2.0669119 5.1158905 22.353212
0.27195197 2.079159 5.1044664 20.743
1.0494978 2.037379 5.1597843 17.39175
1.4378095 2.0242558 5.1714439 19.416723
1.8032315 2.0024586 5.1420441 17
1.9513754 2.0812445 5.1267085 17.04125
2.0772257 2.0127385 5.1043358 17.5
2.2522726 2.0263422 5.1968889 17.9445
2.3721764 2.0990484 5.1721482 17.371786
2.5340195 2.0488544 5.1841693 16.5
2.7514699 2.0978217 5.1982684 16.5875
2.8527792 2.0598588 5.18821 16
2.9644668 2.0594442 5.1292033 16.088499
-4.4284477 2.1512504 5.1204729 17.5625
-3.1689577 2.1843874 5.1022992 16.056999
-1.7888359 2.1216271 5.1143351 14.5
-1.6789756 2.1375835 5.1229391 22.063
-1.5387595 2.1919463 5.112865 16.81525
-1.4270732 2.1731794 5.1515193 15
-1.2494714 2.1476567 5.1521635 15.199833
-1.0005798 2.1565976 5.1560059 20.782072
-0.58024627 2.1705806 5.1158662 21.270498
-0.39844102 2.1735396 5.1210752 17.404249
-0.14578651 2.146044 5.1613269 17.941168
1.1963813 2.1434629 5.1063218 19.3305
1.5336457 2.1058691 5.1275697 18.582249
1.7626737 2.1701448 5.131711 19
1.9133729 2.1431034 5.1293936 18.584126
8.3822851 2.1533289 5.1566129 12.116
8.8605423 2.1892011 5.1835842 11.101
-1.1843196 2.2662187 5.1420298 16
-0.9612515 2.2283418 5.1801085 15.4
-0.79661369 2.2840493 5.1815901 17.735582
-0.51071936 2.2296755 5.1916089 15.25
-0.15297765 2.2515814 5.116519 18
1.9589398 2.2766089 5.147346 16
2.5170832 2.2923958 5.1869297 18
7.1225815 2.2435238 5.1941853 13.115
8.1535578 2.205276 5.1847143 12.106
-0.67276442 2.3330038 5.1785898 16.069
4.4986219 2.375509 5.1267138 17.683573
5.5385413 2.3500855 5.1837044 15.0985
5.6250873 2.3076997 5.193264 15.1135
6.7288175 2.32534 5.1032963 14.105
-4.4656324 2.4555871 5.1044092 19.062
0.48656034 2.4283392 5.1746693 19
0.79584193 2.4682202 5.1193094 21.703188
1.9080307 2.4923701 5.1487813 17
2.3952677 2.498759 5.1100006 17
2.4904542 2.4145358 5.1793208 22.7735
3.3305283 2.4907634 5.1724758 17.421499
4.0690207 2.4637823 5.1000724 19.1115
-2.3953104 2.5550318 5.1292477 18.061501
-1.995665 2.5470941 5.1620193 18.06325
-1.5582312 2.5875087 5.1936884 18.56525
-1.434178 2.5265062 5.1114187 16.833334
-0.96051443 2.536247 5.1594591 17.333334
-0.59841704 2.5814869 5.1525688 17.6
0.53291816 2.5340347 5.1875334 19.5
0.91900146 2.5804729 5.1971602 19.077499
1.1596026 2.5459371 5.1356111 21.508785
1.7757174 2.5278318 5.1411619 16.5
1.9179605 2.539392 5.1524658 20.584084
2.4698761 2.5443618 5.142005 17.939892
2.8000617 2.5679662 5.1056476 19.0865
2.9000254 2.566093 5.1905546 19
3.29128 2.5887098 5.1974683 16.086
-5.9266748 2.6232603 5.1028843 16.049749
-4.8789268 2.6266527 5.1276751 18.727667
-3.3542061 2.6112096 5.178833 23.06575
-3.1648617 2.6276841 5.180562 23.056749
-2.6066921 2.6238687 5.1643233 17.060999
-1.9482967 2.6145957 5.109273 19.0625
-1.8633049 2.6247489 5.1280789 17
-1.5395253 2.6262171 5.1390944 19.8645
-1.3553269 2.6144416 5.1366301 17
-1.2143943 2.6071389 5.1646128 21.732834
-1.107828 2.6385863 5.1680188 20.06675
-0.94700772 2.6037161 5.1658812 18
-0.73438716 2.6584904 5.1900997 20.81875
-0.66816336 2.6727173 5.1659255 20
-0.20693882 2.6170425 5.1302748 18
0.35566476 2.6055419 5.1897879 22.408834
0.44623673 2.6220417 5.1354322 21.075251
0.63914174 2.6116953 5.1315727 19.333334
0.73230565 2.6152267 5.148838 18
1.4540293 2.6111729 5.1741943 17.078251
-3.5448008 2.7068906 5.1143031 18.0555
-2.5954781 2.7334037 5.1201544 21.558668
-5.0601721 2.8013933 5.1675158 16.051001
-1.8050158 -0.20108338 5.2691388 1
1.7711746 -0.29736081 5.2087369 0
1.8275363 -0.286661 5.2997332 0
2.5826545 -0.27071986 5.2990384 0.5
3.056066 -0.23997061 5.2911072 0
-0.50649452 -0.13391764 5.2993913 1
0.60780019 -0.14948435 5.2128344 0
0.87021464 -0.10150528 5.2611709 1
1.5811838 -0.19576478 5.2293744 0
2.2832925 -0.177201 5.2659268 0.33333334
2.4813914 -0.14521712 5.2691526 2.125
3.7810731 -0.15084213 5.2452412 1
4.2719827 -0.18106022 5.2827849 1
-2.0989041 -0.048152402 5.275908 1
0.36507332 -0.087093376 5.2217093 1
0.76107347 -0.054456208 5.2097678 1
1.0166138 -0.024007786 5.2178583 1
1.2048907 -0.00019272591 5.2249451 1
2.6702566 -0.06256029 5.2989578 3
-2.4070792 0.046006516 5.2028275 1.6666666
-2.0532479 0.069774352 5.2994685 3
0.084909469 0.015918165 5.2286973 4
0.45148501 0.0064462721 5.2001815 3.5
1.3810738 0.042744279 5.2895823 3.6666667
2.005424 0.041957825 5.2252941 5
2.1271243 0.01136408 5.2950797 2
-1.5623184 0.13311443 5.2099051 3
-0.07458961 0.13921313 5.2466431 3
0.96536762 0.18217556 5.2205625 3.2
1.1818738 0.15067306 5.2458591 3.8
1.3154125 0.12661795 5.2216725 2
1.8155668 0.12754521 5.2600555 4
2.3338251 0.19927928 5.2943544 3.3333333
2.4757969 0.10926113 5.2209802 2
-3.3284736 0.22931346 5.2411518 4
-2.2247481 0.20473479 5.2712512 4
-0.537902 0.23020376 5.243228 4
0.23138672 0.29209605 5.2059522 4
0.6569488 0.24302669 5.2105241 4
0.86212796 0.22780621 5.2684145 5
1.2527055 0.26088625 5.2678552 4.5
1.3322616 0.23719303 5.2476883 3.4000001
1.5176088 0.24670215 5.2601943 6.8333335
1.7137896 0.24281204 5.2132359 7.2777777
2.0216162 0.23086426 5.2767735 7
2.7205565 0.26351145 5.2869239 4
3.6392264 0.22771959 5.206028 5
-0.039540589 0.39262447 5.2483664 6
0.3191036 0.36714405 5.2293224 6
0.45635608 0.36417714 5.2198849 8.5653334
0.62272203 0.32994241 5.2258325 9
1.1996121 0.39604482 5.2921252 5.6666665
1.3285966 0.33899501 5.2676325 6.5497499
1.5593613 0.34173286 5.2686315 7.8601875
1.8039536 0.30252695 5.2366972 8
3.9759455 0.37495261 5.2513552 5
5.4706068 0.37223524 5.2130065 5.5
0.94749683 0.44246197 5.2704363 5.5
1.0417364 0.40569949 5.2344146 9.5981665
1.9944309 0.48290142 5.2686672 6
-2.8559678 0.58006388 5.2685652 7
0.3529315 0.56211191 5.222569 8.5
0.43811667 0.54176933 5.2754221 11
0.61084777 0.56184471 5.2214813 6
1.3293487 0.50566685 5.2075872 10.1
1.4608381 0.56762534 5.2542219 8.083333
1.5331773 0.55047345 5.2323399 10.601
1.8261111 0.59890288 5.2920275 5.8000002
2.0535069 0.54853952 5.2684131 8.833333
2.1367679 0.58425039 5.2837572 10.437
2.3427653 0.52765203 5.2752199 6
-2.8059227 0.65699708 5.2743449 7.5
-2.489399 0.66393006 5.2960043 8.0600004
-0.72029757 0.68797171 5.2060313 9
-0.55968887 0.64567155 5.2888818 8.0705004
-0.49940315 0.65267694 5.2589092 8.0708323
0.45919096 0.66179103 5.2852373 12.59425
0.55876976 0.62832975 5.2855167 8.828125
1.0094149 0.60912555 5.2472725 6
1.8799127 0.63798225 5.2975483 11.1025
2.021821 0.66823137 5.2154865 7
-2.77019 0.79931998 5.2564197 9
-2.3408406 0.70203483 5.290226 8.7273331
0.18545306 0.79284149 5.2531767 14.203444
0.72304666 0.79933929 5.2776942 13.762833
0.97953725 0.7173112 5.2149448 8.0780001
1.2471685 0.7736522 5.2883921 13.088
1.8180627 0.79560149 5.2598038 7
2.4774041 0.71813804 5.2400384 7
4.9447756 0.75702351 5.2213445 7
5.1272006 0.73378325 5.2061448 7
-2.8041608 0.8072983 5.2444296 9
1.5580909 0.8363378 5.2518382 7
2.2384551 0.80330801 5.2491188 9.0869999
2.6343517 0.87453079 5.2994146 10.0885
2.8690383 0.88787466 5.2116575 9
3.1923575 0.88521963 5.2420998 8.8888998
3.9023614 0.88161564 5.2799306 8.7576666
4.2616034 0.88174969 5.2794619 8.592
4.4033322 0.82741821 5.2151594 8.0912495
-3.6044717 0.90746105 5.2820101 9.0552502
-3.0465999 0.96097267 5.2616191 9.55725
-2.6820068 0.99899137 5.2639837 10.8588
-2.4893808 0.91363913 5.2864819 8.0609999
-0.6812824 0.92211294 5.266057 15.07375
-0.28699839 0.93373263 5.2554626 11
0.063631728 0.99120903 5.2866373 12.075
0.60501635 0.98132581 5.2327623 8.6000004
0.99406892 0.98571634 5.2613258 8.5
1.4264989 0.96585166 5.2760496 8.166667
2.5696893 0.93789345 5.2343831 8.333375
3.83777 0.90538627 5.2018757 8.0897503
-0.57434785 1.0192083 5.2263956 11.972969
-0.45433331 1.0784179 5.2877522 12
-0.34745643 1.0365052 5.2741046 12
-0.22492276 1.0077418 5.2526922 11.850945
-0.19931298 1.0893496 5.2712679 12.5
0.21041207 1.0080773 5.2141199 8.5
1.3530216 1.0244536 5.2438617 9
1.7828615 1.0183104 5.2912836 8.1999998
