# .PCD v0.7 - Point Cloud Data file format
VERSION 0.7
FIELDS x y z intensity
SIZE 4 4 4 4
TYPE F F F F
COUNT 1 1 1 1
WIDTH 1217
HEIGHT 1
VIEWPOINT 0 0 0 1 0 0 0
POINTS 1217
DATA ascii
2.1334958 0.65715563 2.0777073 6.8125
-1.6820675 1.0209866 2.1264265 16.94911
-1.4579164 1.0472 2.1859994 18.628414
-1.0004481 0.97844267 2.0368619 20.733124
1.5872366 0.82084823 2.2736535 10.333333
1.7204758 0.99664837 2.2070854 14.181809
2.2110217 1.0396795 2.1431518 10.667973
3.3280621 0.84884942 2.2999465 8.1260004
-2.7851467 1.4807125 2.0305457 15.375333
-2.1842408 1.4467765 2.0550442 18.753572
-1.711948 1.3439122 2.0726464 21.404984
-1.4631699 1.3597732 2.218821 20.923111
1.7357389 1.4078096 2.2122393 19.727829
2.1770058 1.3000776 2.2841244 13.855273
-2.5054278 1.8745008 2.1235108 21.541
-2.2910099 1.889502 2.1359844 23.040001
-1.4778361 1.6951185 2.2064586 21.891167
1.7811491 1.745914 2.2180994 21.795538
2.2370312 1.6549997 2.2449825 16.907553
1.7172849 2.0638566 2.1682386 23.107552
2.1122575 2.2147639 2.1845889 22.010357
2.2356653 2.4097605 2.1716094 23.130501
-12.169133 2.9427652 2.135277 8.0244999
-11.787848 3.1767893 2.1576724 9.0383759
-10.910774 3.1859727 2.0102918 10.037
-10.580967 3.1309006 2.2439284 10.0375
-10.005956 3.1975811 2.3115058 11.0395
-7.2674255 3.1933324 2.3304245 14.048
-6.9333711 3.1707525 2.2639482 14.871333
-5.6530929 3.0656688 2.121187 17.046
-4.2863154 3.1923943 2.2541375 22.0375
6.0540423 2.9545226 2.236979 16.1145
6.8558245 2.9077749 2.2824221 14.114125
-11.277739 3.2549026 2.1184702 10.0485
-11.083555 3.2015626 2.3532267 10.049
-9.4557323 3.2854853 2.2199335 11.04825
-9.1599045 3.2858703 2.1632946 12.0435
-8.4640675 3.3345461 2.0252628 13.0385
-8.207303 3.2820342 2.2236245 13.047833
-7.6998768 3.2161007 2.3257818 14.03775
-7.2246151 3.2478728 2.2005987 14.205376
-6.5185471 3.2851963 2.1881759 15.859438
-6.0385885 3.2161155 2.2475529 16.5385
-5.6309481 3.2760601 2.0510845 18.0375
-5.1096573 3.2751131 2.1587529 19.037624
-4.6764154 3.2942114 2.3096228 21.2423
-4.3079233 3.2920036 2.2540796 22.709333
-0.67790651 -0.024895627 2.5621576 2
-12.19544 0.09322831 2.7219548 1
-4.2525835 0.31085446 2.6467004 2
-2.5624797 0.34641495 2.6104722 2
-2.0570583 0.32119584 2.7024376 2.1666667
-1.7474816 0.25153595 2.6122799 2.45
-1.465874 0.24963632 2.6249497 3.0666668
-0.98826486 0.18210252 2.5662694 2.5999999
-0.50574863 0.1113546 2.5854638 1.875
-0.15905267 0.11375445 2.6248438 1.3333334
0.026874039 0.072377406 2.5303326 1.1666667
0.71977413 0.23642397 2.6018119 3.25
1.0996362 0.14503337 2.6724691 1.6666666
1.3645535 0.16827081 2.5095348 3.0833333
1.7021115 0.25983059 2.5671017 4.5952382
2.0295238 0.061482266 2.7960072 1
-12.391924 0.61615634 2.4259901 2
-3.1425691 0.40062794 2.4720917 2
-1.4577872 0.69620991 2.5236301 12.215945
1.5782131 0.50414753 2.6158671 8.161972
1.6777985 0.65358329 2.5806963 10.249406
2.0725217 0.63912833 2.5407319 8.125
-12.94165 0.82935107 2.5724645 3
-1.5097768 1.0154008 2.5268071 16.774338
1.5782838 0.96037704 2.6318679 13.253783
1.7057611 1.0240663 2.532568 14.495515
2.0543435 0.99500817 2.4876606 11.648784
-13.029315 1.4506347 2.7022061 5
-1.5157324 1.3722401 2.5689373 19.388046
1.6962078 1.384197 2.5682144 19.01403
-12.90764 1.8247581 2.7240119 6
-12.302227 1.7846577 2.6459112 5
-1.5029912 1.6514157 2.664856 21.15325
1.7318891 1.7981611 2.5183239 21.596655
2.055898 1.8079076 2.6658752 20.10813
-12.363078 2.003752 2.6446648 6
1.6980228 2.1094508 2.5960171 22.669542
2.2011313 2.1652875 2.4174819 21.772089
-12.776484 2.7563303 2.5795808 8.0495005
-12.217089 2.7264588 2.7073479 8
-5.0707607 2.6670213 2.5311713 17.0485
-4.7400808 2.5421796 2.5092435 17.047501
3.9549839 2.4353402 2.6040611 18.122875
7.090158 2.7822063 2.7677717 14.1125
8.1849775 2.5761914 2.7532735 13.108
14.270769 2.4950936 2.4721613 8.1129999
-12.614316 3.0880523 2.5684071 9.0402498
-12.233704 3.0006061 2.5655673 8.5495005
-11.494328 3.1416733 2.5568917 9.7054996
-11.087405 3.106904 2.6519186 10.0465
-10.280071 3.0993266 2.6762033 10.0385
-9.8358355 3.1453636 2.6440356 11.04275
-9.2338619 3.185117 2.7079201 12.0495
-8.1823626 3.1612344 2.6258736 13.043875
-7.8571463 3.1679657 2.6877115 13.421999
-7.5948243 3.1602139 2.7518606 14.04925
-7.0269761 3.181885 2.632601 14.5445
-6.771605 3.1535916 2.6089346 15.04
-6.2343988 3.1885736 2.5717077 16.3442
-5.9352717 3.0146902 2.7222166 16.040501
-5.380065 3.1621971 2.7038298 19.044624
-4.983953 3.1816893 2.7821753 20.4484
-4.5851789 3.1616459 2.6310289 21.264666
-4.2070889 3.1472168 2.7182217 22.626417
3.535933 2.8625681 2.7225142 23.106501
3.888314 2.8629029 2.5661073 20.123501
4.2249131 2.9302032 2.7890577 20.122499
6.1863341 2.8566217 2.6554103 15.487938
7.0111699 2.8225503 2.610774 14.113
-9.389925 3.2363975 2.513917 11.549
-9.1233244 3.2088675 2.4479561 12.03975
-7.7374263 3.2351816 2.4219124 14.04825
-6.9093399 3.2111199 2.670002 15.04875
-6.3287706 3.2149374 2.5943687 16.54825
-5.0325437 3.2265184 2.5006535 19.95739
-4.5956335 3.2409897 2.5256393 21.507256
-4.364079 3.2265637 2.6819048 22.714003
2.3759866 -0.014246687 3.1566076 1
-11.829499 0.10305104 2.9399738 1
-4.5921264 0.24694119 2.8984485 2
-4.1164269 0.25960052 2.9576302 2
-2.1747627 0.25020954 3.0008302 2.0625
-1.7475183 0.21600115 3.0564044 2.2261903
-1.4171982 0.21311398 2.9939744 2.4166667
-0.94316339 0.10667922 2.920439 1.6666666
-0.68712491 0.093164168 3.091902 1.5
-0.14397886 0.10845061 2.9619899 0.75
0.19034286 0.10894877 2.9682884 1.3333334
0.63356513 0.10574719 2.9347303 1.4166666
1.0877664 0.16309094 3.1209025 3
1.4420292 0.16533804 2.8590803 3
1.705541 0.14988622 2.9474168 3.25
-12.422873 0.55414599 3.1779523 2
1.5569125 0.54256755 2.9394155 9.5981255
1.6497972 0.73719579 2.9677255 10.58825
1.6903151 1.0275759 2.8359821 14.011119
1.6343291 1.4422238 2.9703672 19.091875
14.741738 1.5611129 3.0856268 7
1.6923579 1.6189778 2.993304 19.088501
1.6637651 2.126451 2.8508031 22.419167
3.8435075 2.396806 3.0622244 18.120501
4.0884123 2.3705246 2.9849553 17.873749
10.937577 2.2981229 3.1487901 10.1075
11.269176 2.26245 3.1887193 9.1075001
12.48879 2.20012 2.9908018 9.1079998
-12.194227 2.6532853 2.8980842 8.0504999
1.9040421 2.698355 3.138448 23.084499
5.4764075 2.6974723 2.9635355 17.106501
5.8732066 2.7728348 3.0606701 16.12125
6.0190525 2.7804401 3.0424566 16.1115
6.4151516 2.7532911 3.0623534 15.1115
7.3253298 2.7099578 3.1230466 14.1115
7.7206278 2.5692739 3.0766916 13.107
14.038417 2.4025195 3.0831373 8.1120005
-12.606455 3.103379 2.9228334 9.0500002
-12.074568 3.0941291 2.9933174 9.0389996
-11.722569 3.0512276 3.0766637 9.0504999
-11.389637 3.0946949 2.8804464 10.0445
-10.692727 3.0362928 3.1093924 10.046833
-10.092388 3.0770898 3.0248909 11.044874
-9.9324837 3.0993104 3.1308007 11.0505
-9.4992046 3.0580747 3.0096691 11.04125
-8.5950413 3.1190157 2.9972026 12.293062
-8.0652618 3.0692947 2.9883542 13.05025
-7.6736236 3.1023502 2.9560468 13.71375
-7.3464742 3.0870023 3.0497346 14.545876
-6.9913187 3.11553 3.0701947 15.050375
-6.5835323 3.0532591 3.0241835 15.375876
-6.1794596 3.102479 2.9610777 16.835644
-5.8068333 3.0789595 2.9336216 17.170689
-5.4458528 3.1149817 3.0614498 18.547251
-5.0548487 3.1286213 2.9762101 19.582832
-4.5852666 3.121911 2.9935436 21.597132
-4.1896281 3.1040218 3.115248 22.831177
-3.878154 3.0707285 2.8522518 23.04125
3.316257 2.921823 3.1498823 23.122002
3.7195544 2.8490534 3.1400063 22.1124
4.1979761 2.8875237 3.0487056 20.222292
4.5457568 2.9211991 3.0272982 19.124001
-6.3200645 3.2237883 3.0321715 17.0415
-1.1330656 -0.017610565 3.4982424 1
-0.62763691 -0.048024349 3.4925981 0.66666669
0.11145803 -0.11121517 3.5017977 0
0.52185971 -0.0012142658 3.5560277 1
2.2793646 -0.050119542 3.3880889 1
2.7289836 -0.082505628 3.5677266 1
-11.648663 0.12082502 3.4405789 1
-2.1005843 0.15988106 3.3891032 2
-1.7769197 0.091993622 3.4878421 1.5
-1.4165958 0.14231627 3.4458435 2.5555556
-0.90784502 0.10901135 3.3157797 1.6666666
-0.64445966 0.10208957 3.4229996 2.05
-0.11346431 0.11360938 3.2524056 1.75
0.068414271 0.055032462 3.582119 2
0.53163862 0.074917346 3.3315125 1.5
1.1245867 0.11834989 3.3901613 3
-12.45621 0.52305299 3.4627337 2
-12.719917 1.5614794 3.3855975 5
-12.316634 1.4205896 3.4866829 5
-10.151556 2.3651369 3.4526794 9.0424995
3.9238105 2.3215938 3.330225 18.622
10.566004 2.281837 3.4777846 10.10675
11.429883 2.2956107 3.5181437 9.7832499
11.902238 2.3168447 3.5954728 9.1204996
12.789945 2.1231387 3.2946832 8.1075001
13.81249 2.3386588 3.3836222 8.1114998
-1.83327 2.712446 3.4657283 22.846252
-1.4590689 2.7155168 3.4294753 23.06275
0.47383997 2.6806881 3.5799024 23.075001
1.0569739 2.6765027 3.5263457 23.078667
1.4433769 2.6977272 3.4785669 22.830999
1.8148059 2.7005162 3.4428957 22.833813
2.0977845 2.6673138 3.5455325 21.084249
2.5485055 2.6600602 3.5847805 22.0895
3.0525882 2.7110159 3.489785 23.096334
3.6530371 2.7219691 3.4124832 21.851376
4.1734791 2.7675314 3.4896724 20.120333
4.4288092 2.7793584 3.4081554 19.119499
5.4392395 2.6792529 3.4108515 16.783083
5.7122955 2.6947496 3.4395676 16.301094
6.2310472 2.7292445 3.211797 15.123
6.5034275 2.6898665 3.4397876 15.11625
7.1621065 2.5832586 3.4194212 13.62125
7.4547467 2.6334062 3.403091 13.116499
9.1274509 2.5388794 3.4907277 11.87225
-12.574358 2.9696746 3.4275265 9.0397501
-12.02224 2.9784381 3.4142637 9.0509996
-11.828726 2.9722848 3.393461 9.0466251
-10.948001 2.9971006 3.3881965 10.04
-10.532575 2.9672337 3.4650929 10.048333
-10.236738 3.0006063 3.4426007 10.54575
-9.8188429 2.9817655 3.4024909 11.04125
-9.3600531 3.0210848 3.3352542 11.546625
-8.8525515 3.0527229 3.2704244 12.051
-8.7071142 3.0302398 3.4443557 12.044917
-8.1281834 2.9866524 3.356734 13.042375
-7.8844795 3.0249729 3.4145916 13.3015
-7.4039106 3.054616 3.4450488 14.343334
-6.9743299 2.9530282 3.4654152 14.544875
-6.5554385 2.9623659 3.4077971 15.545417
-6.2291517 3.0111675 3.3815799 16.547314
-5.8952203 3.0337477 3.414113 17.585318
-5.4187818 3.0479522 3.4001048 18.420563
-5.0124464 3.030534 3.3861146 19.781584
-4.6353989 3.0569832 3.3427563 21.471323
-4.2136116 3.0487101 3.425319 22.76907
-2.874763 2.9425917 3.4585028 23.052624
3.4083011 2.8568242 3.4214795 22.978083
3.7959132 2.8544147 3.3685105 21.862751
4.0711579 2.8136137 3.4589074 20.672167
5.4759235 2.8018212 3.3822937 17.120001
-3.1379499 -0.02321434 3.9503126 1
-2.3127935 -0.005625993 3.9829729 1
-1.9009966 -0.030978918 3.8611269 1
-1.3537552 -0.022896223 3.9066403 1.25
-0.99405909 -0.050984628 3.7820175 0
-0.63070852 -0.091475241 3.8108029 0.25
-0.20327084 -0.094218247 3.8612998 0.26190478
0.2817249 -0.05745247 3.7849488 0.75
1.0165699 -0.090497851 3.7714586 0.5
1.6985946 -0.081799001 3.9462655 1
4.0459504 -0.22528625 3.921119 1
-6.6060653 0.22314623 3.809103 2.5
-6.0366278 0.046462029 3.9037566 1
-5.9837618 0.054729968 3.7645993 1
-5.4649329 0.15352505 3.9479048 2
-2.2356517 0.040875237 3.708791 1
-1.7907654 0.053336672 3.6448193 1.25
-1.4687853 0.015845189 3.7015302 0.66666669
-0.60903555 0.0088098198 3.759593 0.83333337
-0.32404277 0.055503607 3.7998018 3
-12.581553 0.52909482 3.7307706 2.5
-12.233333 0.41158232 3.7320948 2
-12.947796 1.1346619 3.9546604 4
-12.437893 0.94980884 3.8370862 4
5.1385756 0.81287515 3.8599517 8.1064997
-12.795716 1.5802348 3.9660308 5
-12.323624 1.4700227 3.7186642 5
-12.689342 1.9400487 3.7239654 6
-12.311829 1.8547957 3.8444941 6
5.0041013 1.969811 3.9233232 14.107
3.807138 2.2809179 3.604095 18.120501
9.9107676 2.276505 3.9747689 10.1055
10.771729 2.1874928 3.8467503 10.106
11.582225 2.2649496 3.8335023 9.1199999
11.606719 2.1122561 3.9690633 9.1059999
12.632498 2.2211242 3.8510168 9.1217499
13.259964 2.1460724 3.7809219 8.1087503
14.772174 2.1823425 3.7015557 8.1110001
-12.971745 2.6274197 3.9324136 8.052
-12.404181 2.4229743 3.8584895 7.5
-12.326875 2.6172438 3.8379703 8.5522499
-2.5230632 2.6619511 3.900562 20.30825
-2.1874824 2.7207801 3.8125625 21.792665
-1.8374071 2.7132857 3.8557999 22.086691
-1.3930922 2.7107906 3.8196855 22.349535
-1.0811481 2.692205 3.806392 22.648916
-0.67636943 2.6941843 3.8292031 22.868
0.20894256 2.6981218 3.8708496 22.57325
0.62694401 2.6739824 3.8228941 22.504288
1.0322747 2.6951847 3.8283186 22.578533
1.3602121 2.692168 3.8542256 22.392813
1.7276777 2.6807508 3.848675 22.282982
2.2063253 2.6721799 3.8175113 21.485483
2.4597573 2.6452494 3.8321974 21.170582
2.997297 2.6844187 3.7553785 23.095249
3.3727551 2.7251701 3.7954509 22.435303
3.723175 2.722971 3.8487177 21.356003
4.177094 2.730248 3.7083669 20.462326
4.5745368 2.7194595 3.784832 18.785418
5.0699215 2.6697781 3.7149696 17.1185
5.2646265 2.6009991 3.8593051 17.116249
5.8476505 2.6033762 3.8071775 15.862499
6.2385354 2.6126726 3.8183606 15.287583
6.5309811 2.5316737 3.8565419 15.104
7.0168176 2.4923749 3.7697947 13.612374
7.5281191 2.582293 3.6032958 13.11
7.724257 2.4890869 3.9012671 13.121
8.2057571 2.4831736 3.8639591 12.11925
9.4686069 2.4546692 3.7123327 11.12175
-12.106384 2.9185526 3.6683631 9.0515003
-10.813364 2.9139965 3.8139839 10.052
-10.693603 2.9206133 3.700871 10.052
-10.220278 2.9201469 3.8205605 10.54675
-9.7465677 2.9167416 3.7884777 11.045583
-9.2843828 2.9611821 3.8409233 11.797
-8.9364491 2.9455502 3.7418137 12.04325
-8.2936039 2.9093969 3.8349991 13.05275
-7.7151914 2.9193087 3.8968971 13.772334
-6.9924698 2.9466081 3.7671323 14.9235
-6.4338083 2.8838439 3.8063884 15.04375
-6.1802201 2.918808 3.7267513 16.12079
-5.7618999 2.9412911 3.7611637 17.130835
-5.4328289 2.9513245 3.7714345 17.714334
-5.0977726 2.9348438 3.9730034 19.55525
-4.6358247 2.9481027 3.7110074 20.314808
-4.2063413 2.9340441 3.8397942 22.553181
-3.7674217 2.9321628 3.8615716 21.6488
-3.388346 2.8717146 3.8184998 22.938223
-3.0152571 2.8917477 3.8924339 22.2754
-2.1850545 2.8699045 3.9709566 23.058001
3.2275996 2.8271997 3.6209698 23.1175
-6.0020933 -0.035514116 4.2073135 2
-4.6690507 -0.10671318 4.1802044 1
-2.9909122 -0.062828526 4.2285972 1.1666666
-2.6398315 -0.050028842 4.2489781 1.3333334
-2.1107116 -0.029814892 4.2582507 1.5416666
-1.8261777 -0.061283544 4.1943736 1.25
-1.3823844 -0.10209599 4.1699605 0.97222227
-0.93639147 -0.068760216 4.1733599 1.0833334
-0.54983765 -0.069198623 4.2229948 0.94444442
-0.27014107 -0.12918837 4.174377 0.5
0.29246837 -0.16279849 4.1563053 0.375
0.62366074 -0.21178234 4.2491131 0
0.81293941 -0.1513965 4.1886997 0.5
2.8563421 -0.18780637 4.0776625 1
3.3687475 -0.11276075 4.1976757 3
4.1662245 -0.22486031 4.2127857 1
-5.4153609 0.14986716 4.2638788 2.5
-5.0902262 0.26775146 4.182199 3
-4.4947205 0.17105567 4.1699071 3.0666668
-4.1483412 0.31063518 4.2777691 4.125
-3.8359811 0.13492306 4.3268147 2.6388891
-3.3680632 0.14205378 4.3225327 3
-2.9891272 0.19216241 4.364182 3.9166667
-2.6201067 0.13350326 4.3503652 2.8333335
-2.3202648 0.082208127 4.3177009 2.3333333
-1.7290471 0.04789979 4.2968559 2.5999999
-1.472486 0.034764111 4.3613539 3.5
-1.0024321 0.084886223 4.2361288 3.75
-5.5301404 0.54414868 4.120903 4
-4.59411 0.71939892 4.2302351 6.8000002
-4.236392 0.71344566 4.3577867 7.5258751
-1.8488572 0.5057466 4.3249431 10.043427
-0.51593858 0.62407136 4.3569756 13.837124
2.1563735 0.52214134 4.3382053 8.954071
2.7114065 0.48992115 4.1500611 8.1001253
-6.7568121 0.93578643 4.2928324 6
-5.7841692 1.0874662 4.0760398 8.0474997
-5.2567458 1.0903659 4.1673374 8.0485001
-5.0363216 1.0457845 4.2015638 8.5489998
-4.5220995 1.0314243 4.3596435 8.5134668
-3.7005551 0.88651931 4.3984213 8.0515003
2.658632 1.0408702 4.3604007 13.289845
3.0181468 0.93725806 4.3468018 11.1005
3.2092245 0.81788629 4.2346263 10.1015
3.6479795 0.82212871 4.1385984 9.1029997
4.0942698 0.82292473 4.1321535 9.1040001
4.4885931 0.81862366 4.027298 8.1049995
-6.6103354 1.4282005 4.162364 8.0452499
-6.2816982 1.3941088 4.2925458 8.0465002
-5.8342328 1.3377533 4.2261004 8.5464993
-5.3366308 1.4205275 4.3203845 10.048375
-4.871388 1.4724386 4.3433752 12.0495
-4.2392282 1.303031 4.3880644 12.0605
3.1885183 1.2175117 4.2780795 13.3016
3.5906205 1.2737782 4.2593031 12.60275
3.8300176 1.5266716 4.0950089 14.10425
-12.878231 1.8404641 4.0518808 6
-6.7727814 1.8252865 4.3774347 10.046
-5.8642035 1.6260018 4.2231493 11.0475
-5.2473278 1.8963025 4.3382134 13.5485
-4.997942 1.8292962 4.3709769 12.8635
4.3801174 1.7185996 4.0583897 14.1055
-12.32186 2.306618 4.0055876 7
-10.169293 2.3186445 4.2622905 9.0535002
-9.5244942 2.2878499 4.1575184 9.0536251
-6.491539 2.3444872 4.2687111 12.54575
-6.3459563 2.2985754 4.2616377 12.046
-5.7179518 2.0664485 4.2684617 12.046
-5.467803 2.1869073 4.3381596 14.047251
-4.8137064 2.3332453 4.1778908 17.048126
-4.4240594 2.0302935 4.3924966 14.05
7.112988 2.3557594 4.3293571 13.1175
8.4509163 2.380815 4.2898312 12.11825
9.7831326 2.2819338 4.2401476 11.11475
11.193139 2.1965647 4.3107915 10.119
11.546207 2.2005532 4.0974851 9.6195002
12.139927 2.0315912 4.3334999 9.1055002
12.93314 2.1400149 4.2361159 9.1154995
-11.439775 2.6390519 4.3665104 8.5475006
-11.096218 2.7739291 4.3906326 10.0535
-9.4248762 2.7599826 4.390583 11.054
-7.056221 2.7794073 4.3844953 14.3885
-6.4817557 2.7812424 4.35814 15.0465
-5.7189646 2.6892734 4.316514 16.380501
-5.3165779 2.6956851 4.3220558 16.847651
-4.8602896 2.5310705 4.2966542 16.0485
-4.4879036 2.4377596 4.3513575 16.0495
-2.9395959 2.7970033 4.3363004 22.804125
-2.4972167 2.6123438 4.3260441 18.55975
-2.1749933 2.6302023 4.1415148 19.310875
-1.8358612 2.6661606 4.1161466 20.528843
-1.4893976 2.7145603 4.1186256 21.758995
-1.086056 2.7074387 4.1532326 22.124359
-0.6235472 2.6692495 4.2120051 21.443689
-0.14791648 2.689388 4.2797155 22.371725
0.17536113 2.6940253 4.215394 21.763666
0.53668904 2.6591368 4.1676407 21.68955
0.96923065 2.6781244 4.1837697 22.078165
1.3384962 2.6647289 4.1688404 21.63575
1.7553878 2.6655803 4.2017756 21.599453
2.2200801 2.6500423 4.1657376 21.281973
2.5697656 2.6563225 4.2499704 21.038198
3.055449 2.6534407 4.2214565 22.128834
3.4262354 2.6374917 4.1977644 20.288443
3.8425868 2.6503756 4.2534251 20.473913
4.2251449 2.6611071 4.0834131 19.7162
4.5280118 2.5838075 4.2491927 18.486839
4.9917078 2.5553021 4.3854122 17.115749
5.3589239 2.5214233 4.1666865 16.570696
5.7588768 2.5265691 4.2385626 15.84242
6.1166382 2.5413973 4.132318 15.11125
6.9313293 2.4790745 4.2449384 14.003972
7.2244768 2.4785595 4.0537939 13.611125
8.1560965 2.4144802 4.3156304 12.62
9.3366756 2.4104707 4.0286536 11.121
-12.644632 2.8411598 4.1020288 9.0410004
-10.947434 2.8499072 4.0521708 10.05275
-9.7880697 2.8280253 4.1324348 11.053125
-9.3235416 2.9283848 4.1456003 11.04225
-9.1485119 2.8783174 4.0813351 12.048625
-7.810811 2.8409188 4.3021216 13.429375
-7.2934175 2.8361464 4.0892758 14.045
-7.0177636 2.8703623 4.1811705 14.44845
-6.590498 2.8315296 4.2287831 15.508667
-6.1515188 2.8636758 4.1569619 15.966107
-5.754086 2.8822372 4.1591678 16.402376
-5.491334 2.8764606 4.0998383 18.255175
-5.1573825 2.8477132 4.2493057 19.389418
-4.5270019 2.8699734 4.1938667 21.262814
-4.2511768 2.8645959 4.2158933 20.485666
-3.7957461 2.8579204 4.2172017 20.927229
-3.444587 2.8185346 4.1645889 21.844591
-3.0261936 2.8552556 4.25419 21.054825
-2.7018247 2.8008089 4.3224802 20.556873
-2.0504887 2.8676612 4.1360607 23.05925
-1.9343448 2.8344414 4.3949552 22.6607
-5.2960739 -0.037392974 4.492116 2
-3.9478357 -0.1318571 4.6745033 1.5
-3.3705261 -0.097809583 4.6706681 1.3333334
-3.1154861 -0.078744605 4.7751026 1
-2.6461279 -0.048409943 4.5347643 1.75
-2.2327564 -0.068405136 4.6242537 1.4444445
-1.906176 -0.12938455 4.6279569 1.25
-1.3580351 -0.14801344 4.5700722 0.5
-1.0670009 -0.080595501 4.6479616 2
-0.65487993 -0.10931393 4.5856872 1.15
-0.15647039 -0.1654985 4.7052054 0.8888889
0.18498453 -0.15661412 4.5492611 0.25
0.55930239 -0.14602371 4.6685228 1.2777778
1.035682 -0.16141558 4.6806326 2.4000001
1.3513514 -0.18979383 4.5604968 1.6666666
1.7504864 -0.15074418 4.5814214 1.6666666
2.0734572 -0.23342544 4.4831018 1
3.248569 -0.09212929 4.6129713 3
-4.5121894 0.24570988 4.5863276 3.6500001
-4.247838 0.20858213 4.4760418 3
-3.6711991 0.31552482 4.5716982 3.925
-3.4869714 0.31054416 4.5448656 4.0333333
-3.0660493 0.13891843 4.6387954 3.6666667
-2.5805204 0.20682819 4.587297 3.7449493
-2.1631231 0.17888047 4.5576158 3.6666665
-1.7886655 0.17131092 4.5819683 4.502037
-1.4019579 0.16602896 4.5988054 4.471972
-0.992733 0.21163125 4.5956731 5.283412
-0.58690113 0.20574914 4.6200628 6.1351318
-0.18323551 0.24019244 4.5819654 6.7354941
0.16032103 0.10765783 4.6197772 5.8667989
0.55249584 0.22533537 4.6748371 7.6701865
0.9608379 0.25765911 4.6973157 7.7815089
1.3599331 0.29450688 4.6898141 6.921
1.8058891 0.21683803 4.7263002 5.5333333
2.124548 0.30174172 4.6835079 6.5
2.5009916 0.053884894 4.7869997 5.3333335
2.9761386 0.32454234 4.7320161 7
-5.0114193 0.61877823 4.4587688 5
-4.6330404 0.75983405 4.5701809 5.7444444
-4.2410526 0.59792799 4.5355268 5.5
-3.8108828 0.59502119 4.5555482 6.723701
-3.3833811 0.58709687 4.5802293 7.4143744
-2.985651 0.60877568 4.5378485 8.6416883
-2.5763395 0.63648748 4.6217051 8.5015879
-2.1744287 0.59586108 4.5896935 8.99687
-1.8140397 0.59899676 4.636375 8.7785683
-1.408954 0.59307444 4.6803226 9.4432611
-0.96482694 0.55227083 4.6491022 9.8464565
-0.56195015 0.55677718 4.6583891 10.499592
-0.20751834 0.59132034 4.6693883 12.365307
0.18228172 0.57715887 4.6416264 10.999735
0.62647617 0.54494232 4.7217088 8.9025507
1.0155247 0.60413694 4.7356272 10.528422
1.3619816 0.58580768 4.703289 9.7956696
1.8373638 0.59728873 4.663506 8.6221609
2.1233885 0.57767135 4.6998992 9.9066429
2.5491767 0.5014962 4.7233906 8.0917501
2.8313329 0.53583884 4.7356987 8.0927505
-6.0764761 1.0119724 4.6750855 8.0585003
-5.8353152 0.99395001 4.6927118 8.059
-5.4509363 0.95813847 4.7502284 8.0301247
-5.0130587 1.0511124 4.5170703 8.3875008
-4.5715871 1.1287313 4.69558 8.90415
-4.1390376 1.0729455 4.5661101 9.4251585
-3.7732553 1.0642322 4.5568061 9.7213583
-3.3523247 0.99564892 4.6316204 10.333066
-2.9933279 1.0096291 4.6364703 11.138016
-2.5855505 1.0308443 4.6204038 11.778172
-2.1842685 1.042956 4.6421056 13.589297
-1.8171716 0.98487592 4.6600819 14.316426
-1.4121423 1.0041726 4.6884251 16.435423
-0.95792252 0.9224965 4.6452703 14.861594
-0.66381216 1.0600992 4.7390618 16.792772
-0.29399386 0.99280018 4.7392359 17.536898
0.1795935 0.84986067 4.7396755 12.144844
0.60673583 0.86328572 4.7083035 14.25573
1.3764151 0.94947052 4.6674204 15.103001
1.8737242 0.95055282 4.6460876 13.822277
2.1856663 0.93253803 4.4893222 12.810965
-6.6142311 1.3577158 4.6148109 8.3018742
-6.3493152 1.3551209 4.5650721 8.0465002
-5.773921 1.3336948 4.6192026 9.0474997
-5.4100761 1.3619324 4.728301 9.77425
-4.9661827 1.306108 4.605494 9.5704451
-4.5856147 1.3643274 4.5334754 10.310319
-4.1899786 1.3981465 4.594667 11.957832
-3.788831 1.3716446 4.6407557 12.510457
-3.3877301 1.3844376 4.6951661 12.83115
-2.9994698 1.4158216 4.6698256 14.526608
-2.6391075 1.4170785 4.672811 14.482387
-2.2091274 1.3579108 4.6974888 17.586153
-1.805353 1.4022825 4.6933012 18.663725
-1.3596777 1.4275764 4.7192082 20.183165
-0.94436747 1.4374354 4.7263107 19.124323
-0.67826557 1.3688197 4.7331986 18.858015
-0.17327172 1.4014912 4.73557 17.70705
0.18934563 1.3621746 4.7422867 18.691433
0.56965148 1.4167383 4.7521348 17.608404
0.97500467 1.4896079 4.7558365 17.746195
1.2872102 1.4274527 4.7600679 16.311729
5.5631065 1.5086942 4.6974287 11.1045
-6.8400159 1.784425 4.660955 10.046
-5.6017666 1.6972771 4.4657302 10.048
-5.3585515 1.7542328 4.6731701 11.715167
-4.9560208 1.6899807 4.6120772 12.304125
-4.5178957 1.819219 4.5689611 13.332943
-4.1671987 1.832781 4.62814 15.303164
-3.7627165 1.8340002 4.6038976 14.895157
-3.390918 1.767651 4.6755133 16.892248
-3.0168052 1.769136 4.6375351 17.276546
-2.5664308 1.8000083 4.6568227 18.961033
-2.2545636 1.7427692 4.6885576 19.735504
-1.8845828 1.8675855 4.6358113 18.211367
-1.4000005 1.758728 4.7023377 18.094542
-1.0460286 1.8363706 4.7194905 19.409811
-0.65707654 1.770059 4.7469149 19.218334
-0.25492296 1.7648261 4.7429576 19.280386
0.18456769 1.7481047 4.771946 21.862715
0.43109083 1.7687758 4.7872281 16.631166
1.3799051 1.6342316 4.755394 19.252623
1.842669 1.6510196 4.7754097 18.194149
-10.117774 2.2419739 4.4605484 9.0539999
-5.7708745 2.232255 4.5870056 13.0475
-5.2025933 2.0190384 4.4332175 13.0485
-4.902431 2.2980688 4.6510487 16.056084
-4.5698919 2.2903316 4.6041102 15.596732
-4.206193 2.172889 4.5636311 16.028461
-3.8074961 2.1603174 4.7024546 18.5
-3.3017168 2.1659095 4.6280575 19.056999
-3.0325596 2.2463295 4.6445785 19.055187
-2.6201065 2.181776 4.6462193 17.580503
-2.1743793 2.1635568 4.6381431 19.286562
-1.7900711 2.1696339 4.6467052 20.166166
-1.4145823 2.0492811 4.699759 20.633501
-1.0092494 2.1189654 4.7646632 21.495569
-0.56351948 2.1107252 4.6914878 22.903585
-0.30261442 2.1767855 4.7169189 23.07225
2.5758901 2.1961622 4.7326584 22.098249
3.5713582 2.1630492 4.4155178 19.102751
3.6410668 2.2507496 4.6276593 19.101999
7.2685199 2.363008 4.689631 13.111625
8.2651501 2.3179703 4.6256552 12.11925
8.614502 2.3008723 4.6379576 11.900687
8.9115629 2.3170178 4.4656787 11.118
9.9052944 2.1988163 4.5717325 10.618999
10.690201 2.1442208 4.7542624 10.118
10.883834 2.1180515 4.6805983 10.1085
11.233011 2.1032069 4.4365721 9.1049995
11.769835 2.1099558 4.5551186 9.6194992
13.146751 2.0046816 4.6185064 9.1204996
-10.582883 2.7573211 4.4271431 10.0535
-9.6945229 2.7097032 4.6360512 11.049749
-9.5944433 2.7471561 4.5324078 11.045
-8.2970037 2.7213538 4.6857615 12.55525
-6.842329 2.7363575 4.5690255 14.806
-6.6603603 2.7411194 4.6212025 15.056126
-6.2285829 2.6971984 4.5328331 15.218416
-5.9025311 2.7760675 4.5855131 17.056999
-5.406023 2.7269242 4.623889 16.927813
-4.9798865 2.5885248 4.6266198 17.11397
-4.5737901 2.6569724 4.636426 17.931799
-4.1853213 2.7017763 4.6209259 19.329762
-3.8356214 2.7204137 4.6336675 20.57839
-3.4111984 2.7819247 4.7100062 19.982674
-2.9905596 2.7342336 4.6313167 20.976618
-2.5767276 2.6826055 4.6318812 21.16551
-2.2820644 2.6316669 4.5777602 19.569254
-1.7775129 2.6525083 4.5817986 20.069687
-1.3963045 2.678009 4.5880642 20.800615
-1.0855944 2.6597886 4.5684133 21.002594
-0.64386976 2.6531665 4.6334901 21.149273
-0.31904411 2.6603708 4.5812941 21.487358
0.12513696 2.6414664 4.5110712 20.43
0.56700134 2.6591947 4.5696101 21.425751
0.97179866 2.6603785 4.5787582 21.173183
1.4206849 2.6406593 4.6046548 21.216547
1.80446 2.6277969 4.5395103 21.071871
2.1670127 2.6341109 4.5722756 20.612717
2.6285119 2.614181 4.6476908 20.575283
2.9937601 2.6070147 4.5891271 20.837278
3.3819435 2.5815358 4.5592489 19.501698
3.7952287 2.5644319 4.6158009 19.832348
4.3228326 2.538528 4.6371727 18.793064
4.5778666 2.5142808 4.5352068 17.834356
5.0429697 2.4649518 4.641644 16.721033
5.3954844 2.4557738 4.5747309 15.978813
5.7365518 2.4460244 4.5301895 15.708051
6.3825793 2.4003427 4.7945685 15.11775
6.4506955 2.4530983 4.5338306 14.6165
6.8606696 2.4126868 4.4901314 14.119
7.8333373 2.4205561 4.4505959 13.10775
-8.8072805 2.8112397 4.5023499 12.0545
-7.0642452 2.8038888 4.6288157 14.04525
-6.5545068 2.8046451 4.5683184 16.056
-5.7808943 2.8227904 4.4539685 16.751225
-5.3803282 2.820682 4.4600406 16.048
-4.1644135 2.8044786 4.5200982 23.05875
-3.8152688 2.8476059 4.4271531 20.218458
-3.2022421 2.8713975 4.4513187 19.722
-3.0321116 2.8225839 4.6988211 19.056751
-2.7348821 2.8143313 4.7188792 20.058001
-2.3119197 2.8238723 4.444541 23.05825
-1.5795221 2.8311713 4.4476519 23.062748
-1.1565856 2.8110762 4.5717907 23.0655
2.0726228 -0.41748264 5.1559496 1
3.0299602 -0.4221527 5.0427227 1
-3.8171844 -0.072212145 4.8466082 1.5
-3.2150922 -0.081583694 4.9026756 1
-3.1711185 -0.15021923 5.047235 1
-2.5367789 -0.073868014 4.9538269 1.6666666
-2.1970961 -0.11833752 4.9566464 1.5
-1.7759799 -0.13438684 4.9657154 1.2678571
-1.4172819 -0.16701135 5.1094809 1.0833334
-1.0845069 -0.22033323 5.0264039 1.1
-0.6142168 -0.1301983 5.0186286 1.6555555
-0.19518144 -0.060436852 4.9924908 2.625
0.24076335 -0.15017921 5.021914 1.1587301
0.58488905 -0.17205964 4.9994311 1.1428572
0.98295712 -0.17256007 5.0252366 1.0666667
1.4092455 -0.23827988 5.0288892 0.5
1.8006341 -0.16851705 5.0331964 1.7
2.2556379 -0.18081287 5.0045252 1.3666667
2.6132765 -0.1313325 4.92629 2
3.0316896 -0.23333521 5.0228825 1
4.4546633 -0.21514857 4.8942151 1
-3.9097788 0.32498807 4.9782724 5
-3.2456963 0.25512809 5.0060086 3.7222223
-2.9372375 0.21399084 4.9540639 4.375
-2.5814085 0.11192913 4.9556446 3.2
-2.2141933 0.21038979 4.9717093 4.28125
-1.778424 0.13859835 4.9512568 3.5
-1.4083941 0.19824325 5.009542 5.2767406
-1.0169463 0.20566677 5.0637283 4.6882725
-0.59177935 0.20804809 5.0348587 5.4799643
-0.21254444 0.19862334 4.9891582 5.6872158
0.21831113 0.21751036 4.9700174 6.1190567
0.58474731 0.2194131 5.0324492 5.9362903
0.98146302 0.19717906 5.0114646 5.7584691
1.3575799 0.20856747 4.9889603 5.8625169
1.7943448 0.19419244 4.9263592 5.0549307
2.2104819 0.13800669 4.927537 5.0609403
2.6952429 0.15387742 4.9321032 4.7679167
3.0355239 0.028815836 4.8226347 5
3.3790824 0.080104545 5.095787 4.5
3.7831893 0.10452194 5.1504831 4
4.3036699 0.23016444 5.1344538 4.5833335
4.5612755 0.17087062 5.0960159 4.5
5.2808466 0.14968425 5.1708059 4
5.7863793 0.054029778 5.1657696 4
11.803955 0.069178209 4.8894033 4
-4.8402786 0.7860986 4.80902 6.5
-4.5477796 0.73528808 4.8431411 6.1111112
-4.1974044 0.55293667 4.9437046 5.8333335
-3.8405557 0.73344511 4.9756389 6.5
-3.4499381 0.69047755 4.9643908 7.783
-3.0475566 0.70528102 4.9930258 8.0639448
-2.6263494 0.56738758 4.9663987 6.8424997
-2.1234279 0.64775527 5.0329361 7.3145361
-1.8148333 0.58404249 5.0312309 8.2353716
-1.4166358 0.61504781 5.0800948 8.2586212
-0.94132513 0.64759248 5.0176105 8.1252737
-0.60138291 0.6068266 4.9499807 8.7351036
-0.225721 0.63897049 4.9889545 9.4803801
0.20101213 0.60108244 4.9585433 8.897253
0.58369511 0.63827449 4.9898095 10.347017
1.0017024 0.5731737 5.0113463 8.109745
1.382447 0.59074557 4.9561005 9.9034557
1.7910631 0.63336813 4.9481668 9.6559315
2.2379558 0.62649441 4.9488411 9.3990955
2.5824234 0.65381432 5.0082273 8.3238831
2.9819381 0.67773372 5.0606213 8.175375
3.4378638 0.65504551 5.0357952 8.1591005
3.7854283 0.6078614 5.0017028 8.4853497
4.2133765 0.67283291 5.0811925 7.5522499
4.6533265 0.75566149 5.0257769 8.85425
4.9384694 0.66478515 5.1270552 8.5
5.2766347 0.42185348 5.191431 5.5
-5.1395617 1.1170003 4.9933901 8.0500002
-4.5687466 0.99970376 4.845089 8.4061251
-4.2387977 1.0719224 4.9875498 8.9173126
-3.8564556 0.99119025 4.9194736 9.3726664
-3.3591855 0.9979614 4.9948182 9.4804163
-2.9758611 1.0111849 4.9751468 9.8483171
-2.5740535 0.96214128 4.969377 9.0457239
-2.1540885 1.0027871 4.9511352 9.8238497
-1.7971351 0.98230565 4.9566984 10.226561
-1.4112661 1.0218525 4.9932241 10.596469
-0.99179178 0.9671033 5.0188675 10.635346
-0.57581216 0.99885869 4.9809251 12.239059
-0.13872452 0.99446064 4.9762597 13.276993
0.20771161 0.95662338 5.0121722 13.248528
0.61170614 1.001283 4.9681568 13.600694
1.0171517 0.99436665 4.9951797 13.032557
1.3565024 1.0101891 5.0156498 12.397623
1.7471564 1.0587331 5.0060272 12.642539
2.1950352 0.98542571 5.0500364 11.275028
2.6077385 0.92766583 5.0616117 10.290786
2.8348203 0.89369226 5.0451221 9.0436497
3.3537655 0.88082683 5.0776558 8.6557503
3.8345773 0.99588275 5.0447416 9.0917501
4.0896621 1.0831414 5.0158553 9.4251671
4.539041 0.95907587 5.0281692 9.0940838
4.9155836 0.982463 5.0559797 9.0465002
5.2122407 0.96065223 4.974649 8.09375
-5.0126381 1.4684348 4.8221507 10.870084
-4.5871048 1.4484365 4.9016113 11.457854
-4.2113514 1.5103507 5.0612736 12.391666
-3.8616345 1.4358381 4.9922547 12.3905
-3.4060957 1.4194402 5.0784121 12.942866
-3.0059316 1.4711457 4.9487224 12.384583
-2.6004076 1.4235405 5.0310373 13.159107
-2.1835871 1.4043189 4.9890599 14.022914
-1.7814901 1.4010775 4.9640388 14.626332
-1.4136411 1.3553325 4.9683638 14.752076
-0.99688417 1.3598005 5.0239315 15.132487
-0.57606041 1.3819193 5.0419755 14.565902
-0.23228814 1.4042474 4.9878941 15.009862
0.22790074 1.3215414 5.0409908 16.64282
0.62331665 1.3737916 5.0618863 17.241835
0.98216379 1.4391363 5.0413384 18.16165
1.4128603 1.4009477 5.0089374 15.758809
1.7769197 1.3633749 5.008707 15.855344
2.1856065 1.3797822 5.0017881 14.951025
2.5502062 1.3555484 5.0045428 13.765647
2.9174695 1.3729614 5.0378275 13.070407
3.334919 1.4296314 5.0953326 12.730639
3.7878616 1.3705 5.0669894 11.649194
4.3703551 1.3608503 4.9958243 11.429416
4.5167809 1.4356029 5.0961709 12.095751
5.0514235 1.3000065 5.1219878 9.7606668
-5.6602554 1.8086491 4.859374 12.55925
-4.9650669 1.8031373 4.953577 13.810875
-4.4340539 1.7610559 5.0403838 14.729167
-4.2139759 1.9543805 4.884058 15.390583
-3.7795725 1.7974299 4.9246564 15.18427
-3.4601457 1.7908827 5.0574212 15.600666
-3.0227542 1.7436373 4.9570765 16.890308
-2.5785985 1.8597696 5.0108037 17.390881
-2.2105339 1.8027256 4.9714828 17.811916
-1.8248534 1.8139554 4.9521699 17.557325
-1.4225852 1.7917659 5.0540872 16.752552
-1.0108019 1.8010721 5.0547872 16.255217
-0.61216909 1.7579803 4.9995728 16.675406
-0.2020423 1.7408922 5.0139499 16.155773
0.17969802 1.8124934 5.0025444 17.527596
0.61250365 1.778012 4.9911547 17.427446
1.010717 1.8397967 5.0757575 16.305948
1.4206052 1.7514606 5.0600448 17.048008
1.8100783 1.8372211 5.054008 18.266447
2.1470053 1.7360573 5.0580945 15.755249
2.5662866 1.7578661 5.0262289 16.91629
2.9447827 1.8623623 5.0182242 16.509001
4.134316 1.812737 5.071651 13.092375
4.510777 1.9827724 5.0168934 15.097
6.0451989 1.633779 5.1034927 11.095
10.287097 1.6082349 5.0444536 8.6032505
11.431379 1.999657 4.9976077 9.3637505
12.120849 1.969998 4.9108105 9.1103334
12.713509 1.9950801 4.8509893 9.1199999
13.37148 1.9625919 4.981925 8.1134996
-5.8227415 2.1789989 4.9657183 14.059
-5.2809014 2.2180459 4.9914789 15.393333
-4.8323226 2.1511295 4.9590659 16.060833
-4.4654994 2.2246211 4.9605851 16.020399
-4.3229694 2.2158527 4.9518785 16.17975
-3.8051941 2.1633968 4.8245816 17.558001
-3.4436567 2.0863438 4.8206525 17.054874
-2.9981813 2.0932441 5.0193357 19.410931
-2.5863557 2.1820211 4.9377837 17.788294
-2.2052953 2.1488757 4.9854422 17.167917
-1.8103613 2.1346927 5.0110583 17.274059
-1.3886323 2.1402919 5.0186529 18.099257
-1.0076774 2.1272552 5.0753245 18.167181
-0.65277332 2.1867747 5.0184608 18.940496
-0.22784323 2.1720915 5.0153785 18.816959
0.27151009 2.1135497 5.0019288 19.853306
0.63003594 2.1386511 5.0170107 19.886013
1.0325068 2.1162825 5.0558815 19.665886
1.4277172 2.1219485 5.0812283 19.789665
1.8839155 2.1578286 5.0738721 18.953999
2.2117326 2.1233761 5.0267677 19.816938
2.6036162 2.1434405 5.1062937 17.794876
2.9518788 2.0787313 5.0252895 15.921417
4.5252585 2.378967 5.1060205 17.297857
4.9329109 2.3452125 5.0075331 16.098
5.4111443 2.3494785 5.0064583 15.656
5.7400794 2.3635709 4.9898262 14.768766
6.1088161 2.3720367 4.9661088 15.115875
6.7156582 2.3163767 5.025661 14.11125
7.1302071 2.2544847 5.1178179 13.11525
7.5187321 2.2894745 4.947289 13.108875
7.6718745 2.3056164 5.0465469 12.1015
8.3003311 2.1869137 5.1231256 12.113416
8.7775764 2.2229488 4.8165479 11.101749
8.8412952 2.1886134 5.1210485 11.358749
9.5691471 2.1483364 4.9352369 11.119
9.9261227 2.1105852 5.0676031 10.117
10.180418 2.1014762 4.9025407 10.112625
11.09346 2.0001836 5.1683226 10.119
11.300297 2.0046959 4.9598536 9.1040001
-10.016145 2.6132345 5.0326757 10.546
-6.8133574 2.6722546 4.8429518 15.057
-6.182497 2.6810071 4.8543501 16.053125
-5.8146544 2.6038904 5.0463352 16.221043
-5.4847031 2.6594901 4.913137 17.049751
-4.8790026 2.6264374 5.1277847 18.727667
-4.4713192 2.6070089 4.9678726 18.556625
-4.2419715 2.6337509 4.9776058 18.777418
-3.7830021 2.6894805 5.0169539 21.393501
-3.4342275 2.6706958 5.0663848 19.684177
-2.9681668 2.6529794 5.0124068 19.0247
-2.6786885 2.6104794 5.0481467 18.52475
-2.3061049 2.5694635 5.0775084 17.762972
-1.8565679 2.5904622 4.9811592 19.809074
-1.4277302 2.5587575 5.0147457 20.327171
-1.0123332 2.5700631 5.0003533 19.487064
-0.65721762 2.6465213 5.0340047 20.460186
-0.17055966 2.6156569 5.0634122 20.086166
0.14198552 2.6116643 4.9770799 20.584583
0.58317703 2.5996354 5.0591326 20.332405
0.95558876 2.5956249 5.0293827 19.98806
1.3491666 2.5780334 4.9865308 20.416403
1.7722708 2.5764797 5.0118914 19.615555
2.2094297 2.5724089 4.9811311 19.643427
2.6043391 2.5235829 5.0049872 20.501406
2.9621065 2.5251658 4.9819913 20.585567
3.4527605 2.518986 4.9965243 19.072634
3.7243419 2.49808 5.0363793 18.730072
4.1837149 2.4896579 4.9633856 17.94071
4.6074977 2.4429135 4.9068713 17.094061
4.9816113 2.4127853 4.9326749 16.186417
5.2519913 2.6124246 4.8594618 17.10425
-5.0601783 2.8013809 5.1675258 16.051001
3.4546168 -0.54044825 5.566433 1
3.9167483 -0.61464304 5.5583258 1
11.544198 -0.44521794 5.5711732 3
-3.7500129 -0.35852879 5.4605427 1
-3.3634894 -0.26157647 5.5791016 2
-2.5497115 -0.080027118 5.4574232 4
-2.1290722 -0.049973648 5.4164271 3.1666667
-1.7417247 -0.10156088 5.2988997 1.25
-0.64057016 -0.10874122 5.3260355 1
-0.2452786 -0.162312 5.401896 1
0.61350465 -0.12131553 5.4017477 0.5
0.99406081 -0.16754255 5.4054136 0.40000001
1.401651 -0.1373945 5.3475118 0.33333334
1.7827765 -0.26805007 5.3356056 0
2.2111433 -0.15795477 5.312995 1.3666667
2.5529022 -0.21583165 5.3107419 1.2916666
2.9710045 -0.24694009 5.42872 0.66666669
3.3024397 -0.19179672 5.3159504 0.5
3.7358246 -0.15884879 5.3049536 1
4.3160753 -0.27847132 5.4290137 1
4.4490657 -0.30350298 5.4323807 1
4.8127623 -0.33373135 5.5814443 1
-3.3284872 0.22927687 5.2411404 4
-2.407073 0.046035841 5.2028308 1.6666666
-2.1389976 0.13725668 5.2853599 3.5
-1.8738078 0.21851838 5.3564754 3
-1.5623126 0.13314272 5.2099075 3
-0.87430954 0.18778156 5.4112539 3.5833335
-0.58601201 0.2655499 5.4141932 4.1999998
-0.084269777 0.20616549 5.3820148 4
0.21179335 0.22503626 5.2213244 4.6666665
0.53318858 0.22662488 5.2975035 5.2618332
1.0016948 0.25508159 5.3889489 4.5555553
1.4632523 0.25464371 5.3269901 5.8279018
1.8160071 0.20734088 5.3657074 5.2212658
2.2056446 0.21542132 5.3645802 5.3520665
2.5841715 0.19443971 5.3878512 4.3333335
2.9820967 0.28193313 5.5109568 5.5789499
3.2683671 0.35442957 5.4561877 4
3.9759514 0.37497419 5.251348 5
4.3259377 0.33470687 5.3158693 6
5.4706054 0.37223369 5.2130103 5.5
-3.7634656 0.7931481 5.4753532 9.0574999
-3.34793 0.73318231 5.3257852 7.7779999
-2.8263159 0.63760239 5.359714 7.8536668
-2.4894125 0.66389298 5.2960033 8.0600004
-2.2318206 0.61318779 5.3807631 7.3636665
-1.8674872 0.59902364 5.3426733 8.3966665
-1.4376211 0.53270793 5.344409 7.0324998
-1.1938715 0.66963077 5.4709215 9.0675001
-0.605757 0.64936566 5.2852616 8.5530825
-0.32638013 0.54748607 5.4286346 8.8731003
0.25227219 0.64707428 5.3544703 9.4184561
0.58050144 0.63926345 5.3410735 8.8946724
0.99341017 0.55254167 5.3254418 7.9486651
1.3885058 0.59316987 5.3193593 9.0654249
1.8603904 0.59272486 5.3210583 8.4967499
2.1415331 0.5882026 5.3565044 8.0223885
2.5683076 0.64732498 5.4149828 8.5841351
3.0739162 0.51524144 5.4704299 5.8333335
3.2812855 0.63448662 5.4516044 5.5
3.7710884 0.54093301 5.5342665 7.5549998
4.2773204 0.62583476 5.4409904 7.3698335
4.9735928 0.6954186 5.2245407 7.3711662
5.9464726 0.70965207 5.4979396 7
-3.7876 1.0180874 5.2470617 9.5545006
-3.2069404 1.0451493 5.3945823 8.0585003
-3.0121832 0.87300587 5.2688355 9.18575
-2.6415296 1.0117849 5.3078279 8.7600756
-2.2209518 1.0606927 5.3275518 9.5285845
-1.9383265 1.0358834 5.3605623 10.106022
-1.4058542 1.0289235 5.4022269 9.7882366
-1.0571426 1.05758 5.4066892 11.922771
-0.61137515 1.0056651 5.3457661 13.009814
-0.20927663 1.0447683 5.2940784 11.621934
0.13938022 1.053197 5.2555389 12.814944
0.61238241 1.0318593 5.3299127 12.562446
0.99148494 0.93282604 5.3970675 10.554506
1.3848411 0.97967213 5.4036188 10.196888
1.7985231 1.0312656 5.4075685 11.683356
2.2005486 1.0322869 5.3571415 10.947688
2.5839648 1.0055987 5.3747954 10.084738
2.9786341 0.99938428 5.4300141 9.6438665
3.3525488 0.9685812 5.4753628 9.4234915
3.82863 0.96055168 5.402986 9.017251
4.2597032 1.0726142 5.3196044 9.6485415
4.497117 1.0037477 5.2940011 9.3297834
4.997664 1.0308599 5.3387365 9.34585
5.4880486 1.0223111 5.432281 8.3451252
-3.8020351 1.3605173 5.5239687 13.057
-3.4262555 1.3723996 5.5037251 12.182875
-2.9322925 1.3443615 5.3309727 12.55775
-2.603991 1.3070841 5.4128261 12.81125
-2.2390866 1.4360051 5.3654404 11.06275
-1.8042341 1.3688867 5.3888254 13.564459
-1.404935 1.3937409 5.3584223 16.436579
-0.96387869 1.2562953 5.4151735 14.572062
-0.57212371 1.4131473 5.3118882 14.145786
-0.21189469 1.4182632 5.3367414 15.857981
0.19610037 1.4191332 5.2817473 14.821281
0.5889653 1.4370321 5.3514805 15.453029
0.99433672 1.3697019 5.3803205 14.074244
1.3658333 1.3453009 5.37251 15.190341
1.7671784 1.3828 5.4209571 14.503943
2.1783171 1.3594476 5.4336004 13.214864
2.6177256 1.3096331 5.3593717 11.325833
3.018667 1.3094262 5.3722701 11.045154
3.3431056 1.3648944 5.3653712 11.063187
3.7482088 1.3837062 5.4004803 11.5495
4.2142291 1.2400585 5.4339561 10.592375
4.6250372 1.5067401 5.3415294 11.061501
4.9423308 1.358871 5.3913341 11.325749
5.4586496 1.4459336 5.2884684 10.5955
5.8596997 1.5841233 5.4527726 10.595
6.6761165 1.2375091 5.35501 9.0965004
10.149026 1.5585823 5.3832455 8.1025
10.601336 1.4355357 5.4773598 8.618
-4.4551501 1.9736909 5.2236376 14.052
-4.344995 1.9009521 5.2867727 14.0525
-3.6849351 1.8400683 5.4311666 14.055
-3.3882804 1.8616394 5.3550935 15.557
-3.0355618 1.8327723 5.3426013 14.392418
-2.6785133 1.8359836 5.296423 13.061
-2.1893134 1.9156573 5.3410187 17.384188
-1.7734098 1.7682424 5.3331304 20.123917
-1.4321479 1.7208678 5.3984389 17.73675
-0.921345 1.7114081 5.23208 18.37545
-0.5725351 1.7918561 5.2472372 15.113198
-0.15058097 1.7291462 5.3588519 16.906208
0.23782945 1.8103231 5.3207264 17.680456
0.55966741 1.7944187 5.3503833 17.392281
0.99938977 1.7751417 5.3457489 17.049723
1.4286203 1.8633405 5.4224763 16.519388
1.7935348 1.8073715 5.3977771 16.262232
2.2197866 1.7895584 5.4879336 15.626723
2.5958536 1.7993923 5.4225616 14.652061
2.9343286 1.8550373 5.4483871 12.430699
3.4094706 1.8269942 5.5599489 12.085751
3.7587516 1.6543102 5.3936028 13.597084
4.1493077 1.7006856 5.303791 12.966812
4.5520759 1.8434193 5.3449717 13.439834
4.9868898 1.7901479 5.3603392 14.5
10.128165 1.9858817 5.4638958 10.118
11.55949 1.9056731 5.5770283 9.1029997
11.62029 1.8215958 5.5068469 9.1184998
12.360094 1.8537372 5.400732 8.6105003
13.157214 1.8109332 5.510983 9.1190004
13.599273 1.8376983 5.2665777 8.1195002
-4.4341097 2.3690689 5.4186211 16.0525
-4.0481992 2.0727592 5.2278171 17.054501
-2.6895604 2.0300918 5.2177725 21.736334
-1.8122085 2.0788643 5.372261 17.063749
-1.4011348 2.1150529 5.3803229 17.066
-0.99501866 2.0942132 5.3131046 17.045208
-0.54983586 2.2404633 5.3386173 19.085751
-0.18252178 2.2091494 5.3738303 18.738041
0.17020884 2.2258468 5.3117309 17.243168
0.59867436 2.1655371 5.3569169 17.608
1.0402725 2.1804178 5.3381171 15.766396
1.3784261 2.1290333 5.3794227 17.752167
1.8111451 2.1507962 5.3728471 17.944395
2.2731829 2.1320531 5.4002237 16.393063
2.6351173 2.1937621 5.4028296 15.938884
2.9167295 2.2786474 5.4558144 17.448641
3.4283974 2.3728828 5.4854994 19.262274
3.8732488 2.3713818 5.4094028 18.430084
4.2507129 2.3682151 5.4353676 17.464537
4.6067996 2.2739544 5.368001 15.973881
5.0627856 2.206635 5.3555093 14.705109
5.3717952 2.2370996 5.3466835 15.063479
5.7652802 2.275717 5.4045911 14.531608
6.0559864 2.2400994 5.5305076 14.108
6.5534668 2.2427011 5.3407869 14.115126
7.0010929 2.1995821 5.4813023 13.115126
7.5574203 2.2229013 5.2189665 12.101
7.6170816 2.1962795 5.4142451 12.1005
8.1902895 2.1206691 5.4903469 12.105249
8.5996304 2.1235523 5.3803506 11.50925
8.8342123 2.145824 5.402451 11.1005
9.2999935 2.0584493 5.4670639 11.116751
9.6824551 2.0761216 5.270628 11.11825
-12.202367 2.4026768 5.3287687 8.7123327
-10.179115 2.5269313 5.3096409 10.0465
-5.801456 2.5342093 5.4729004 16.05125
-5.0417333 2.614912 5.3435402 17.051666
-4.6347399 2.5136576 5.5145073 18.053749
-3.3763072 2.6552763 5.3394332 17.723335
-3.1553853 2.5341432 5.5600004 22.0585
-2.1878729 2.5584984 5.3405628 19.211863
-1.8518362 2.6176975 5.3088126 19.980042
-1.424499 2.5854049 5.3995962 20.208447
-0.97697604 2.5721068 5.2677603 19.425768
-0.58783185 2.5964684 5.315908 19.275398
-0.16482939 2.5916831 5.3363099 20.526917
0.1857021 2.5156884 5.2979131 18.789249
0.61318934 2.5404198 5.396018 19.447166
1.0190876 2.5481865 5.3851156 19.41016
1.4015907 2.522109 5.3112183 20.382053
1.8249767 2.5545638 5.298224 18.586775
2.251879 2.4789677 5.3693385 17.806597
2.5990295 2.4687779 5.3572464 19.040907
2.9926736 2.4708228 5.3766942 18.033197
3.3500178 2.4701278 5.4104385 17.608618
3.8328352 2.4464087 5.3426151 16.794575
4.2201066 2.4031961 5.2838612 19.113501
-5.3298836 3.000222 5.5525579 17.55175
-4.9738832 2.9237533 5.2839875 18.050501
1.5594702 -0.418152 5.6006727 0
2.0072217 -0.43927309 5.6755362 0
3.946079 -0.49982473 5.9606037 1
4.9926438 -0.61034256 5.6196575 1
5.646678 -0.73883921 5.8281946 1
-4.2200933 -0.38460302 5.9980459 2
-3.7802141 -0.29886359 5.8827906 2
-3.4206953 -0.23767322 5.7909536 3
-3.0684426 -0.19310218 5.7655163 3
-2.6969731 -0.14268082 5.6770649 3
1.3240333 -0.31852129 5.6513386 0.5
1.7446443 -0.28294444 5.6663365 0
4.2963996 -0.21824522 5.87644 1
1.2384502 0.3180396 5.6210957 5
2.2687857 0.11882168 5.7214203 5
2.5151937 0.041117907 5.7334442 5
4.0482383 0.28340712 5.6828451 6.5
0.62194657 0.520401 5.6248369 9.0790005
1.4611669 0.65282792 5.6083865 6.4499998
2.4900618 0.67724931 5.7417016 9.0879993
3.0631096 0.65941525 5.6414814 9.0741253
3.2892663 0.49745747 5.750423 6
3.7684557 0.67735887 5.6548033 8.0912495
4.1335068 0.55058879 5.690001 8.25
4.4818096 0.67190778 5.6546001 8.6022501
6.4320698 0.60467994 5.7962365 6
-5.3179665 1.114666 5.7390409 9.0539999
-0.24714974 1.0249137 5.661684 13.0735
0.61436963 1.0072591 5.7062445 12.495438
0.84175134 1.1979094 5.7585773 13.58
1.258328 1.0644139 5.7944956 13.082251
1.8263686 1.0542185 5.6305428 12.0855
2.0301883 1.0875951 5.6422467 10.0835
2.4704692 1.1875105 5.6800227 10.084
3.0955317 0.94403106 5.7118416 10.49135
3.4007046 1.0266352 5.7316337 8.5861244
3.742697 0.96378934 5.6863828 10.517063
4.1827207 0.95254833 5.7123051 9.9197235
4.4931307 0.9222436 5.8781247 9.8461246
4.945014 1.0584121 5.880475 10.352249
5.4054403 0.85826039 5.9853001 8.0955
6.9345698 0.99173087 5.7278814 8.0974998
7.3844943 0.98595816 5.761754 7
-5.7800636 1.5492463 5.7928343 11.053
-4.8273454 1.4448454 5.6268883 12.0545
-1.8731542 1.425415 5.8318424 17.0665
0.15125015 1.2534168 5.6433201 15.076
1.0615346 1.5649096 5.6507397 15.07975
1.4226354 1.4809852 5.6953754 13.636416
1.7468197 1.5397472 5.8898711 15.084499
2.4967463 1.4557396 5.6211739 15.954833
3.0423875 1.3355384 5.7461815 12.968687
3.4670601 1.5014004 5.8377986 14.852
3.6482968 1.400043 5.7014151 11.59
4.1494675 1.3110111 5.83955 11.594438
5.4309816 1.3315741 5.7187996 10.095751
10.125876 1.5538509 5.6119852 8.1009998
10.493642 1.4193279 5.6626091 8.5587502
-2.2094119 1.6321133 5.9400368 18.064877
0.21467225 1.948357 5.8401504 16.074499
0.73454803 1.8787442 5.6420646 14.0755
1.0219641 1.98066 5.6137533 23.097498
1.3372905 1.7283392 5.6149559 19.091187
1.7072375 1.6771265 5.6300282 17.084999
2.1933491 1.6625834 5.7615561 14.250751
2.580375 1.8096012 5.6911736 15.670382
2.9917257 1.7507519 5.7312579 14.799611
3.4303002 1.7919314 5.7021236 13.087749
3.8513184 1.7165236 5.6950645 14.09225
4.2125382 1.6988868 5.8144722 12.818334
4.5573654 1.8270794 5.7209725 14.838964
6.1605968 1.830138 5.9150281 11.096
8.6260633 1.9991345 5.9729428 11.11425
9.7941446 1.9299985 5.8699918 10.117
10.234657 1.9563726 5.6246643 10
10.501842 1.8142323 5.953434 10.1155
11.751019 1.8091815 5.9672713 9.1112499
12.31377 1.8385327 5.7965393 9.1070004
12.730381 1.8120801 5.8973026 8.1070004
12.952919 1.8591068 5.6471267 8.1075001
13.945727 1.7546068 5.9526591 8.1184998
14.375928 1.7567086 5.6137896 8.1079998
15.24332 1.6848108 5.8690734 8.1190004
-10.524422 2.3974323 5.8413897 10.0475
-5.3660069 2.3493435 5.970952 16.053749
-3.6123316 2.3982639 5.997447 19.391832
-1.458825 2.0403554 5.6932926 22.735001
-1.1809134 2.0254421 5.6108646 23.07
0.25994959 2.3157837 5.6639619 17.6742
0.48028782 2.3265972 5.7597113 18.53775
1.076093 2.188026 5.6730957 17.077999
