# .PCD v0.7 - Point Cloud Data file format
VERSION 0.7
FIELDS x y z intensity
SIZE 4 4 4 4
TYPE F F F F
COUNT 1 1 1 1
WIDTH 1342
HEIGHT 1
VIEWPOINT 0 0 0 1 0 0 0
POINTS 1342
DATA ascii
-1.0259542 2.9918451 -0.83969212 19
-0.95620787 0.15966353 -0.73143697 3
3.0927031 0.14664984 -0.68263793 4.5
-0.89062965 0.31626001 -0.74606109 4
3.123817 0.28686917 -0.70291817 6
3.1339307 0.42037734 -0.70594233 7
3.3242507 0.47347715 -0.71709931 6
-1.2652855 0.63844115 -0.60224342 6
-0.90182287 0.66812795 -0.6975348 6.25
3.1483757 0.73753053 -0.64831764 8.666667
3.2819355 0.71549517 -0.74485272 8.833333
3.4151475 0.7876246 -0.77531767 9
-1.2249773 0.89738697 -0.64939213 7
3.1405597 0.99859095 -0.65365386 10
-1.1946162 1.1038182 -0.6381588 8.5
-0.84390318 1.0860759 -0.68601441 9
3.1475587 1.1888064 -0.64682078 12
3.2852824 1.1097172 -0.74655628 12
3.4536946 1.0085608 -0.79112029 11
-1.1994768 1.330864 -0.63613462 10
3.2715309 1.3104886 -0.66489834 13.333333
-1.2003963 1.5333323 -0.65401745 11
3.154665 1.4453528 -0.6508497 14.75
3.3218365 1.5062306 -0.7260381 14
3.3127546 1.6985731 -0.74981606 15.5
3.374855 1.8633635 -0.71430475 17.5
3.4150698 1.8586024 -0.73501968 17
-1.1689544 2.6180658 -0.78897429 17
-1.1558536 2.8228102 -0.72163916 18.5
-0.86590815 3.005949 -0.75256538 19
2.9819086 0.10234083 -0.42550623 4
2.9834404 0.22187264 -0.49028695 5.5
3.0665486 0.31813845 -0.47631967 5.6666665
-0.42608231 0.46112603 -0.59551919 18
2.9849925 0.58702302 -0.52486646 8.5
3.1331015 0.4459357 -0.46083546 6
2.9934244 0.77858597 -0.47195411 10.5
3.1155949 0.68733239 -0.52355325 8.75
2.9747422 0.93453658 -0.45543492 12
3.0697157 0.90270656 -0.47645134 10.25
3.1197712 1.0863219 -0.52885538 12.333333
3.24266 1.0365229 -0.59546721 11
3.0852473 1.2830867 -0.5564543 15
-1.2696016 1.512542 -0.46228123 12
3.1004801 1.5355048 -0.51594305 15.5
-1.2908281 1.6779406 -0.42886543 13
3.1662171 1.6968588 -0.53435647 16.5
3.3290358 1.7734841 -0.56143045 16.5
3.1683946 1.8709031 -0.48083371 16.5
3.2804885 1.9881632 -0.5154146 18.5
3.2998726 2.0660384 -0.59994823 19
3.2706547 2.2672422 -0.47998908 20.5
3.1890683 2.5534012 -0.48504508 22
2.8414006 0.16118029 -0.20284647 5
3.0171089 0.035135742 -0.27285022 3
2.9929872 0.32973248 -0.25433254 6
-0.64741284 0.54828215 -0.23535967 20
2.9051716 0.47321054 -0.26703101 7.5
3.0277717 0.57185984 -0.25912142 7.5
2.9309914 0.75182372 -0.25816265 9.5
2.8631339 0.94543898 -0.21111697 12
3.0076461 0.97420585 -0.24883246 10.5
2.9707618 1.0853224 -0.37333351 13
-1.4766732 1.3091044 -0.26957893 11
2.9274027 1.383451 -0.20710063 16.5
2.9940662 1.5375378 -0.20572639 14
3.130621 1.4237006 -0.37857127 13.5
2.9621789 1.6877259 -0.31022131 19
3.0875173 1.7152008 -0.31979066 16.375
3.2144191 1.6613388 -0.34718573 15.5
2.9138782 1.8514909 -0.22099513 20.5
3.064415 1.9053961 -0.29526371 18.533333
-1.3050841 2.059386 -0.39888191 15
-1.2961643 2.268163 -0.35097599 16
2.8720517 0.06544093 -0.11090562 4
2.8149707 0.22744837 -0.058931112 6
2.8697324 0.46153718 -0.048127651 7.75
3.0194826 0.49818024 -0.0045697689 7.5
2.8415322 0.68906498 -0.026421577 9.75
3.0412109 0.77023757 -0.17698991 11
2.8892498 0.92457271 -0.086273789 11
2.905416 1.0544791 -0.1193267 12.625
2.87904 1.3077153 -0.087964036 14.666667
3.0411496 1.2652929 -0.076604128 13
2.7923634 1.4234989 -0.072845161 17
2.8919497 1.575461 -0.15298933 18.5
2.7510335 1.6049335 -0.0059431791 18
2.8210711 1.7472314 -0.091249764 20
-1.4726324 1.9989152 -0.11776829 15
2.8306379 1.8999023 -0.012166739 21
3.0702682 1.9725277 -0.17768741 18
-1.3823451 2.1976662 -0.15871525 17
-1.4064147 2.3825331 -0.13985062 18
-1.1416409 2.7524002 -0.059616327 21
3.0171962 2.6879778 -0.13210791 22.5
-1.1263697 2.8420186 -0.0068016052 22
2.8614712 -0.0046779099 0.082004607 3
2.7359643 0.034531683 0.085773349 3.5
2.8394358 0.10248932 0.1070827 4.125
2.7277265 0.23591936 0.15691386 5.25
2.8399642 0.32578534 0.12881455 6
-1.9383978 0.41677618 0.016909599 4.5
2.6778059 0.52594453 0.16166788 8.25
2.8675084 0.48256654 0.11281203 8
2.6754358 0.75499213 0.17855656 10
2.9674251 0.65737247 0.046079691 9.166667
2.8807688 0.89671987 0.080210924 11.25
2.7503216 1.1345989 0.099011898 14
2.8542032 1.1122 0.14234903 13.625
2.8670797 1.3607105 0.1944077 13.5
2.7175183 1.5773323 0.12753987 19
2.9386094 1.5236127 0.065322876 14.75
-1.7595551 1.7156935 0.029382706 14
2.7045128 1.763025 0.19556785 20
2.8642018 1.6064734 0.13996601 15.5
-1.6374537 1.8878419 0.13563633 15
2.674273 1.8446985 0.19187367 21
2.9294569 1.8041759 0.016289769 21
2.8725042 2.0022507 0.035310913 22
-1.5203768 2.2232673 0.0202384 17
2.9689388 2.3868568 0.17684889 21
3.0362687 2.2351811 0.026288748 20
2.9832778 2.4851515 0.065139055 22.25
-1.5683419 2.6217043 0.1087575 19.5
-1.1070836 2.8804879 0.103688 23
2.7619495 -0.049908552 0.30883104 3
2.6826084 0.065966047 0.29381514 3.8333333
2.8161201 0.0631698 0.31474698 3.5
2.5460269 0.29045606 0.35853904 6
2.7466414 0.25942436 0.31795895 5.75
2.8131435 0.24021761 0.25630656 6
-0.88146591 0.53046656 0.35691011 19
2.568604 0.4109017 0.32906282 7
2.7444012 0.51182771 0.30401143 7.9722219
2.5532017 0.68523824 0.38271213 10
2.7282398 0.6740101 0.28466406 10.5
2.8723433 0.67153364 0.20501369 10
2.7143118 0.8853541 0.31871018 11.875
2.8987854 0.84688246 0.20520163 11.5
2.6916809 1.0489502 0.30661827 13.5
2.8452904 1.0651958 0.23272853 14
2.7322314 1.2888429 0.34515938 16.1
2.8893483 1.2877822 0.25688034 16
2.756423 1.5797678 0.20529032 18.5
2.7423265 1.7471148 0.32596767 19.5
2.9388001 1.7819647 0.27046967 17
2.8620238 1.9108354 0.284495 19.75
2.8448205 2.1063871 0.22769262 21.5
2.8277879 2.3627799 0.30158663 21
2.9351993 2.66751 0.20822191 23
2.6886432 -0.056610823 0.4350127 3.5
2.5222182 0.10030127 0.54973269 4.25
2.6517224 0.09477064 0.49638033 4
-0.95904714 0.27937883 0.40791962 11
2.4831922 0.21948481 0.56234723 5.6666665
2.6882401 0.28938228 0.47400942 6.5
-0.99794793 0.42861864 0.52106887 17.5
2.5133576 0.49536204 0.55287462 8.5
2.6504498 0.51017851 0.53431934 8.75
2.452569 0.62329638 0.56825602 9.5
2.7165141 0.69418979 0.46013421 10.75
2.5061619 0.88188839 0.48846713 11.5
2.7963049 0.8988207 0.40547848 12
2.5515552 1.1817579 0.52561224 15
2.7803664 1.0637922 0.44324476 14.125
2.5374494 1.2549136 0.59399557 15.333333
2.725652 1.2545862 0.50998974 16
2.7037466 1.484486 0.48947504 18
2.8047652 1.4794523 0.43252239 18
2.5566301 1.682117 0.48140427 19
2.747328 1.718672 0.52594429 21
2.5862007 1.9582219 0.57692075 23
2.6768579 1.8813999 0.44812399 21.875
2.7422051 2.1541085 0.51404119 19.5
2.6720352 2.3751535 0.58065534 21
2.5082307 0.15492001 0.69529629 4.75
2.6776533 0.079050764 0.68544614 5
-1.1079235 0.36147594 0.65372521 13.25
2.3411198 0.32256001 0.70539635 6.3333335
2.5302742 0.29150715 0.74061394 6
2.6526749 0.29391256 0.67331743 6.8333335
-1.1021785 0.47653133 0.69778389 17.950001
2.3679256 0.46491092 0.66622603 8.5
2.5579872 0.45940033 0.70905972 7.8333335
2.6906323 0.59527743 0.64538962 9.5
-1.1220123 0.62111992 0.76751995 23
2.3534651 0.69196492 0.71090025 11.333333
2.5831859 0.60530764 0.72470361 9.5
2.7036719 0.77036697 0.65790009 11.5
2.3754606 0.81578958 0.73632222 13
2.568902 0.93447024 0.68460923 13.5
2.6470673 0.91804099 0.70752168 13
2.5122349 1.0953615 0.72310871 14.875
2.6444781 1.1373049 0.65632337 15.333333
2.3722339 1.357545 0.79325628 16.5
2.5614803 1.3061393 0.69212842 17.166666
2.5207779 1.5256879 0.60215712 17.5
2.6393204 1.486551 0.72474647 19
2.495122 1.7209406 0.76173425 20.5
2.6501601 1.6890422 0.71514273 20.666666
2.4915059 1.9098362 0.69049108 21
2.6345575 1.908498 0.68940753 22.625
2.4460368 2.0156486 0.70684874 22.5
2.3287961 0.11581568 0.87777913 4.5
2.5342631 0.014835075 0.87368613 3.5
2.2554932 0.29468057 0.89355445 6.6666665
2.473129 0.26752883 0.92015135 6.375
-1.2139271 0.54700983 0.86708188 20.111113
2.2659929 0.48650521 0.93010795 8.875
2.4418192 0.49927211 0.87170857 9.166667
2.3747294 0.66120487 0.84611392 10
2.4646997 0.78669405 0.86597741 11
2.3215277 0.90602916 0.86382264 13.166667
2.5221219 0.93899053 0.89244807 13.5
2.3358757 1.1052068 0.95104474 15
2.5087485 1.1167469 0.93244541 15.25
2.3424692 1.2824494 0.99678439 18.5
2.4966016 1.2808512 0.89802462 17.166666
2.3713031 1.4904549 0.84591627 18
2.4848986 1.4232111 0.94111621 18.1
2.3584797 1.637194 0.94927716 19.5
2.5032053 1.6807632 0.91716838 20.5
2.3510895 1.9693944 0.84306848 22
2.476855 1.9279547 0.89927274 23
2.1067319 0.071412131 1.1498646 4.3000002
2.3191352 0.083631001 1.089754 4.5
-1.3322641 0.33373889 1.1169384 13.655556
2.0957401 0.33203626 1.1152153 7.5
2.3080339 0.27895629 1.0780337 6.5
-1.2855793 0.46835724 1.0649271 16.185184
2.1196218 0.42589295 1.0964924 9.5
2.3155622 0.50578779 1.1735109 9
2.4286447 0.59740436 1.0992413 9.5
1.9220489 0.69089937 1.0844803 10.5
2.1436286 0.69132721 1.1094028 12.214286
2.2206073 0.64355856 1.0014455 11
2.4332762 0.74455303 1.0304518 12
1.8640177 0.89850175 1.1110837 12.5
2.1531017 0.92811519 1.0963618 14.25
2.3264821 0.90917569 1.1037921 13.5
2.4081237 0.99157035 1.1048238 13
-1.4770706 1.1089368 1.1706264 20
2.1729498 1.0712951 1.1323366 16
2.3441491 1.1055626 1.1327184 15.5
2.4738109 1.0053866 1.0803976 15
2.2732954 1.2699448 1.1084285 16.875
2.4335959 1.3016191 1.1170063 17.5
2.234436 1.42809 1.1189541 18
2.4938705 1.4981911 1.1274977 20
2.486608 1.6860059 1.108992 21.333334
2.2724485 1.8612974 1.1403174 21.5
2.4599202 1.8253881 1.1245718 22.5
-1.5309343 0.13406479 1.3220928 4.5
2.1093833 0.1297352 1.286988 5.0999999
-1.4658369 0.31155336 1.2999877 10.555556
-1.3722103 0.34306413 1.3301156 14
1.9462686 0.20247267 1.37797 6
2.0500493 0.2739827 1.2393054 7.5
2.2595344 0.33283007 1.2640569 7.25
-1.4641196 0.44833034 1.3345997 12.625
-1.3656753 0.47338453 1.2615098 17.166666
2.0581241 0.49944916 1.2992547 10.2
2.2691028 0.58965605 1.2789232 10
-1.5400635 0.77895647 1.3731749 14
1.9936427 0.62041646 1.3573662 12
2.0568206 0.75233406 1.3579376 14
2.2853954 0.74808073 1.30195 11.833333
-1.5293269 0.97165126 1.312189 17
1.9962028 0.9966895 1.3293961 17
2.0629649 0.92543191 1.2754898 14.9
2.2792172 0.89451754 1.3459802 13.5
-1.659669 1.0309532 1.393682 19
-1.5139211 1.1132778 1.3498249 19
1.957184 1.1448028 1.3683696 18
2.0570309 1.0426674 1.3335063 16.5
2.2595999 1.0580412 1.2839364 15.5
-1.4629432 1.3045933 1.2872592 22
2.180665 1.3475949 1.2542599 19
2.2533886 1.2894222 1.2797292 17.214285
2.1132355 1.4432225 1.3231245 18
2.2970932 1.4239477 1.3098631 18.166666
2.2864478 1.6782626 1.3440464 20.666666
2.1587484 1.8377244 1.3880556 21.5
2.2940538 1.8212339 1.3494 22
-1.5369003 0.10462911 1.4445044 4
1.9413506 0.10351751 1.4841362 4.6666665
2.1726027 0.11026243 1.4922335 5
-1.5457348 0.34595945 1.5140806 10.166667
1.9446417 0.28998545 1.4576647 7.541667
2.1254201 0.34111506 1.4737375 7.5
2.2339196 0.32849988 1.4901832 7
-1.518411 0.47071323 1.516551 15.5
1.9040455 0.51523077 1.5287956 10.2
2.1347537 0.59070611 1.4706991 10.25
-1.706176 0.7714622 1.5784011 14.5
-1.5589235 0.72006959 1.4747257 13
1.9533389 0.75860906 1.5403936 14
2.0306168 0.75848186 1.4316618 11.5
-1.5601314 0.85116112 1.4386967 15
1.9425777 0.85408229 1.5295949 13.666667
2.1033068 0.87090534 1.5056026 13.75
-1.6435163 1.1149966 1.4503572 19.666666
-1.5228021 1.0278769 1.4079887 17.5
1.9605075 1.1873456 1.4379563 19
2.0876319 1.1910387 1.4305624 19
2.2289829 1.0928975 1.4983262 15.333333
-1.6367264 1.2467854 1.5993783 20.5
2.1432884 1.3089918 1.5230826 18.071428
1.9441757 1.4351948 1.5820137 18.5
2.1162162 1.4991893 1.5153818 20.5
2.2129371 1.5142666 1.494948 19.799999
2.1232626 1.955103 1.4071661 23
1.8816205 -0.0090168379 1.6162038 3
1.7889147 0.12965256 1.7382036 5.6666665
1.8583052 0.10070133 1.6659778 4.3000002
-1.6675687 0.36215419 1.686753 9.8500004
1.7726245 0.29325643 1.6859949 7.75
1.8546984 0.32175475 1.7126009 7.25
-1.663781 0.49426723 1.6859167 12.1
1.7849271 0.54025435 1.743726 11.5
1.8051052 0.50230682 1.7882109 8.5
-1.7181188 0.74062812 1.6907489 13.5
1.7921675 0.72200996 1.683905 13
1.8410515 0.7108655 1.7091156 12.933334
-1.8261722 0.94617569 1.7723516 16.5
-1.6905806 0.89331508 1.6509721 15.5
1.8563601 0.85616273 1.6946088 14.333333
-1.7454352 1.0771118 1.6987935 18.5
1.7709333 1.1352588 1.7360067 19
1.8726089 1.1127501 1.6895832 18.5
2.2064245 1.161513 1.604347 16
-1.7306896 1.3178141 1.7346221 22
1.9265735 1.3061856 1.6946886 21
2.1249268 1.3079382 1.6611975 17.571428
1.9701113 1.574036 1.7650453 21.5
2.0410519 1.4712369 1.6795909 20
2.0953202 1.644141 1.7425038 21.75
1.7346448 -0.011576383 1.8507686 3.25
1.5975029 0.031125352 1.9783171 4
1.7200905 0.096007451 1.9339141 5
-1.7733603 0.28582484 1.9520359 9
1.739424 0.26908207 1.9689806 7.5
-1.8666935 0.44695666 1.9671468 9
-1.732161 0.52430367 1.8762026 14.5
1.7532673 0.51824236 1.9140018 10.75
-1.885903 0.73887491 1.9419985 13.166667
1.6901906 0.68251687 1.9439296 13
1.8149858 0.66553801 1.8431959 11.5
-1.8986403 0.85702819 1.9547898 15.166667
-1.7926403 0.85937113 1.9715986 21
1.7546077 0.88045841 1.8779997 14.666667
1.8515329 0.88519317 1.8606755 14.666667
-2.1483111 1.1139363 1.8766987 18.75
-1.8740345 1.100149 1.9383711 19.333334
-1.7803119 1.1774751 1.8581343 19.666666
1.7557701 1.0553344 1.9070724 17.722221
1.8661946 1.0996709 1.8533128 17
-2.0993667 1.2249467 1.9136193 20.5
-1.8585074 1.2324257 1.9511538 22
-1.7394394 1.3149899 1.8094279 21.75
1.7736636 1.39018 1.8553345 21.5
1.8907149 1.2872335 1.928429 18.4
1.7529637 1.4624468 1.9322829 23
1.8774958 1.4239316 1.8190272 20.5
1.8238295 1.6046188 1.9899246 22.5
-1.9408294 0.042654011 2.1984658 4
1.5607456 0.10840366 2.1213293 5.5
1.6841518 0.15111868 2.0863857 5
-1.886403 0.31036559 2.1097972 8.333333
1.3301076 0.36918601 2.1465278 10
1.5592495 0.2274062 2.1892886 6
1.6542037 0.29478323 2.0714395 7.7222223
1.294328 0.48262864 2.1031289 11.5
1.556353 0.53187037 2.1582196 11.4
1.6671048 0.51505172 2.1264937 9.7222223
-2.0940096 0.70230997 2.1285214 13
-1.993257 0.6403048 2.1178458 12.5
1.2700393 0.60122442 2.1014955 13
1.6482246 0.69625866 2.0855136 13.5
1.8226932 0.73833144 2.0678535 11
-2.0819573 0.89084494 2.1376805 15.5
-1.9489064 0.91779983 2.1122847 16.666666
1.685346 0.90528804 2.0926974 15.833333
1.819417 0.94503987 2.0876694 13.5
-1.9264879 1.1362163 2.1426733 20.333334
1.7012881 1.1178247 2.0825517 18.25
1.8288367 1.0727141 2.0390038 15.25
-1.921728 1.2451575 2.0550795 22.5
1.66961 1.2690043 2.1149032 20
1.8129799 1.3722694 2.0367711 18
1.8852419 1.4830843 2.0311174 19.5
1.9234079 1.7831117 2.0733638 21
1.1834803 -0.040223178 2.2489476 4
1.4834441 -0.035699744 2.3319089 3
-1.9713124 0.19031437 2.2137778 6
1.3637615 0.058772851 2.2847157 5.25
1.475592 0.10104524 2.2807934 5
1.6908526 0.14378864 2.2388806 4
1.3731158 0.38322461 2.3399205 10.5
1.5289372 0.33345237 2.2721901 8.916667
1.6820617 0.26915926 2.2515855 5.5
-2.0410624 0.49031815 2.3004923 10.625
-1.9831461 0.560112 2.2796056 11
1.3882151 0.57453495 2.3595068 13
1.5052103 0.49673849 2.2994347 11.875
1.6371489 0.48895827 2.2582903 10
-2.0671406 0.69909906 2.3036766 13.75
-1.9718354 0.68073499 2.2407088 13
1.3912008 0.75631529 2.3941517 16
1.455689 0.67700464 2.3561776 14.375
1.6350347 0.71155423 2.2707541 13.222222
-2.000607 0.90728021 2.2286839 17
1.5640591 0.89505893 2.3196499 16.375
1.6965791 0.90594995 2.3669438 12.5
-2.1314306 1.0493158 2.3315763 18
-1.9637961 1.0785398 2.2407827 18.416668
1.5289742 1.1043949 2.2879333 17.75
-2.0860367 1.2661756 2.3712149 20.5
-1.9638538 1.2550161 2.2751884 21.5
1.5514361 1.2751853 2.2342045 20
1.7022868 1.289166 2.2848701 18.277779
1.8365949 1.3275876 2.2498891 16.5
-2.0472147 1.5433168 2.3385243 18
1.7308015 1.4820551 2.2657437 20.5
-2.0145171 1.7373273 2.3030436 19
1.7496737 1.7542009 2.3624299 20
1.8725605 1.6616738 2.2050943 20
-2.0106094 1.8292331 2.3540437 20
-1.9912432 1.9092901 2.3286211 21
1.7578623 1.9258035 2.3724847 22.5
-1.943019 2.0006406 2.2739177 22
1.3435875 -0.058357917 2.4838486 3
1.3670999 0.072521038 2.5219824 4.8333335
1.542104 0.077888973 2.4701636 4.5
1.6467851 0.12917058 2.4779768 3.5
-2.0223141 0.27594775 2.4260969 7
1.3825476 0.3164075 2.4884849 8.6000004
1.4853436 0.30789813 2.5065234 7.8333335
1.2961732 0.52243495 2.4859154 12.5
1.4582998 0.52861363 2.4634461 12.125
1.6016343 0.40649235 2.4085968 7
-2.0661793 0.75628734 2.4317985 14.25
1.3824614 0.69240248 2.5321045 14.583333
1.4366285 0.77967626 2.5180516 16.166666
1.6818867 0.65231574 2.4050951 10
-2.0123348 0.81678307 2.4138458 15.5
1.3782099 0.96080446 2.4811857 18.166666
1.4481776 0.97283077 2.5360131 18.5
-1.9627409 1.0947689 2.4173284 19
1.4768735 1.1096708 2.484586 19.25
1.6896826 1.0771098 2.4780731 14
-2.0789471 1.3782935 2.4461911 16
1.3691565 1.242852 2.5686746 21
1.4714291 1.2779689 2.4920039 21.5
-2.0523629 1.5385998 2.4174936 17
1.4452962 1.4069064 2.4845295 23
1.63236 1.4395818 2.5081115 18
1.6638232 1.7255049 2.514595 20.166666
1.53927 2.0763392 2.5781198 23
1.3210568 -0.019572463 2.6746025 4.3333335
1.4426488 -0.025144592 2.6792245 4.5
1.3165329 0.073669218 2.6855333 6
1.5483643 0.073375113 2.6896205 3.5
1.3158869 0.33796695 2.6901994 9.875
1.47076 0.3263905 2.7501578 7.75
1.3353106 0.55636024 2.720845 14
1.451371 0.49035326 2.6945517 10.7
1.3463427 0.71638411 2.727437 15
1.4459252 0.67472649 2.7154584 13.5
1.3181937 0.91739547 2.7235949 18.055555
1.4625243 0.89185512 2.7021034 14.642858
1.313754 1.0760854 2.7229578 21
1.5465271 1.0237142 2.7040401 13.5
1.3257055 1.3368431 2.7524137 23
1.4441781 1.2926465 2.6322539 21.833334
1.3077663 1.4328965 2.7423186 23
1.556839 1.4823691 2.7155571 18.833334
1.1119992 -0.029113429 2.9469457 4
1.2666838 -0.033666573 2.9089916 3.5
1.1466482 0.058763471 2.8410406 5
1.3195391 0.095926754 2.895436 5.5
1.4328306 0.071609065 2.8810382 3
0.93548685 0.2725938 2.9527819 9
1.1521536 0.3129811 2.9632978 8.166667
1.2903931 0.28967613 2.9231532 8
1.2806301 0.50267094 2.8925431 12.333333
-6.3342228 0.73083848 2.9592328 5
0.78083438 0.63510537 2.8744097 15
1.2478392 0.79594225 2.9428558 16.416668
1.424414 0.66290426 2.8030138 11.333333
1.2497646 0.88067704 2.886734 16.880953
1.4305807 0.81971925 2.9419415 10
-6.413259 1.1315762 2.8747168 7
1.3182158 1.1271038 2.8544326 19
1.1817931 1.2096214 2.9608991 22
1.2228509 1.3110294 2.8462758 22
1.466794 1.2959474 2.8256817 16.125
1.3920182 1.4496264 2.9359527 19
1.4546967 1.5755588 2.9266932 20.5
1.2004799 1.7244245 2.9926796 19
1.4335864 1.7130294 2.932476 21.25
1.2368257 1.846737 2.9204192 20
1.4472737 1.9152116 2.8838317 22.5
1.1844971 2.0987961 2.959496 23
-6.0472217 2.8900177 2.8976793 18
1.0562969 -0.046045117 3.0889363 3
0.98690653 0.16106264 3.111927 9.5
1.0652196 0.093393274 3.1362019 5.5
1.2901049 0.11739504 3.0979874 7
1.0717502 0.26844841 3.1735697 7.75
1.1092248 0.46541768 3.1152523 12.25
1.2951673 0.52523249 3.1369476 8.4444437
-6.2407751 0.68586141 3.1314468 5
-6.1641655 0.79969341 3.1202731 6
-0.026293993 0.60585642 3.0153475 20
1.14604 0.68997401 3.1169827 12.833333
1.2583152 0.73341435 3.1072829 10.833333
-6.2754178 0.81686521 3.179662 6
1.1809371 0.91331017 3.0631514 15.5
1.2996261 0.8585676 3.0864458 15
-6.1319709 1.0056425 3.1278801 7
1.2973691 1.0860542 3.1590824 19.5
1.0825782 1.237175 3.1291714 22
1.3575368 1.2331707 3.1632724 15.5
1.4370064 1.3227414 3.0289307 17
-6.0654392 1.4860507 3.1697826 10
1.2605804 1.4817702 3.0828896 18
-5.959259 1.6099542 3.0905678 11
1.197878 1.7118127 3.0615542 18
1.2917585 1.6301036 3.1009083 18.833332
-5.957468 1.8276191 3.1044316 12.5
1.1955626 1.880872 3.1045485 21
1.3099786 1.805143 3.1286776 22.5
-6.2060075 2.3553777 3.1185651 14
-6.0559096 2.4522018 3.1080768 15
-6.070899 2.6683691 3.1184332 16
-2.3533993 2.7847912 3.1499135 23
1.0856048 -0.065225802 3.2786906 2
0.93669462 0.13060856 3.3164089 6.8333335
1.0905228 0.087882243 3.2855191 3.875
1.2151097 0.18359867 3.2820425 5.5
0.063699245 0.38046941 3.237623 17
0.91124642 0.36279786 3.3579516 9
1.0593429 0.27925086 3.275245 6.75
0.10208237 0.55745232 3.2586329 21.5
0.35163397 0.43596667 3.3986213 19
0.97205698 0.42855626 3.2697449 10.25
1.092243 0.50277001 3.2490056 9.333333
0.99056518 0.79658353 3.2750604 21.5
1.0836499 0.74964345 3.293426 11
1.2419298 0.66712534 3.2948432 10.5
-5.7311454 0.8994478 3.2790184 7
1.1022267 0.94475532 3.2556338 15.25
1.2007273 0.81520426 3.2785079 11
-6.3351412 1.1212929 3.2468641 7
1.0681357 1.140838 3.2478235 17.666666
1.2335228 1.0099486 3.2994971 14
-6.2614899 1.2536782 3.2198596 8
0.98257542 1.2811191 3.3258166 17.25
1.055133 1.3192747 3.2685151 18.25
1.2809615 1.3380536 3.2937305 18.5
0.97683614 1.4592971 3.3344157 16
1.0075092 1.5912158 3.3520122 17
1.3445712 1.5317658 3.2488668 19
-5.6362143 1.6121681 3.3947415 11.5
1.083925 1.7235321 3.3436255 19.75
1.1222624 1.9605186 3.2599411 22
-6.0169387 2.2532222 3.2912703 14
-5.9353647 2.5449426 3.2837162 15.5
-2.4754882 2.6907067 3.3013644 21.5
-5.8796616 2.8258684 3.2554991 17
0.98178196 -0.072006203 3.5469604 2
1.075207 -0.0018856227 3.4956796 3.5
0.77450442 0.10577633 3.5412567 6.8666668
0.86676764 0.098817624 3.5324991 4.875
1.0889772 0.092760779 3.5324574 4.5
0.31270188 0.27395532 3.4522967 15
0.51962227 0.29765734 3.5122497 14.748149
0.76396018 0.25551191 3.5581796 10.5
0.83186281 0.3019802 3.5344357 6.5
1.0478549 0.33758196 3.5409749 9.5
0.34095263 0.5466274 3.417933 22
0.87989694 0.46955177 3.5549161 9.1944447
1.0637527 0.48584989 3.5121694 11
0.78722286 0.60338759 3.580703 20.5
0.8444351 0.70785093 3.5748429 9
1.0915732 0.67601055 3.4892426 13.125
-5.5516672 0.92922598 3.5650415 7
0.92255378 0.86103755 3.5027974 14
1.0819393 0.9030019 3.5681467 12.75
-5.5543275 1.0268748 3.5755215 8
0.94238842 1.0396689 3.4739394 15
1.0721133 1.1443806 3.4893081 17.5
-5.6096821 1.2648978 3.5398855 9
0.97304565 1.2632613 3.4939287 21.333334
1.0744085 1.3406607 3.5897226 17
-5.5478063 1.4018247 3.5973158 10
1.0518017 1.4660795 3.5275941 16.25
0.87658 1.6367198 3.5858145 19
1.0127193 1.7162001 3.513896 18.75
0.92320627 1.8760345 3.474071 21
0.77253556 -0.0081117107 3.6887293 4
0.83313459 -0.017075222 3.7707608 4.5
1.1286991 -0.11656859 3.6989541 3.1666667
0.76814967 0.10931762 3.6907871 5
0.88945216 0.067248516 3.6983025 3.3333333
1.1090738 0.072288074 3.6936183 5.5
-4.9591351 0.31532466 3.7663486 4
0.78159106 0.31151736 3.7410374 6.75
0.87147033 0.29270071 3.6412227 7.1999998
-5.0000529 0.52677882 3.6754746 5
0.78509808 0.50189579 3.7470036 10.5
0.84792042 0.51330507 3.7010963 10.5
1.1911999 0.55723643 3.7307806 15
-4.9595804 0.64966935 3.6782806 6
0.84305459 0.77830589 3.6838398 15
1.0636845 0.78409725 3.7047591 12
-5.2506208 0.92187488 3.6712055 7
-4.946517 0.88086975 3.7301803 8
0.7772885 0.93596727 3.7889502 11
0.87719995 0.9437964 3.6747684 16.666666
1.0144469 0.89101666 3.6507611 14
-5.1804643 1.0939103 3.6465919 8.5
-4.9000187 1.1202441 3.7565432 9.25
0.8643955 1.1123908 3.7252221 17.785715
1.1250598 1.1504378 3.67909 16
-5.2015214 1.2416949 3.6080019 10
-4.9310818 1.2108116 3.7189164 10.5
0.88819474 1.3204985 3.6617143 21.833334
1.0800132 1.3062459 3.6978278 17
-5.6447721 1.571208 3.6584215 11.5
-5.5716085 1.589636 3.6320374 11
-5.0962052 1.4589303 3.6039927 11.5
0.7840029 1.4926209 3.7577643 17
1.1309723 1.4218795 3.6584287 19
0.79946482 1.7728683 3.7621946 20
0.80498004 1.647742 3.6907268 18
1.0247382 1.6547594 3.6833601 21
-5.598721 1.8016256 3.6719439 13
0.86446488 1.9600047 3.6708598 21
1.0013195 1.8102795 3.7237949 23
-5.0955911 2.11022 3.7575881 14.5
1.0049572 2.2859056 3.7954528 20
0.99092209 2.5235019 3.7496138 21.5
-4.5098495 2.7819672 3.6315084 21.5
0.90616167 2.7790811 3.611856 23
-4.3390756 2.8439956 3.671032 23
0.84257066 -0.040780853 3.8214078 3
1.3570242 -0.11044368 3.9534249 3.5
1.4893854 -0.021837875 3.9476967 5
0.78552347 0.14228699 3.8588474 6.1666665
0.94906068 0.063931711 3.8807826 4.5
1.0557425 0.18157482 3.8952734 8.5
1.3476269 0.14685751 3.9062536 8
1.5168619 0.14814347 3.9830813 7.5
-4.8950472 0.23364688 3.9127717 3
-4.6955576 0.28824037 3.9459152 3.5
-3.9589596 0.33974317 3.8834906 6
-3.1504054 0.29514283 3.9727416 6.6666665
0.71913743 0.30433184 3.8665731 11.25
0.86555767 0.3124887 3.8969398 8.375
1.3458014 0.33294532 3.9124184 11
-4.7443938 0.44519806 3.9471931 4.6666665
-4.0022111 0.45990226 3.8195176 7
0.73729992 0.51084757 3.9165509 11.666667
0.8967272 0.50352943 3.9207127 13.5
-4.6678472 0.65558887 3.8878455 5.75
-3.9435854 0.65672225 3.8972099 8.5
0.74729466 0.67265034 3.836719 9
0.91328782 0.72197503 3.9377072 10.833333
1.3325146 0.68895197 3.9365585 17
1.4283947 0.67828107 3.9130313 16.833334
-4.8191009 0.85148853 3.9255247 7.5
-4.710371 0.91965884 3.8543329 7.75
-4.4806108 0.8354466 3.9085069 8
0.77524376 0.83935666 3.8255708 11
0.90283656 0.94054449 3.9734113 16.375
1.0490952 0.88375229 3.9297035 19
1.2958052 0.88865924 3.8932815 20
-4.6597981 1.0353149 3.9308009 9
-4.49055 1.0490718 3.9045959 9.5
0.77821445 1.0871925 3.8030329 12
0.90036094 1.0902271 3.8312376 16.75
1.2852809 1.0022854 3.8982391 21.5
-4.7044268 1.3132508 3.8706992 10.5
-4.4279108 1.3082432 3.8989992 11
-4.2688737 1.2445546 3.9706802 11
0.86306077 1.3061143 3.9126511 16.333334
0.78037369 1.4692311 3.9067864 16.5
0.82007515 1.5114064 3.865546 18
-4.4894547 1.6047633 3.9974616 13
0.7582593 1.6034102 3.9074819 18.5
0.90554857 1.6967645 3.9701455 20
1.0512458 1.6348926 3.8305178 21
-5.2049031 1.8741544 3.8013091 13
-4.4347119 2.0054469 3.9682841 16
0.91138685 2.3040748 3.9157937 19.5
0.83577859 2.4602242 3.9799504 20.5
-3.7949934 2.623138 3.8269105 21
-3.2016661 2.6674693 3.9915843 22
-2.2602968 2.7304821 3.9670701 22
0.58822548 2.7324684 3.8047857 23
0.85022318 2.6851988 3.9220047 22.5
-2.1779656 2.8063459 3.8122845 23
1.5949681 -0.12183964 4.1528096 3.5
1.5205637 0.1019313 4.1003513 7
1.6413785 0.19190478 4.1959963 8.5
-4.7478933 0.20954759 4.0221252 3
-4.4962006 0.38066158 4.1018534 4
-4.0483904 0.23135817 4.1371527 4
-3.7578504 0.24835825 4.1176567 5.25
1.5685 0.33550513 4.0549498 11
1.6247385 0.26958397 4.1759796 10
-4.4572635 0.5636822 4.0484653 6
-4.3392825 0.43096483 4.0773778 5
-4.0869341 0.54429185 4.1550512 6
-3.9004552 0.49372068 4.1071382 7
0.91507983 0.55889177 4.0589962 9.5
1.396335 0.55069339 4.007606 14
1.5674965 0.52553558 4.0872517 14.25
1.6010065 0.45250416 4.1334958 13
-4.302424 0.67199349 4.1581311 7
-3.9476674 0.67115647 4.1099052 8
-3.7648065 0.63559806 4.1781588 7.5
0.92919457 0.74775475 4.0615339 11
1.3643633 0.7333976 4.0146217 17
1.5703748 0.72446704 4.0883884 17
1.6052222 0.6950832 4.1399279 17
-4.9254222 0.88137704 4.0589442 9
-4.5710559 0.83954567 4.1236143 8
-4.3048577 0.90714723 4.1173582 8
-3.9046412 0.86598045 4.1655588 9
-3.722892 0.85861588 4.1853323 11.25
1.3387074 0.90732056 4.0331106 19.75
1.5159945 0.91979188 4.0834503 20
-4.892396 1.1182526 4.0468159 10
-3.8823698 1.0294065 4.1145859 10.5
-3.7599878 1.033567 4.1633453 12.25
0.97475314 1.1568495 4.0011821 15.333333
1.5237591 1.0967896 4.136569 22.5
-4.8775554 1.2282966 4.0554199 11
-4.4892006 1.2705272 4.037303 11
-4.0555396 1.3545986 4.1737552 11.5
-4.4809599 1.5327293 4.0009518 12
-4.1412878 1.4603788 4.1466475 13
0.8978923 1.4897666 4.0410223 18.25
-4.2287855 1.7004799 4.1546535 13.75
-4.0627623 1.7969187 4.11903 15
-4.5715971 1.8600348 4.0131807 14
-3.2415431 1.8467041 4.1941991 20.5
0.81619662 1.872943 4.1112742 16.5
-3.3206172 2.0000126 4.1062822 21
-3.1891608 2.1059921 4.1596985 22.333334
0.81187642 2.0838189 4.0769248 18
0.8010577 2.2462404 4.0383782 19
-4.3157024 2.5296879 4.0683231 20
-4.005899 2.4652684 4.128933 19
-3.2650044 2.59993 4.0789728 21
-4.2705288 2.6424685 4.097867 21
-3.9179337 2.6052845 4.0559454 20
-2.8763402 2.7386937 4.075902 23
-2.7194169 2.6604261 4.1261811 22
-2.3403101 2.6392033 4.0995631 21
-0.27047896 2.6118009 4.0830274 21
-0.16538824 2.6869698 4.1990767 22
0.0006806039 2.6835129 4.0745277 22
1.7333188 -0.056071069 4.3043261 4.5
-3.8885069 0.16271228 4.2628312 4
-3.653461 0.083602645 4.3146958 3.125
-3.5714855 0.10375594 4.2569389 4
1.7462651 0.037318498 4.2728758 6
-4.1589489 0.32779542 4.2322373 4.5
-3.9484506 0.32997108 4.350718 6
-3.6591985 0.27330595 4.260005 5
-3.5055673 0.29553381 4.3707838 5.8333335
1.7882841 0.36379492 4.3295097 10.333334
-4.0982924 0.5244 4.2337465 5.5
-3.895896 0.48005837 4.3866606 7.5
-3.6620789 0.51506722 4.2820292 6.8000002
-3.4690313 0.49047077 4.3917823 6.5
-2.8506737 0.52502227 4.2779679 10.75
1.7868038 0.50029814 4.3054624 12
-3.8615437 0.60608494 4.2710395 7
-3.6431468 0.65996474 4.2791014 9.166667
-3.568563 0.65038234 4.3146591 9
1.8020951 0.71165764 4.3150587 14.5
-3.8977499 0.87571329 4.31569 9
-3.6634247 0.85550708 4.285646 10
-3.5386536 0.83096761 4.2858644 9.333333
1.7903953 0.80712813 4.3688192 17
-4.2141585 1.010435 4.2915907 9
-4.1511364 1.0837733 4.2399645 10
-3.7551794 1.077769 4.2394338 12
-3.458873 1.0218399 4.2862406 11
-2.7616787 1.1554513 4.3498516 19.5
1.6601739 1.1206422 4.3090143 22
-4.2030096 1.2229288 4.2836709 10.5
-3.8048627 1.3792229 4.3197236 12
-3.7933354 1.2000227 4.2520332 12
-3.5350227 1.3367877 4.315896 15
-4.4012804 1.4014982 4.2070279 12
-3.9385328 1.4570028 4.3993869 13
-3.4925671 1.5197195 4.3259239 16.833334
-3.8480468 1.6655132 4.3248305 14.5
-3.7299738 1.6973325 4.2794514 13.5
-3.4989786 1.6871777 4.32025 17.5
-4.0503631 1.9116441 4.3888502 15
-4.1605463 2.0727658 4.2401953 16.5
-4.0760546 2.2797101 4.2730742 18.75
-3.9217973 2.3219705 4.2746983 17.5
-3.8282731 2.5789466 4.2369804 19
0.010851759 2.5950458 4.2308846 20.5
0.67968988 2.5854394 4.3140683 21
-3.6148684 2.6400495 4.2263536 20
-2.9124198 2.6452885 4.2994494 22
0.70709169 2.6543858 4.3953547 23
-3.5655339 -0.20940809 4.5554447 1
-3.7204034 0.16246654 4.5394793 4
-3.4261489 0.15287487 4.53617 4
-2.7370114 0.15849984 4.5831294 5.5
1.7964509 0.13441554 4.4052863 7.6666665
-4.0671659 0.32919317 4.4281459 5
-3.7014592 0.30213177 4.5312266 5.25
-3.4715178 0.3966338 4.5989676 5
-3.3704975 0.3031655 4.5579615 6
-2.9231739 0.30017975 4.4207783 7.75
-2.7171116 0.28337866 4.5415306 7.75
-3.8480704 0.58743167 4.4361043 6
-3.6713893 0.47350606 4.5390458 6.3333335
-3.4662526 0.49880865 4.4943748 6.6666665
-2.9418111 0.57712603 4.4001956 11
-2.7787795 0.45846543 4.4834161 10
-2.5055623 0.50333393 4.5600839 9.75
-3.6884112 0.67150611 4.5173621 7.8000002
-3.5521739 0.70616716 4.5306129 9.166667
-3.3610754 0.63326621 4.5173225 8.25
-2.8329272 0.79030347 4.5173759 14
-2.4972558 0.69775224 4.5535831 12.5
-3.8904178 0.82898706 4.5077538 7
-3.6636832 0.88687098 4.5207973 9.75
-3.5496054 0.88314825 4.5297518 10
-3.3067632 0.87506962 4.5368819 9
-2.8460097 0.83503628 4.427464 14.333333
-2.7393694 0.99790049 4.5742755 17
-2.4796338 0.88455528 4.5418272 15
1.7706451 0.90356207 4.4057708 18.5
-3.9051671 1.0678358 4.5252442 8
-3.7273953 1.110648 4.5514812 8.666667
-3.459209 1.0621735 4.4908071 13
-3.3320026 1.110515 4.5681171 12
-3.1112347 1.1004789 4.529438 11.75
-3.8984065 1.2870705 4.4065542 11.5
-3.7050498 1.2571875 4.5093427 11.666667
-3.4609165 1.2426027 4.5184464 12.666667
-3.2444038 1.3720876 4.4991732 15
-2.4398248 1.2406068 4.5419588 19.5
-3.8710265 1.4750838 4.5074234 10.5
-3.6937087 1.5235934 4.4967222 12.5
-3.4481931 1.4597781 4.4824371 13
-3.3965454 1.4865733 4.4492717 16
-3.834573 1.7997644 4.4562531 12
-3.7044206 1.6879115 4.5444207 12
-3.4407856 1.7976407 4.4729462 15
-3.3220983 1.6955731 4.4709511 19.5
-3.0712638 1.7601298 4.5950785 21
-4.337018 1.9350642 4.4602795 16
-4.0349469 1.9659123 4.57479 16.5
-3.4595699 1.9636106 4.5410414 17
-3.3091431 1.9318866 4.4197941 20.75
-4.1421361 2.0863943 4.5129747 16.5
-3.8359427 2.0186017 4.5372972 13
-3.7248569 2.1343372 4.5219216 14
-3.4634724 2.0800261 4.4856572 16.5
-4.0848899 2.3817039 4.585393 20
-3.8571014 2.317488 4.5198894 16.166666
-3.3395221 2.3805194 4.5427628 19
-3.8911352 2.5269608 4.5564909 19
-3.6689563 2.417093 4.582283 15
-3.4461493 2.4948392 4.5237103 20
-3.2459271 2.5384476 4.4389944 20
-1.90263 2.5783024 4.4703546 20
0.24101011 2.5699773 4.4639363 20
0.71793413 2.5814602 4.523416 22
-3.9244201 2.7898841 4.5956392 22
-3.6583691 2.6888251 4.5418935 17.5
-3.215646 2.6733036 4.5328317 18
0.31715035 2.6095433 4.4163585 21
-2.5597677 -0.0053782314 4.6628084 4
-3.277905 0.031012878 4.6223221 3.5
-3.1200302 0.1462891 4.7766991 3.5
-2.487565 0.18155846 4.729579 6.25
-2.2883501 0.064828008 4.7272396 4
2.5848327 0.19410935 4.6985564 7
2.6459627 0.034006909 4.7709188 5.5
-3.4521384 0.25001064 4.6540222 4
-3.3211005 0.30283007 4.7006478 5.4166665
-3.0582712 0.29731694 4.7322202 5.125
-2.5482364 0.30487335 4.6991787 8.5
-2.2817218 0.25597984 4.7520061 7
-3.7069736 0.41623271 4.6123567 7.5
-3.4776564 0.49715132 4.7192988 7.25
-3.3920598 0.5697118 4.771904 9
-3.1226864 0.47916242 4.6668587 5.8333335
-2.9302995 0.57886267 4.6899343 7.5
-2.4982278 0.45876241 4.695303 10.333333
-2.2412691 0.50339353 4.7741337 10.5
2.602859 0.47475025 4.7076259 10
-3.4454203 0.7155174 4.7419372 10.25
-3.3174486 0.70558393 4.7372541 8.25
-3.0135479 0.69079214 4.6972127 7
-2.9327111 0.66458315 4.7659912 7
-2.7350664 0.6377418 4.7816863 7
-2.470248 0.68978506 4.6846824 12.4
-2.1963291 0.71686095 4.7468777 13
2.5708847 0.66060996 4.7045431 11.5
-3.307375 0.93254793 4.6896677 10.4
-3.0553262 0.96396852 4.7461176 10
-2.8568172 0.88814926 4.7115068 9
-2.4391117 0.87602407 4.7964997 12.5
-2.3926144 0.8267504 4.7129827 12.25
2.5876412 0.81485331 4.7136712 13
-3.4741974 1.1072282 4.6710544 10.5
-3.3092763 1.115569 4.670548 12.833333
-2.6853342 1.1717887 4.6091909 19.5
-2.4919007 1.1011866 4.7381229 19.555555
-2.3411767 1.1434298 4.6762719 18.666666
-2.1750975 1.0114944 4.7964468 18
2.5156722 1.061049 4.7212672 15.5
-3.5793705 1.2738603 4.6419353 10
-3.3118939 1.2841018 4.6519246 14
-3.1621666 1.2493691 4.7355385 13
-2.9740243 1.2698934 4.7396803 12.5
-2.522897 1.2801931 4.7388663 21
-2.2919457 1.2810454 4.6749563 20.833332
2.3716211 1.3031583 4.6513 18.25
-3.5299599 1.4414701 4.687283 10
-3.3394673 1.4871931 4.7139988 15.25
-3.0496442 1.402548 4.6462059 16
-3.5257185 1.6009442 4.6396961 11.5
-3.3174348 1.6251922 4.7368941 14.5
-3.1061964 1.6483173 4.7145557 19
2.3682394 1.6674937 4.6449647 21
-3.8061886 1.9101959 4.6171064 16
-3.4315937 1.9237648 4.6441746 16
-3.1400056 1.937948 4.6707649 22
-3.6890087 2.0281756 4.6256423 17
-3.3376424 2.0409317 4.778543 13
-3.8774981 2.3459542 4.7238073 19
-3.3994634 2.2618399 4.6216784 18
-3.9791946 2.491097 4.6433773 20.75
-3.7904723 2.4287779 4.6957765 16
-3.5209062 2.5854123 4.6669064 17
-3.1378534 2.5489626 4.7153258 18
-2.7377863 2.5595636 4.6902943 20
0.72127068 2.5553262 4.6434083 21
-4.0125966 2.6183712 4.617877 21
-3.6892812 2.6043203 4.6088896 17
-3.2363579 2.6299722 4.7197561 16.5
-3.068305 2.6297088 4.761611 17
-1.0750538 2.6371689 4.7978139 22
-0.84476721 2.7059007 4.6659069 23
-0.65970194 2.6543746 4.7972531 23
-1.8694253 -0.25442684 4.9502015 1
-2.3045592 -0.023330793 4.866766 3.5
-2.1509395 0.02057818 4.9402618 3.5
-3.1439028 0.25733352 4.8054357 5
-2.6710701 0.35273376 4.9369779 4
-2.5438461 0.31305894 4.8885374 5.3333335
-2.2795668 0.3183808 4.8691702 8.5
-2.1601934 0.32187331 4.9903064 10
-1.9076998 0.37186563 4.9214764 9.25
-3.3614054 0.51107055 4.9156103 8
-2.8545184 0.57784092 4.8029785 6
-2.7422574 0.50304931 4.9149728 7
-2.5251675 0.52659208 4.89891 6.5714288
-2.3408504 0.49374872 4.8527746 10.25
-1.9814378 0.52530891 4.8975306 11
2.6775198 0.44487855 4.8070521 9
-3.2330253 0.70381963 4.9195967 10.5
-3.0695736 0.72542489 4.9456568 8.375
-2.8493867 0.67550266 4.8448524 9
-2.7018573 0.69091254 4.8794641 8.6999998
-2.5231411 0.67679161 4.8810329 8.583333
-2.2488976 0.68905199 4.8572474 13.75
-2.1327548 0.77280188 4.9790754 14
-1.9631715 0.66309643 4.9651456 12.5
2.6539731 0.69478261 4.8127313 11.5
-3.0255921 0.89289796 4.9534116 8
-2.8594966 0.98648077 4.9177194 9
-2.688179 0.85596317 4.8912773 11
-2.5171101 0.91779643 4.9458466 10.4
-2.3997021 0.91490257 4.8133988 18
-2.0889351 0.94145483 4.9358177 19
2.6325808 0.88371408 4.8175745 13.5
-3.2801681 1.0938581 4.8492174 11.2
-3.0581088 1.0918591 4.892374 10.5
-2.7584081 1.0327368 4.8622561 10.75
-2.5195546 1.0946159 4.9934387 12
-2.278055 1.160059 4.8977914 21.666666
-2.1372604 1.0644308 4.8213005 19.25
-3.6916592 1.3721373 4.8860521 16
-3.3916142 1.3194736 4.8431635 10
-3.0213308 1.2684036 4.9114175 15
-2.9307909 1.2958319 4.9560642 15
-2.7013941 1.2619263 4.8574891 13.5
-2.0486534 1.2216961 4.8624458 22
-3.4419456 1.4798502 4.8295379 17.5
-3.0764797 1.4664124 4.8843226 15.5
-2.9175739 1.4696354 4.8169785 12.5
-2.7511225 1.5177579 4.8874111 16.722221
-2.5993757 1.5672709 4.9500933 13
-2.9098639 1.6936617 4.9020872 17.125
1.9965355 1.6778349 4.8118887 21
-2.9497561 1.9589014 4.8754973 16
-2.6432996 2.0479746 4.9393368 22.5
-3.7460275 2.3434081 4.8142242 19
-3.1516542 2.2515821 4.8807597 22
-2.9946058 2.3470345 4.9858303 15
-3.2569962 2.5079551 4.8939223 16.5
-2.6654935 2.5692346 4.9427528 19
-2.5509861 2.581939 4.9424853 20
-1.0822885 2.5437105 4.9536958 21
-0.7045722 2.5757477 4.9423122 21.5
0.98688865 2.5512459 4.9754987 22
-3.6666517 2.6669059 4.8168392 21
-3.1355076 2.6485705 4.980504 18
-2.4848514 2.6775136 4.879498 23
-0.93279266 2.6006153 4.9322939 22
-2.017571 -0.081999436 5.0794516 3
-1.9758201 -0.049942996 5.075532 2.5
2.8351741 -0.18401122 5.1277399 3.5
-2.4457824 0.15347707 5.012105 3
-2.3034396 0.15479106 5.0656934 3
-2.1465793 0.047663298 5.1782103 4
-1.9583161 0.08181414 5.1454649 4.5
2.90026 0.12154961 5.1160374 6.25
-3.1541471 0.37665665 5.0551205 6.5
-2.8237095 0.32549182 5.0259981 6
-2.4515486 0.31584996 5.1072588 5.5
-2.3924475 0.26442045 5.1405172 5
-1.8488575 0.28563699 5.1526546 8.5
2.8555744 0.33911547 5.0615568 8
-3.0153399 0.51463771 5.084374 6.5
-2.8989103 0.54056478 5.0526018 7
-2.5997252 0.53875077 5.1506529 9
-2.3068314 0.53569198 5.1310024 7
-2.0846353 0.50264275 5.1134758 10.416667
-1.8746102 0.42448971 5.1961956 12
2.8400557 0.48083076 5.1087451 9.5
-3.1277957 0.60067159 5.115448 9
-2.8173375 0.70021224 5.0515919 10.25
-2.6852212 0.7572968 5.1843767 8
-2.5775065 0.63024241 5.1159501 6
-2.3444748 0.71042478 5.0241494 8
-2.0476327 0.71572262 5.1171918 11.8
-1.9340457 0.73460352 5.1249876 12
-1.7984444 0.76685804 5.0074229 14
-2.8065214 0.90890133 5.1288881 7
-2.630806 0.95260406 5.1193557 11
-2.5321963 0.8358081 5.0457506 7
-2.1090374 0.88677639 5.1224327 14.5
-1.9275715 0.83559483 5.1464615 13.25
-1.324936 0.93257284 5.1981406 17
-2.4754655 1.0753044 5.1356053 14
-2.0664215 1.0771055 5.0599265 18.833334
-1.7996018 1.1585407 5.1943407 19.5
-1.5653552 1.0823662 5.1910276 22
2.7280328 1.1332365 5.0316143 16.5
-3.0673709 1.3471628 5.0517368 14.5
-2.495801 1.249379 5.105001 12
-2.3870311 1.2885977 5.0332623 13.5
-1.9174335 1.298799 5.0325108 23
-3.0276089 1.5828546 5.0718355 18
-2.4564435 1.4774354 5.1349602 13.25
-2.3717742 1.5064363 5.055584 21
2.6892784 1.4088428 5.0261168 18.5
-2.665199 1.6902027 5.0183988 15
-2.44642 1.6670184 5.0492215 17
-2.9896202 1.9753177 5.0277891 13
-2.724323 1.8417721 5.0770588 18.5
-2.4676046 1.8029406 5.1695051 20
-2.2599287 1.8202528 5.064065 15
-2.8404064 2.0520816 5.0748186 16
-2.6024907 2.0218718 5.0290251 20.5
-2.8593166 2.2749691 5.1628733 16
-2.7313099 2.3125861 5.0295095 17.5
-2.5753875 2.3358984 5.1250811 18.5
-2.0923066 2.2577798 5.1745124 19
-3.1027455 2.4389586 5.0724192 16
-2.893446 2.5343659 5.0840917 18.444445
-2.5107427 2.5496807 5.1275592 19.25
-2.1382015 2.5477071 5.1260791 20
1.037603 2.5841429 5.1059451 22.5
1.2232438 2.5731332 5.0923896 23
-2.7744534 2.6746562 5.1732416 23
-2.545362 2.6372001 5.0435057 18
-1.9497418 2.610069 5.1696458 18
0.21231285 2.6278872 5.0500383 23
-2.2113442 -0.057435695 5.3579473 2
-2.1964934 -0.03910071 5.2255955 2
-1.919513 -0.072166242 5.2789121 3.5
-1.627246 -0.064896256 5.2585816 3
-2.5546997 0.17518367 5.24088 4
-2.3700449 0.07090196 5.2304955 3
-2.1939647 0.13462709 5.2096572 3.5
-1.9251984 0.024728637 5.2728453 3
-2.8272336 0.3459112 5.3039837 6.5
-2.6095171 0.23735079 5.3914661 6
-2.5511084 0.32843778 5.3134365 6.25
-2.0789764 0.35374317 5.3570862 6
-1.8449378 0.30344483 5.2746687 10
-1.7494651 0.32147208 5.3181319 8
-1.4392675 0.34615362 5.3833256 10
-2.6515281 0.56115246 5.2363753 7
-2.3234258 0.48261008 5.3039975 7.125
-1.9402204 0.53364962 5.2479105 9.5
-1.6808841 0.49449089 5.3355236 10.75
-1.4680285 0.51135325 5.2404795 11.5
-1.2881444 0.48691091 5.3031511 11.5
-0.94454467 0.58425844 5.3874264 13
-2.3287175 0.7161476 5.3204188 9
-2.083384 0.68889326 5.2758036 14.5
-1.9844531 0.69489181 5.2219825 7
-1.7693101 0.72443169 5.2862535 15.666667
-1.1075201 0.67328894 5.3930612 13.5
-2.396971 0.8474918 5.2412858 9
-2.0605059 0.87609911 5.2935991 17
-1.9208549 0.86712664 5.2656145 16.5
-1.7159582 0.83895737 5.3574228 12.5
-1.5399821 0.99169105 5.2647438 21
-1.3298101 0.8088426 5.2185297 15
-1.1157634 0.82835126 5.3156557 15.5
-2.904213 1.1620355 5.2124028 14.5
-2.2122772 1.0266838 5.2806854 13
-2.0254822 1.0880957 5.2057319 10
-1.8916332 1.1778342 5.2456293 23
-1.6912777 1.0297699 5.2955923 15
-1.4654388 1.0249045 5.2767644 22
-2.8223538 1.3376352 5.2819448 16
-2.4043715 1.3930627 5.2345834 15
-2.3361797 1.2515019 5.250402 13.333333
-2.170794 1.2649028 5.3347254 14.5
-1.9318488 1.3035772 5.2182364 15
-1.6686302 1.2979991 5.3355646 17.700001
-1.5662122 1.2357295 5.3416491 22
-2.7112062 1.4631207 5.2478352 15.25
-2.3226886 1.4955224 5.2240052 16.666666
-2.0990925 1.4769789 5.3026199 14.5
-1.8872603 1.4845605 5.3435497 15
-2.3507347 1.674185 5.268075 14
-2.0717177 1.7771595 5.3982739 16
-1.9160013 1.6832652 5.3018928 15.666667
-2.2548602 1.8770589 5.3671045 19.5
-2.086936 1.9463997 5.2406926 16
-1.9585792 1.8694403 5.2378969 15
-2.2008781 2.0210135 5.2983427 21
-1.8194654 2.0990591 5.3352742 18
-2.2657135 2.3135428 5.3038421 16.833334
-2.1555414 2.5293629 5.2292972 19
-1.9799777 2.5744576 5.2870975 17
1.2630209 2.4859908 5.2186127 21.5
-2.0278699 2.6686578 5.2498913 17
-1.036051 -0.023506217 5.5236845 5
-1.8283424 0.17135827 5.4795089 3
-1.7369946 0.14800669 5.4419327 4
-1.4648058 0.17995289 5.4307256 7.5
-2.1672685 0.38208362 5.4794269 6
-1.8182888 0.26036838 5.4399018 6.3333335
-1.7430513 0.27867305 5.4726367 4
-1.5182505 0.36631548 5.4167228 11
-1.3463639 0.27969149 5.5084748 7.25
-2.6120787 0.4409422 5.4094257 8
-1.6889491 0.47871357 5.4542298 8.75
-1.3441303 0.42082366 5.5715947 7
-2.1768236 0.66433609 5.4696827 7
-1.8336816 0.69843948 5.5489645 9.5
-1.7158227 0.75668097 5.4983459 9.333333
-1.433321 0.79053068 5.5789175 17
-1.2942219 0.78377891 5.5626416 9
-1.1342216 0.6097191 5.594018 9
-2.1767492 0.89803272 5.4749422 7
-1.8784513 0.93149948 5.4642582 9.25
-1.7051775 0.89018166 5.41082 18
-1.5151151 0.85807115 5.4301105 14.5
-1.397753 0.9762696 5.5781732 19.5
-2.111449 1.1101493 5.54916 13
-1.9543414 1.1829453 5.5319052 12.5
-1.4865479 1.1447197 5.5044484 14.333333
-1.0925075 1.0784116 5.5468521 20.5
-0.79238158 1.1092072 5.5451894 22
-2.2177262 1.2268848 5.5673294 10
-1.861932 1.2946153 5.4633975 14.5
-1.442489 1.2370852 5.5245037 11
-2.2742603 1.4795758 5.4009457 12
-2.1043866 1.4959944 5.4667587 13
-1.879555 1.4268924 5.4463606 14.75
-1.2180952 1.414507 5.5974741 15.5
-2.0798302 1.6252515 5.5026803 11.5
-1.8876132 1.650491 5.5134797 16.5
-1.6132971 1.7245135 5.5950766 21
-1.5871911 1.6174082 5.4675093 18.5
-2.2899106 1.938791 5.4238868 13
-2.0455561 1.9279553 5.435936 22
-1.9284067 1.8326831 5.4677358 17.5
-1.688229 1.9680562 5.4782457 16
-1.887518 2.1650038 5.4907279 14
-1.6943846 2.1268506 5.5567236 16
-2.251744 2.2873211 5.5780249 19
-1.7234198 2.3630841 5.5668025 15
-2.209712 2.5193822 5.4798832 21
-2.0203996 2.5466518 5.5055099 16
-1.8280177 2.5095203 5.508831 21.5
-1.323838 2.5074921 5.4593749 16.5
3.3812985 2.4142454 5.5891838 23
-2.2131042 2.6716781 5.4788218 22
-1.8321844 2.6904485 5.5065899 23
-1.7343246 2.7228343 5.5649977 17
-0.34613916 -0.28254908 5.7088714 2
-1.4515357 -0.10009082 5.7337852 2.5
-1.3544493 -0.1809359 5.7082071 2
-1.0525966 -0.077556707 5.6857405 4
-0.75121993 -0.14043859 5.694643 2.75
-0.58904207 -0.031165645 5.7600083 5
-1.4410028 0.12235513 5.6425233 5
-1.3804607 0.13151969 5.6939955 5
-0.7454477 0.19288398 5.7486291 8
-0.58733231 0.10172328 5.7662287 6.5
-1.8274375 0.34177601 5.6007957 7.5
-1.4305986 0.3252916 5.7245321 4
-1.2714096 0.22593391 5.6763496 7
-1.1353949 0.34367928 5.7670174 5.6666665
-0.92657226 0.36122859 5.6453915 10
-1.7154233 0.51998556 5.6594028 7
-1.5236975 0.43499842 5.609458 8
-1.3616503 0.45914114 5.6572251 8.166667
-1.1105521 0.57180506 5.7330384 11.875
-0.88918197 0.48676956 5.7254882 8.25
-1.6961751 0.650433 5.6015663 9
-1.5352223 0.72819847 5.7476363 8
-1.0751803 0.74251276 5.7452717 12.833333
-0.86784714 0.75922912 5.7183399 14.5
-1.098472 0.95589602 5.7261176 19.75
-0.86736238 0.86789 5.7228851 12.75
-0.73674828 0.83115649 5.6663437 18.75
-1.9256095 1.0375139 5.710639 9
-1.6012703 1.1922721 5.7634258 9
-1.5414238 1.0573759 5.6424837 8
-1.273307 1.1151515 5.6811919 11.75
-0.89774275 1.0559831 5.6827374 17.75
-0.79542887 1.0372038 5.6398735 20.5
-1.5973437 1.250771 5.7069931 12
-1.3124907 1.3601356 5.7541194 13
-0.90318549 1.2722884 5.7654228 15
-1.9278486 1.5127016 5.6165638 11
-1.7430358 1.4717884 5.7088356 10.75
-1.5421512 1.5481306 5.650322 14.5
-1.0278562 1.4844035 5.7141371 17
-0.95663786 1.4959887 5.6918755 18
-1.8962923 1.738266 5.6462393 15.5
-1.4587309 1.6474394 5.7085867 14
-1.2141843 1.6352876 5.6478033 19
-1.1781807 1.7632529 5.7630558 16
-1.8967204 1.8568937 5.7562642 22
-1.6442738 1.942933 5.6339231 14
-1.511446 1.9037737 5.6756825 17
-1.285975 1.9308951 5.6576834 23
-1.093275 1.8367852 5.7599163 22
-1.8431503 2.0110002 5.7821255 18
-1.6738471 2.1181552 5.6644602 15
-1.406342 2.0350697 5.7977433 15
-0.99138391 2.0183251 5.7499375 17
-1.7567519 2.3818591 5.7932768 20
-1.5998675 2.2152603 5.6591053 16
-1.2304397 2.2418551 5.7104402 17
-1.0778832 2.2144358 5.6848335 18
3.3553066 2.3763027 5.7772956 22
3.5412197 2.3158603 5.682703 21.5
-1.6879318 2.523133 5.6217322 16
-0.82321519 2.6314452 5.7303791 23
-0.83927983 -0.35738254 5.8461013 0
-0.49390709 -0.28073531 5.9642472 1
-0.86949366 -0.11575108 5.8857841 3.1111109
-0.59321797 -0.018487593 5.8341732 3.5
-1.0964168 0.089784563 5.8708653 3.6666667
-0.82001328 0.075849235 5.9516449 4
-0.7528528 0.12754886 5.8219132 5
-0.53381073 0.13074206 5.8918285 5
-0.28192228 0.031022297 5.9916363 4
-1.2402463 0.35178196 5.8091249 5
-1.0700076 0.30174237 5.8887405 6.25
-0.82229704 0.32439217 5.8950758 7.25
-0.72074109 0.24582447 5.8159218 5
-0.45912227 0.30399725 5.878552 7.8333335
-1.2343473 0.53405714 5.9570312 9
-1.0422775 0.43428257 5.9479914 7
-0.9104799 0.55532759 5.9141316 8
-0.68933904 0.54528403 5.9581656 8
-0.39166945 0.42948872 5.9267931 10.5
-0.97217917 0.74965435 5.9641132 9
-0.70985615 0.71121538 5.9288383 12.9
-1.0876368 0.85087365 5.9249268 9
-0.97994375 0.99355429 5.8961263 8
-0.71473658 0.94605637 5.9405007 11.75
-0.9305492 1.0525612 5.8660202 11.5
-0.64962971 1.1295916 5.8305531 14
-0.50472057 1.0619773 5.946691 21.5
-1.4145076 1.3833184 5.8273973 12
-1.3215894 1.3439482 5.9621124 10.5
-1.0704536 1.3189138 5.9015827 12.666667
-0.56850028 1.2229623 5.8977671 23
-1.8274925 1.4666579 5.8638635 18
-1.4147604 1.5037508 5.8091545 15
-1.1002411 1.4997516 5.9317684 13.75
-0.71998763 1.5507063 5.9387918 18
-1.9418066 1.7286397 5.8128638 20.5
-1.6503522 1.6148356 5.8934216 20
-1.2453507 1.6632314 5.8643384 13.5
-1.0551124 1.6665571 5.9082413 12.75
-0.75345647 1.7349823 5.8413038 19.75
-1.2132301 1.9014621 5.8300323 15.25
-1.0862591 1.9610554 5.9558325 15
-0.94729787 1.8854456 5.8722415 16.166666
-0.70170593 1.9875616 5.9867229 17
-1.6347589 2.0983706 5.8797507 18.5
-1.2811484 2.1107824 5.8558788 14.25
-1.0603989 2.1032465 5.822619 17.166666
-0.71499801 2.101285 5.9129233 18
-1.6731541 2.2732813 5.9437056 20
-0.97959805 2.2113259 5.9956446 16
2.8774507 2.3065457 5.856801 20.5
-1.6184663 2.4513102 5.8419361 21
-1.2195181 2.5356066 5.888833 17
-1.0876429 2.5979788 5.8382173 18
-0.8086288 2.5814018 5.9091749 21.5
-0.41895801 2.5412879 5.9045792 21.5
-0.99583596 2.6746593 5.920815 23
0.20752352 -0.24741861 6.0136461 1.5
-0.63050979 -0.18865903 6.0050836 2
-0.518511 -0.09630239 6.0854893 3
-0.28194252 -0.099187694 6.0785422 4
-0.12374768 -0.11654586 6.1243849 3.5
0.043747425 -0.12352985 6.102519 3
