# .PCD v0.7 - Point Cloud Data file format
VERSION 0.7
FIELDS x y z intensity
SIZE 4 4 4 4
TYPE F F F F
COUNT 1 1 1 1
WIDTH 1225
HEIGHT 1
VIEWPOINT 0 0 0 1 0 0 0
POINTS 1225
DATA ascii
-2.1243088 0.32912588 2.0492582 8.0185003
-2.0195866 0.33925065 2.0635092 8.0251665
-1.960415 0.36166438 2.0278788 9.0373335
-1.8235319 0.34771279 2.0362785 9.7789993
-1.7813444 0.3403554 2.0410523 10.493709
1.2354751 0.30611604 2.0487769 10.1005
1.631191 0.33561328 2.0330255 8.560607
1.76112 0.31519198 2.0959635 6
-2.0315859 0.45823726 2.0443883 9.5701399
-1.8310449 0.41935003 2.0460961 11.541166
-1.7526273 0.45476967 2.0065637 13.343781
1.3067652 0.43979922 2.0723422 11
1.6509002 0.45441151 2.0700493 10.6096
-2.1161065 0.59649205 2.0360732 11.01125
-2.0610578 0.52460927 2.0695806 10.01425
-1.9334147 0.55200636 2.0399616 12.363167
-1.8343097 0.5520044 2.0364716 14.706584
-1.7848165 0.53730857 2.0876126 15.285938
1.3071748 0.54839426 2.052408 12.113
1.582594 0.58229679 2.0583439 12.1085
1.6574656 0.5641318 2.0473244 11.893782
1.738119 0.53696591 2.0645933 11.10625
1.8047922 0.58010858 2.0508051 9.0885
-2.3118656 0.63769484 2.03127 11.0125
-2.0402935 0.62377203 2.0674586 14.019875
-1.9694351 0.64746308 2.0462289 13.2306
-1.8297127 0.66731328 2.0623512 16.136833
-1.7409306 0.64758813 2.02073 18.202126
1.2667081 0.60933661 2.0789247 13.113
1.6715422 0.65427488 2.0477388 12.338938
1.7928468 0.67172539 2.0445321 10.0885
-2.1601806 0.72648096 2.046351 15.02025
-2.0354195 0.72153425 2.0478766 13
-1.9203414 0.73038644 2.0222163 15.054
-1.842171 0.71129179 2.0161097 16.01425
-1.7452893 0.76571041 2.0739088 21.0385
1.268118 0.74359292 2.0869501 15.113
1.5594963 0.74236423 2.0732579 15.1085
1.6549927 0.73989588 2.038265 13.917499
1.7000943 0.75928438 2.0081685 14.776333
1.8226932 0.73833144 2.0678535 11
-2.5707819 0.84687907 2.0998321 14.0225
-2.1199141 0.84610212 2.0878561 17.0205
-2.0037875 0.89287311 2.0326343 16.0135
-1.9616619 0.84793931 2.0459297 16.865126
-1.8405161 0.85323793 2.0441511 20.327766
-1.7764603 0.86149251 2.032876 22.365166
0.37325865 0.8905102 2.0703909 17.1175
1.6714483 0.84456801 2.0518503 14.978125
1.7542564 0.85346311 2.0431764 15.076167
1.8355402 0.8515386 2.0038495 12.089
-2.0012412 0.91851884 2.0981123 19.02
-1.9427966 0.95804352 2.0454085 17.369417
-1.8558282 0.96055251 2.0676374 21.248663
-1.7749914 0.93285489 2.0436485 21.281311
0.19893652 0.95345747 2.0310793 18.119499
1.3763884 0.97861683 2.0422778 18.113001
1.5143884 0.92809051 2.0997124 17.441833
1.6752806 0.95576811 2.052047 16.705563
1.721076 0.94527286 2.0472662 16.573
1.819417 0.94503987 2.0876694 13.5
-3.7328119 1.0270423 2.0421059 11.51175
-2.2010748 1.0081151 2.0384395 18.017
-2.137177 1.0558634 2.0357962 19.685501
-2.0127811 1.0105993 2.0517213 18.516499
-1.9412796 1.0482608 2.049958 19.589062
0.16162664 1.0610874 2.0145812 19.120001
1.3380665 1.0518889 2.0338473 21.10125
1.6669016 1.030298 2.0432041 17.728251
1.7580891 1.0311294 2.0266671 16.561699
1.8288367 1.0727141 2.0390038 15.25
-2.1170077 1.179561 2.0512857 21.14325
-2.0122378 1.1164155 2.0785289 22.047998
-1.9338112 1.1465971 2.0536895 20.279501
-1.8643997 1.1440524 2.0337071 21.326
1.29144 1.1166869 2.0789237 22.1005
1.6631858 1.1585481 2.056473 19.373453
1.7302767 1.1581963 2.041672 19.438499
1.8448473 1.123919 2.0943894 15.0885
-2.0515766 1.2120941 2.0633652 23.019751
-1.9301704 1.2346271 2.0388708 21.687918
-1.8538346 1.214707 2.0528452 20.356333
1.3080865 1.2275934 2.0132058 21.11375
1.6873034 1.245952 2.0301471 20.453251
1.7302542 1.2482926 2.0488911 20.070002
1.8415992 1.2809286 2.0345099 18.846251
-1.9629962 1.3428862 2.0425246 21.01325
-1.8349695 1.3273773 2.0273452 21.555626
-1.6589226 1.3749335 2.0655775 23.011
-1.568337 1.340193 2.0170209 23.00975
1.6737651 1.3130206 2.0701048 20.81925
1.7299013 1.3514599 2.0382941 21.775248
1.8076408 1.3803893 2.0534749 20.0515
-1.6367139 1.4872628 2.0619152 23.0075
1.7346214 1.4561599 2.085355 22.4405
1.8483191 1.4717513 2.0484376 20.048374
1.9229311 1.4370906 2.0108995 18.0895
1.7594106 1.5318123 2.0545063 22.352125
1.8929634 1.5896368 2.0254276 22.113001
1.9449301 1.5460287 2.0335929 20.231085
1.7921523 1.6785823 2.0811517 23.1005
1.8801651 1.624535 2.0566442 22.442083
1.9359363 1.6561292 2.0449276 21.529713
1.9351288 1.7724975 2.0579016 21.395166
1.9181535 1.8022238 2.0942261 21.089001
1.7641407 1.9060458 2.0883303 23.116501
2.0342941 1.929013 2.0408683 23.11375
1.897614 2.0648279 2.0664067 23.089001
1.9321651 2.0758102 2.0123708 23.0895
-3.1147063 2.2006149 2.0552588 23.009251
-7.5356836 2.7669253 2.0393982 14.027
-8.1247797 2.8928964 2.0545368 13.0245
-6.4641576 2.8326669 2.0298924 16.025499
-6.195725 2.8621764 2.0561991 17.026501
-5.0534906 2.8824716 2.0871806 20.0245
-4.6734729 2.8874266 2.0930865 21.0375
-4.0557265 2.8697314 2.0808444 22.009001
-8.2087831 2.9483371 2.0411606 13.0265
-7.7288384 2.9290683 2.0872047 14.0255
-7.2801394 2.9089684 2.0238225 15.026
-7.1785426 2.9029903 2.0379636 15.025
-6.7039275 2.9504988 2.0830715 16.0135
-6.5308781 2.9207013 2.0342999 16.025501
-6.2125731 2.9276628 2.0661716 17.038
-5.9654093 2.9167492 2.0498476 17.024
-5.2650585 2.9092338 2.051656 19.025249
-5.1880064 2.9012897 2.0137057 19.023001
-4.6671948 2.9204326 2.0382693 21.014
-4.592 2.9085333 2.0988955 22.0375
-4.4982224 2.9316814 2.0970643 22.014
-4.3291569 2.9261284 2.0778642 23.0235
-4.2305551 2.956399 2.04408 23.020334
0.48315874 -0.14975058 2.1626005 0
0.83854926 -0.15153949 2.1682961 0
0.95439368 -0.12529555 2.1476905 1
1.1902333 -0.10130803 2.1947052 1
-1.4854708 -0.034913782 2.1351328 2.5
-1.3659256 -0.014368739 2.1953931 2
-0.703861 -0.026997915 2.1347933 3
0.080318391 -0.057319004 2.1549006 2
0.17751369 -0.098989286 2.110167 0.40000001
1.0983779 -0.098290503 2.1441457 2
1.2872314 -0.093189709 2.1178017 2
-1.9408294 0.042654011 2.1984658 4
-1.3745289 0.0022540875 2.1204586 3
1.689491 0.095786273 2.1299567 5.4666667
-1.9643148 0.17058964 2.1948192 5.5999999
-0.4435558 0.14746349 2.180665 9.0734997
1.5620122 0.18508077 2.1851876 7
1.7590402 0.17470916 2.1181548 4
-2.0284901 0.28698707 2.1453075 8.0209999
-1.9972305 0.29231343 2.1884739 7.5
-1.832508 0.29499957 2.1481345 9.0334997
1.5589161 0.2571035 2.1658278 7.4034171
1.6111274 0.2742348 2.1477299 8.3610001
1.7253525 0.2374015 2.1666977 5.25
-2.1708043 0.35225549 2.1570034 8.5182495
-2.0245402 0.34966755 2.1733246 9.052
-1.9408932 0.36358157 2.1521606 9.6373005
-1.8390465 0.33942184 2.130604 10.0268
-1.7999909 0.38526291 2.1051664 11.372666
0.43550384 0.32734936 2.130985 9.11625
1.3379264 0.37172276 2.1380038 10.056
1.559557 0.35834113 2.1314032 9.2183466
1.6125787 0.36962375 2.1234014 9.7411661
1.7634476 0.34198463 2.1404576 8.6102505
-2.0443084 0.45865831 2.1530988 10.81765
-1.9831951 0.41717827 2.1275573 10.0515
-1.8558332 0.43265954 2.1758034 12.338734
1.3004942 0.4740791 2.1582177 11.5
1.5547642 0.44965264 2.160593 9.8990002
1.6287084 0.45708048 2.1519558 10.384719
-2.0169165 0.55726337 2.1433167 11.013
-1.955822 0.55333257 2.1631651 12.923722
-1.8559433 0.56628484 2.1482127 14.790042
-1.7933495 0.5101164 2.1379571 15.034
-1.4915857 0.53151804 2.195981 19.0415
1.285568 0.53857672 2.1434748 12.306
1.4805797 0.52551645 2.160141 12.11125
1.5627497 0.57141995 2.1468592 12.053582
1.6700412 0.56822151 2.1427076 12.091874
1.7375019 0.53671622 2.103694 10.217834
-2.2115049 0.66219246 2.1219206 12.0125
-2.1369951 0.64683259 2.1397283 12.01375
-2.0362835 0.64783257 2.1435466 13.875584
-1.9681139 0.66862476 2.1381454 14.256734
-1.8600074 0.6588279 2.1389129 16.14489
-1.75337 0.68291187 2.1015091 19.233
1.2700393 0.60122442 2.1014955 13
1.4930074 0.64031434 2.1891263 13.1145
1.5513145 0.64895052 2.1364956 12.939583
1.6494337 0.65889525 2.1453445 12.886415
1.7531184 0.62916762 2.180634 9.5625
-3.7624629 0.71671963 2.1378615 9.0124998
-2.126967 0.79683304 2.1229272 16.021
-2.0659301 0.73914003 2.1486204 14.762438
-1.9551331 0.75687486 2.1526313 13.447001
-1.8477999 0.736202 2.1647215 19.033875
-1.7847908 0.71871006 2.1954505 20.035
1.2577676 0.74199784 2.178256 15.862124
1.5147208 0.7646395 2.1515756 15.11475
1.6454474 0.74484044 2.1520226 14.337749
1.7198238 0.75651389 2.1355352 14.605249
-2.0617993 0.8765586 2.1290975 15.504833
-1.9346716 0.8400079 2.1854727 15.333333
-1.859393 0.83845615 2.1691036 20.703222
0.37718934 0.865924 2.1387601 17.117001
1.5297508 0.85035115 2.1496067 16.11475
1.663654 0.83786809 2.1452842 15.505432
1.7835199 0.89333141 2.1267717 13.088
-2.0368295 0.94642669 2.15593 17.690634
-1.9431617 0.96914691 2.1691213 20.157909
-1.868591 0.95761299 2.1515658 22.028336
1.3432199 0.96682262 2.1125224 18.112499
1.4597095 0.98310333 2.1383936 18.11175
1.6514888 0.9579792 2.144701 16.830906
-2.2068412 1.0437796 2.1085565 18.51775
-2.0432892 1.0495392 2.1626811 19.28175
-1.9501346 1.0461186 2.1647489 19.597347
-1.8433565 1.0308003 2.1549063 20.5165
-1.7358792 1.0600737 2.1004977 19.011999
1.2191525 1.0179204 2.1563511 19.612751
1.5567443 1.0307224 2.1694982 17.803051
1.6474781 1.0387999 2.1370766 17.546888
1.7611279 1.0492045 2.1430972 15.7365
1.8353142 1.0523258 2.1549294 14.971763
-2.060338 1.1699394 2.1612372 20.78175
-1.9583343 1.1487701 2.1303744 20.676834
-1.8661891 1.1882882 2.1622524 20.5
1.2455777 1.142975 2.1190042 22.099751
1.567168 1.1617556 2.155313 20.108
1.6564927 1.1615012 2.150501 19.302973
1.7422562 1.1559215 2.1336715 18.105667
1.8311538 1.15295 2.1741624 15.088
-2.1368999 1.2016416 2.1718974 21.018
-2.0682282 1.218182 2.1469145 22.78475
-1.9240123 1.2598344 2.1128607 22.5
0.24645513 1.2189258 2.1428919 22.1185
1.6327434 1.2546579 2.1501524 20.471195
1.7649019 1.2452736 2.1605041 18.080601
1.869557 1.2800021 2.1316721 16.088499
-2.0078812 1.3473141 2.1520479 21.0145
-1.9790224 1.337829 2.1168013 21.014
-1.7897041 1.3633802 2.1676023 23.013
0.15302759 1.326193 2.140497 23.119499
1.6441203 1.3733442 2.1572571 22.105249
1.7036098 1.3815895 2.1646998 22.10825
1.8300862 1.3309689 2.138778 17.321903
-1.9550445 1.4535939 2.1385174 23.014
1.6266586 1.4978267 2.1483774 23.105249
1.783499 1.4412396 2.1616559 20.353125
1.8456713 1.4623952 2.1567845 19.6015
1.7553064 1.545297 2.1603105 22.186373
1.8374968 1.5623 2.1640217 22.105501
1.7418256 1.6319559 2.1436734 22.598251
1.8542768 1.6565543 2.1388562 21.095917
1.9022951 1.6560948 2.1366878 23.102751
1.8681928 1.7494209 2.1514199 21.715416
1.8574541 1.8495923 2.1850405 22.092625
1.9395717 1.8710475 2.1251826 23.098
1.8556135 2.0286889 2.1537504 23.091625
-3.2366004 2.1307087 2.1593301 23.0105
-3.177633 2.1438971 2.1316381 23.01
-7.5286026 2.7539744 2.186851 14.0275
-8.3116522 2.8434083 2.1937804 13.025
-7.8456826 2.885998 2.1079068 14.0265
-6.5011039 2.833653 2.1608348 16.025999
-6.3143816 2.8996079 2.1726284 16.5385
-6.1583114 2.849525 2.1886661 17.027
-5.9364486 2.8875818 2.1695085 17.0245
-5.8762994 2.8784423 2.102844 18.026501
-4.9294453 2.8690615 2.1287179 20.025999
-4.0865393 2.8885577 2.1676321 22.009501
-7.1136122 2.9503708 2.1348796 15.0385
-6.5945177 2.9325686 2.1485441 16.027
-5.5493703 2.9328928 2.1550183 19.026501
-5.3330822 2.9520018 2.1331477 19.025
-5.2249045 2.9266467 2.1481071 20.025
-4.7295871 2.9457984 2.1671889 21.011
-4.6880832 2.9144604 2.1854849 22.038
-4.4289126 2.9360943 2.1248908 22.024
-4.3101368 2.9522393 2.1896288 23.014
-4.2518034 2.9483576 2.1500583 23.018749
0.86620694 -0.14907348 2.2826707 0
0.93257082 -0.11981201 2.2509241 1.3333334
-1.3945836 -0.023374159 2.200875 2
-1.1745594 -0.075354859 2.2000101 1.5
-0.81784368 -0.078615546 2.2479961 2
-0.65093374 -0.06913501 2.2059331 1
-0.4056564 -0.05953192 2.2305639 1
-0.38638961 -0.047543429 2.2963347 3
-0.020570472 -0.045035895 2.2849338 2
0.27816132 -0.047102135 2.2436631 2.6666667
0.34520745 -0.033091139 2.2734187 4
0.61665559 -0.035951465 2.2417879 1
1.0318754 -0.095925868 2.268925 2
1.1834803 -0.040223178 2.2489476 4
1.2365408 -0.043649256 2.2455511 3.5
1.5304294 -0.09947408 2.2374384 2
-0.47751296 0.042373642 2.2028437 3
1.3586204 0.0083026811 2.287534 4.5
1.512235 0.056576658 2.2385545 4.5
-1.9691013 0.19238871 2.2317443 5.75
1.3689027 0.10924302 2.2818975 6
1.476089 0.1531253 2.2693431 6.0714288
1.5337723 0.15231185 2.2558928 5.9722219
1.6908526 0.14378864 2.2388806 4
-2.0597942 0.28525364 2.2636514 8.0346251
-1.9201505 0.28386089 2.2268264 8.2913752
1.4608297 0.24108051 2.2795188 8.1099997
1.5493121 0.269775 2.2539678 8.0668001
1.6820617 0.26915926 2.2515855 5.5
-2.0516548 0.34304559 2.2684114 8.0159998
-1.9566611 0.36251774 2.2528932 9.7866669
-1.8916922 0.32164848 2.2371829 9.1150417
1.3442825 0.35477605 2.2707615 10.111834
1.4737573 0.38378125 2.2611547 10.3035
1.5268807 0.33536014 2.2567744 8.9868326
1.6408025 0.34447163 2.235177 9.10075
-2.135139 0.48691943 2.289772 11.0195
-2.0666747 0.47302425 2.2576637 10.515625
-1.9821717 0.42205644 2.2326508 10.71025
-1.8561901 0.45309687 2.2634833 13.203305
1.0447438 0.44871092 2.2841034 11.11875
1.4495291 0.47185326 2.2500975 12.106874
1.5679724 0.43661702 2.2477298 10.328812
1.6429623 0.46218717 2.2469358 9.3162498
-2.0330868 0.55311966 2.2548969 11.879783
-1.9923083 0.56662512 2.2608373 12.371375
-1.8660761 0.55570054 2.2432468 15.343597
-1.5018017 0.55517077 2.2923176 21.035999
1.3982211 0.50235879 2.2908223 12.114
1.5494362 0.54741877 2.2551367 11.233077
1.6150154 0.53337818 2.2742815 10.898999
-2.1522672 0.60637701 2.2871146 13.05
-2.0515597 0.67777526 2.2402377 14.521749
-1.9737989 0.65251082 2.2243578 13.274563
-1.8731536 0.63159162 2.2395768 16.538876
0.63858432 0.67344201 2.2285619 14.114
1.4480826 0.67290765 2.2925928 15.1065
1.5396831 0.66405469 2.2621808 13.47725
1.6241424 0.62863374 2.2301471 12.666666
-2.0591335 0.70873863 2.2740786 14.527167
-1.9593685 0.75271863 2.2292793 15.944458
-1.8367081 0.754601 2.2410142 20.035999
1.2509229 0.75688493 2.2874446 16.111
1.4580576 0.73411936 2.2643812 15.3605
1.5550071 0.71924782 2.2542913 13.771916
1.6343223 0.75972313 2.2447698 14.694559
1.7339796 0.72682774 2.2537944 11.087
-2.1429644 0.82055926 2.2936351 16.049999
-2.0470717 0.85318798 2.259181 17.919056
-1.9743501 0.8691054 2.2179875 18.0175
-1.849669 0.85007972 2.2459459 21.165249
1.1481968 0.87938505 2.2492521 17.1185
1.5568228 0.86086082 2.2619963 16.053375
1.6247554 0.85049653 2.2297323 15.136762
1.7417088 0.88598615 2.25951 12.087
-2.1370554 0.94773221 2.2651277 18.5345
-2.0409214 0.94927245 2.2449529 18.395937
-1.9345387 0.95991355 2.2464936 21.197624
-1.8709799 0.94854891 2.2738442 20.650688
-1.7400539 0.91933292 2.2186337 22.047001
1.2426683 0.96311855 2.280818 19.11125
1.3799335 0.91774201 2.2915914 18.1105
1.4571719 0.94978249 2.2356024 18.109001
1.5684209 0.94902229 2.251909 16.819292
1.6338389 0.94937497 2.2479978 17.221453
1.7846162 0.98812324 2.2141433 13.0875
1.8271438 0.96153641 2.2309048 16.109501
-2.1242301 1.0333734 2.2789764 17.909834
-2.0391665 1.0450844 2.2376871 19.905561
-1.9660864 1.0735934 2.2546384 19.197268
1.4736663 1.0200123 2.2825053 18.114
1.5700333 1.0370104 2.2492499 17.68335
1.6454288 1.0603218 2.2464423 17.519123
1.7431567 1.0401878 2.2301087 14.342251
-2.1420169 1.1796277 2.2392936 21.534248
-2.0105848 1.1462684 2.2331171 20.769751
-1.9725262 1.1784774 2.2583561 20.362999
-1.8598583 1.1986922 2.2062876 20.056
0.25552279 1.1539146 2.2655039 22.1175
1.545121 1.1517847 2.2588861 19.879568
1.6209248 1.1550053 2.2405443 19.756001
1.7186879 1.1691175 2.2089336 19.107
-2.1068513 1.2702947 2.2375822 23.033875
-2.072458 1.2425374 2.2823389 21.860498
-1.9678198 1.2634282 2.258755 21.463417
1.5684987 1.2461216 2.2558253 20.431446
1.628045 1.2475698 2.2371066 19.197374
1.7573384 1.2175055 2.2378702 16.094
1.847741 1.2318985 2.2016802 16.087999
-1.9283521 1.3097266 2.2181125 23.0525
1.6238098 1.3618519 2.2602992 22.107376
1.7516291 1.3778696 2.2726002 18.5
1.8365949 1.3275876 2.2498891 16.5
-2.0045877 1.4430801 2.2378955 23.015249
1.5779675 1.4698542 2.2551587 23.104
1.6312742 1.4587529 2.2595623 22.733938
1.7513632 1.4720993 2.2414887 21.082376
1.837698 1.4617795 2.2529142 17.710667
-2.0406046 1.5556045 2.2973313 23.012501
1.6747319 1.5170099 2.243845 22.438002
1.7603674 1.5595645 2.2728539 22.599876
1.8610198 1.5847547 2.2095277 19.087999
1.6696862 1.6504116 2.2744536 23.098249
1.7684377 1.6574849 2.2452481 22.096418
1.8475773 1.6527336 2.2202682 20.776749
-2.89259 1.7407111 2.2615762 22.021999
1.8169078 1.7654493 2.2665236 20.0875
-1.9882727 1.8600115 2.2833076 20.5
1.8001351 1.8039248 2.2776225 22.094
1.759956 1.9641237 2.2883704 22.087
1.8128537 1.9616013 2.248847 22.590874
-1.950426 2.0210824 2.2671361 22
1.7532578 2.0299168 2.2799909 23.087
1.8015709 2.0455909 2.2380724 23.0875
-7.8932562 2.8908722 2.2451777 14.027
-7.7044878 2.8903153 2.2750144 14.026
-7.6306028 2.8613496 2.2571323 14.039
-6.5807281 2.8266773 2.282536 16.026501
-5.1371279 2.859797 2.2101188 20.026501
-4.461194 2.8671403 2.2007475 22.025999
-7.1746011 2.9207196 2.2314429 15.032249
-6.5925121 2.9207835 2.2862868 16.0275
-6.3549104 2.9082301 2.2261152 16.025
-6.2804184 2.9812231 2.2088718 17.0135
-5.8474412 2.9208796 2.2092721 18.013
-5.7249742 2.9251246 2.2319689 18.023001
-5.5713048 2.9523087 2.2688961 19.027
-5.1721764 2.9056027 2.2663929 20.025499
-4.9617124 2.9653497 2.2086902 21.025
-4.6857004 2.9179962 2.2851858 21.525
-4.2531905 2.9500337 2.2709658 23.0245
-4.0313606 2.919837 2.2914286 23.01
-0.43277276 -0.10780121 2.3043866 1
1.1033173 -0.10932001 2.3608749 2
-1.9497981 -0.054716848 2.3826334 1.5
-1.2052776 -0.032216709 2.3521194 2
-1.0903935 -0.016615923 2.3535855 3
-0.22702624 -0.054043178 2.3190377 2
-0.090245605 -0.018501952 2.3357005 3
0.063433468 -0.031198245 2.3351221 3
0.72193027 -0.067253247 2.3090436 1
1.2586288 -0.085827485 2.3183451 1.5
1.4834441 -0.035699744 2.3319089 3
-1.7457532 0.023945034 2.3207378 2
-0.77632278 0.069130927 2.3215129 3
1.1949359 0.054450877 2.3393979 5.4000001
1.3653908 0.036600679 2.3594637 5.25
1.4497591 0.059081782 2.3731387 4
1.5023352 0.088000767 2.3734944 6
-7.142179 0.15984476 2.3390231 2
1.4464182 0.1504333 2.3581142 6.1923113
-2.1130171 0.28755713 2.3368173 8.0200005
1.4556212 0.23261204 2.3889291 8.1018753
1.5617244 0.22914158 2.3031926 8.1129999
-2.1227705 0.34431642 2.3541076 9.0509996
-2.0256555 0.34678626 2.3567388 8.3745003
-1.9599671 0.35654244 2.3541088 10.037354
0.69474787 0.33990255 2.3423018 9.1125002
1.3385663 0.33959791 2.3498561 10.239834
1.4575778 0.33676562 2.3456037 8.7782221
1.5893551 0.31602097 2.3503997 9.0994997
1.6069423 0.36000824 2.3896923 10.1085
-2.1449378 0.48245451 2.3512816 10.816166
-2.0617096 0.4627955 2.3480575 10.017834
-1.9782714 0.44720101 2.3463891 11.924001
1.2603703 0.47391468 2.3373218 12.055
1.473194 0.46224037 2.3556385 11.175452
1.5699018 0.46827728 2.3465297 10.70035
1.6429967 0.48002225 2.3731475 8.0892506
-2.842118 0.5535503 2.3631427 9.5102501
-2.1415944 0.52453917 2.3773651 11.014
-2.0422721 0.55176604 2.3478651 12.274
-1.9804137 0.59475523 2.3491385 14.01925
-1.8690628 0.55901814 2.3738966 15.0235
-1.4525194 0.56891263 2.3282688 20.045
1.2307835 0.52122676 2.3529773 12.86025
1.3882151 0.57453495 2.3595068 13
1.4637303 0.55142689 2.3485863 12.090851
1.5513464 0.53106821 2.3532472 11.787583
1.6175841 0.59528267 2.365984 12.0995
-2.1355321 0.67349845 2.3683836 13.617944
-2.0625017 0.63760042 2.3537745 13.499354
-1.8179052 0.68083549 2.301918 18.021999
0.57766789 0.65450287 2.3556695 14.1135
1.4588884 0.65833944 2.3635035 13.848462
1.5481755 0.66286081 2.3404541 13.813687
1.6913146 0.6923551 2.360893 10
-2.130425 0.71977186 2.3543749 15.0355
-1.9809858 0.76883328 2.3552046 18.033501
-1.8508791 0.72996283 2.3240938 18.022499
1.1075836 0.74109399 2.3960309 16.1175
1.224502 0.75708556 2.3450987 17.1105
1.3862355 0.76151633 2.3810151 16.056751
1.4505976 0.76674014 2.3337517 16.009016
1.5560775 0.75479895 2.3561392 14.268584
1.6130472 0.75234586 2.3247914 14.6856
1.7237777 0.7868005 2.3549154 11.0865
-2.1264524 0.85074139 2.387172 17.035751
-2.0745842 0.89635438 2.3261855 19.0235
-1.9319885 0.84938169 2.3406253 20.540625
-1.8274584 0.82417893 2.362577 21.023001
1.481763 0.87395829 2.303726 15.597
1.5482931 0.84339827 2.3537073 15.5237
1.6508715 0.85856628 2.3501415 14.200375
1.7209218 0.88834667 2.3291845 14.09775
-2.0501099 0.98999196 2.3362529 18.684166
-1.9568138 0.98799038 2.3353558 20.442202
-1.8696719 0.96702433 2.3847101 22.044001
1.251296 0.9350822 2.3729718 19.193542
1.3999411 0.92899024 2.3602362 19.106001
1.450026 0.93650621 2.3466885 17.8305
1.5526253 0.94664061 2.3432889 17.345146
1.6082443 0.94636595 2.3971763 18.105249
1.7353427 0.9442445 2.3750832 12.5
-2.1271462 1.0425985 2.3663251 19.335751
-2.0461628 1.0431563 2.3370006 20.423851
1.2845992 1.0872645 2.3512187 21.110374
1.5287635 1.0341763 2.3867445 18.355188
1.6739559 1.0212423 2.3232601 14.093
1.7679751 1.0486776 2.3027022 13.587
-2.1235466 1.1304011 2.3354726 20.785126
-2.0693519 1.1585922 2.3438692 20.572084
-1.9936751 1.1065351 2.3753235 18.056499
1.4826827 1.1714495 2.3481581 19.734251
1.5370051 1.1383499 2.3737085 19.795
1.7437823 1.1246815 2.3774662 14.0865
-2.1020265 1.2945334 2.3356433 23.050501
-2.0600231 1.2507641 2.3346133 21.224022
-1.9197077 1.2755077 2.3227391 22.0345
1.1717961 1.2293589 2.3490243 23.111
1.4651542 1.208447 2.3489575 21.359875
1.5452011 1.2284797 2.3347716 20.703188
1.7417506 1.2476548 2.3436782 16.652208
-2.0254507 1.3318193 2.3044875 21.012501
-1.9361672 1.3404188 2.3642068 22.553875
1.4263678 1.3039438 2.3782399 22.113501
1.5441993 1.3298994 2.3497236 22.107248
1.630949 1.3406757 2.3344872 21.603251
-2.0232491 1.47075 2.3712528 23.013
1.5507152 1.442893 2.3561473 23.107811
1.6520091 1.4717239 2.3402083 23.104082
1.7176548 1.45464 2.3135428 20.095501
-2.0490096 1.5447072 2.3596573 17.75
1.6671001 1.506997 2.3426504 20.594999
1.7070726 1.5372355 2.3672833 21.59775
-2.0157347 1.6947883 2.3963983 19.056
1.6232488 1.6044793 2.3465054 23.0975
1.7445489 1.6521755 2.3393078 21.348751
-2.0170307 1.7572029 2.3256674 19.25
1.7717613 1.7602826 2.3388073 20.393499
-7.3361621 1.8401011 2.374105 10.0395
-2.0106094 1.8292331 2.3540437 20
1.7722669 1.8570604 2.3438735 22.046749
-1.9912432 1.9092901 2.3286211 21
1.7577987 1.9812704 2.3517423 23.046749
1.6743808 2.0340166 2.3861909 22.586
1.7117631 2.0181038 2.3237307 22.0865
1.694441 2.1164596 2.3026257 23.0865
-7.3247232 2.5017982 2.3455899 13.028
-7.502192 2.7346797 2.3457596 14.028
-6.3533635 2.7841942 2.3194447 16.024
-7.1758385 2.8828855 2.3429313 15.027
-6.94173 2.8865461 2.3317628 15.0245
-6.3347845 2.8247118 2.3611939 16.025499
-6.2876468 2.8811805 2.3062882 16.039
-6.1191459 2.8539739 2.351387 17.025749
-5.8180389 2.8914423 2.3424873 18.025501
-5.4336424 2.8939734 2.3230414 19.023001
-5.1332173 2.8822427 2.3893461 20.026749
-4.8838606 2.8516603 2.3347659 20.027
-4.7372804 2.8871093 2.3467433 21.039
-4.4276037 2.8745275 2.3474057 22.026751
-4.0851235 2.8930826 2.35392 23.0105
-7.1506734 2.9020414 2.3557913 15.026
-6.2261729 2.9445271 2.3606236 17.014
-5.8144937 2.9067135 2.3518877 18.0135
-5.7917972 2.9543586 2.386024 18.026501
-5.6372461 2.9249415 2.3418331 18.533249
-5.3654346 2.9154716 2.3142381 19.0245
-5.0025821 2.9285793 2.3172517 21.016001
-4.9428182 2.9617434 2.3158617 21.025499
-4.6519103 2.9319522 2.3595221 22.039
-4.4693274 2.9239187 2.3130465 23.014999
-4.339375 2.9247856 2.3699369 23.030334
-4.2739534 2.9538722 2.3223503 23.026501
-4.1072664 2.9263384 2.3421342 23.023001
0.10747793 -0.14417545 2.4094002 0
0.47427216 -0.1163551 2.4117222 1
1.1737989 -0.11415651 2.4510195 2
1.2197266 -0.14252457 2.4177303 2
-1.6267211 -0.080924481 2.4597726 1.6
-1.5619432 -0.060781758 2.4597218 2
-1.3431548 -0.056522377 2.4874623 2
-0.4039582 -0.081223823 2.4476342 0.75
-0.21793437 -0.067860015 2.4994905 1.5
-0.010428846 -0.082823671 2.4578304 1.2
0.007078439 -0.05251617 2.4816656 3
0.42902219 -0.067861147 2.4242949 2
1.3435875 -0.058357917 2.4838486 3
-4.8769417 0.048882864 2.4978969 2
-4.345273 0.044910155 2.403163 2
-3.7486377 0.041096091 2.4228604 2
-1.8719314 0.035972524 2.4710457 2
-1.3759372 0.046811357 2.4892972 3
1.3674704 0.068505429 2.4225495 4.7857146
1.5583113 0.071097955 2.4595923 4.4761906
-2.1251509 0.10104571 2.4294379 3
1.1208723 0.19710471 2.4070427 8.1169996
1.5235814 0.10017553 2.4462433 6
1.6467851 0.12917058 2.4779768 3.5
-2.0279529 0.25252023 2.4412608 7.13025
0.84961045 0.29894114 2.4815605 9.1110001
1.2831039 0.29290706 2.4550095 9.6087494
1.3902284 0.24898942 2.4453964 7.25
1.457334 0.2608358 2.4307194 8.689333
1.5983751 0.22430472 2.4166386 5
-2.0212321 0.35334644 2.4478173 8.78125
-1.9897902 0.32599643 2.4645061 9.0404997
0.8672111 0.36276281 2.4689846 10.111
1.3779941 0.36085781 2.4345841 9.5374994
1.429302 0.34852853 2.4830642 9.4314995
1.5794722 0.36096126 2.4421604 10.108
1.6748803 0.34977889 2.4414043 9.1112499
-2.1546769 0.47816771 2.4234204 10.0145
-2.033483 0.45601481 2.4536889 10.53775
-1.9777552 0.48939049 2.4412823 13.04
0.8788445 0.45170471 2.4570196 11.111
1.0473884 0.45619339 2.4825056 12.117
1.2267489 0.43313771 2.4436436 11.804501
1.3296767 0.48070791 2.4739156 12.1085
1.4492153 0.440878 2.4432225 10.7425
1.5333357 0.48179933 2.4753609 9.9874105
1.6016343 0.40649235 2.4085968 7
-1.5330627 0.55907923 2.4705267 20.7075
-1.3621272 0.57854772 2.487323 22.772877
0.79881495 0.54114711 2.4408808 12.111
1.2027518 0.51194125 2.4345913 13
1.3972113 0.51696169 2.4701781 12.307375
1.4485149 0.54964256 2.454663 12.158344
1.5543256 0.57525814 2.4238338 10.848
-2.5589366 0.61508 2.4221754 11.0465
-2.1436434 0.69678807 2.434284 13.775875
-2.0333953 0.66746217 2.4799876 13.0545
-1.9580066 0.62100315 2.4179933 16.039499
0.86669457 0.67015517 2.4958639 14.111
1.3916693 0.67283797 2.4800582 13.095
1.4269273 0.64491951 2.4537787 12.98
1.5477953 0.6634987 2.450906 12.770667
1.6506816 0.65768301 2.4050484 10.046125
-2.5262389 0.75415492 2.4217906 13.0465
-2.1216378 0.78421789 2.4271073 15.20715
-2.0189123 0.71389544 2.4528208 12.7785
-1.9788072 0.72813141 2.4178925 18.039499
0.31251889 0.75369167 2.4626155 17.115
1.0756122 0.75408518 2.4773943 16.617001
1.2080817 0.78152108 2.4544334 17.609375
1.3736552 0.72663766 2.4582472 15.183194
1.4640578 0.74033183 2.4576981 14.516791
1.5276282 0.7208581 2.4551907 14.872133
1.6598961 0.77110618 2.4745772 11.0855
-3.0768988 0.85679185 2.4505005 12.012
-2.5664039 0.8175388 2.40042 14.0225
-2.1574748 0.88809937 2.465601 16.55175
-2.0486269 0.83538949 2.4223433 17.148376
-1.9971516 0.8913691 2.404037 19.02
1.0526489 0.84359473 2.4597006 17.605999
1.349834 0.87396097 2.4267817 17.854752
1.4524102 0.83948213 2.4571187 16.353792
1.5330759 0.84117341 2.4443848 15.268166
1.6148421 0.83207798 2.4825091 16.10775
1.702755 0.88015455 2.4238324 12.086
-2.1177344 0.92337966 2.4596219 17.033249
-2.0666883 0.96146566 2.4292471 18.4174
-1.843083 0.9812001 2.4429491 22.019501
1.1743572 0.92238164 2.4409304 20.109751
1.380168 0.95325112 2.45488 17.799999
1.4569731 0.93448305 2.467304 17.379801
1.5319251 0.93165368 2.4397666 17.324511
1.6258771 0.94058633 2.4520996 14.5735
-2.149466 1.0535493 2.4791567 19.0485
-2.079664 1.0304776 2.4368768 18.51775
-1.9693875 1.0679328 2.4198639 18.527126
0.9650737 1.0006766 2.4757948 20.118
1.2736424 1.0686041 2.4330759 21.109501
1.459595 1.0372493 2.4652057 17.88085
1.5384728 1.0668472 2.4550493 18.815784
1.6500437 1.0520992 2.4848182 14.592
1.7115136 1.0019133 2.4479275 13.086
-2.1058457 1.1558391 2.400763 21.05125
-2.0736444 1.1969204 2.4359717 23.02075
-1.9716167 1.1542535 2.4180098 20.327251
0.93234503 1.1408705 2.4645555 22.1185
1.3868819 1.1617365 2.4197111 22.105499
1.4734573 1.1448915 2.4532268 20.038895
1.5431043 1.156386 2.4429424 19.875143
1.6812255 1.1476423 2.4157822 15.0925
1.730991 1.119792 2.4241149 14.043
-2.2790627 1.2037586 2.495188 20.048
-2.1297429 1.225347 2.4453053 20.53125
-2.0754652 1.2924131 2.4738755 21.01425
1.2855257 1.212073 2.4804106 23.108999
1.3914995 1.2836359 2.4962764 23.112499
1.4560215 1.2582082 2.4484677 20.947536
1.5364975 1.2553568 2.452616 20.5014
1.6253858 1.2886369 2.4053032 19.59675
-2.0789471 1.3782935 2.4461911 16
1.399159 1.3040465 2.4459269 23.113001
1.4720076 1.3557234 2.4705217 21.6
1.5150454 1.3755562 2.4352884 22.607748
1.6454161 1.3537962 2.432683 20.599751
-1.9731324 1.4076612 2.4618587 22.054501
1.4569335 1.4355783 2.4737673 23.067583
1.5512753 1.4166498 2.4554584 22.855062
1.635498 1.4672787 2.4231341 21.016125
1.7013155 1.4041023 2.419754 17.625
-2.0504618 1.5559924 2.4176068 17.5
1.5902995 1.5421427 2.4921575 23.098249
1.6523085 1.5472 2.4434474 21.698099
1.7207956 1.5611831 2.4181039 21.429916
1.651004 1.6380018 2.4421661 21.427834
1.7454209 1.7374977 2.4022641 21.547501
-7.1218576 1.8675567 2.4743137 10.0285
1.7198553 1.8859311 2.4246135 23.094749
1.5865724 2.0034633 2.4936378 22.084999
1.6240391 2.0441046 2.4234221 22.585501
1.5461087 2.1351824 2.4874899 23.084749
-7.5321221 2.7055497 2.4407916 14.0275
-6.2502942 2.7225296 2.479856 16.0245
-7.7161727 2.8798153 2.4403653 14.0265
-6.8341718 2.85093 2.4826293 15.025
-6.6167502 2.8291709 2.4160519 16.027
-6.3716173 2.8257911 2.492167 16.025999
-6.2354789 2.8784797 2.4347446 17.039499
-6.0391045 2.8800278 2.4335361 17.026749
-5.7632008 2.8928709 2.4759374 18.028
-5.3685136 2.8649051 2.4519496 19.0235
-5.1007071 2.8763325 2.4887633 20.026501
-4.3133345 2.8938375 2.4319544 23.025499
-7.3241749 2.9331601 2.4018216 15.0395
-6.2813401 2.9116712 2.48297 17.0245
-5.9136128 2.9313352 2.4908383 18.027
-5.4671235 2.9497774 2.4316635 19.026501
-5.2034707 2.9426548 2.4634423 19.025
-5.0953126 2.9171684 2.4783189 20.025
-4.9587522 2.9665453 2.4151263 21.025999
-4.868576 2.9843018 2.4291587 21.0245
-4.7153616 2.9029775 2.4541097 21.039499
-4.6520467 2.9244986 2.4309707 21.525749
-4.3086715 2.9008436 2.4487996 22.011499
-4.288269 2.9237719 2.4532576 22.53175
-4.1996264 2.915494 2.4073131 23.0235
-4.0819206 2.900516 2.4998956 23.01125
0.038898215 -0.11507862 2.521482 0
0.38790044 -0.18482853 2.5268509 0
0.55669868 -0.16435051 2.5434165 0
0.60925174 -0.10494111 2.5889087 2
0.86773223 -0.15826531 2.5493729 0.5
1.1019871 -0.13074248 2.5127177 2
-2.0463502 -0.066573255 2.5718307 1.6666666
-1.7480288 -0.082291156 2.5601664 1
-1.0714295 -0.069201253 2.5948839 2
-0.68649507 -0.033647761 2.5176315 3
0.034965605 -0.036054708 2.5035839 2
0.30088493 -0.039423153 2.5151739 2
0.49238521 -0.095027752 2.5526118 2
0.63606471 -0.054988779 2.5786874 3
0.80337846 -0.060066901 2.5037432 3
-7.0121222 0.09860497 2.535172 2
-2.1035881 0.030440083 2.5630124 2
-2.0515172 0.031211646 2.5458751 2
-1.7243671 0.023109876 2.5777397 2
1.3451602 0.044617947 2.5599217 4.75
1.161831 0.18202604 2.5953183 8.1149998
1.3435915 0.10336514 2.5712605 6
1.546563 0.17051609 2.5076051 4.625
0.056551039 0.27589408 2.5789447 10.1165
1.0853915 0.22900082 2.5192614 8.61625
1.2310448 0.26360911 2.5772724 9.1075001
1.3718038 0.25790831 2.576895 8.737834
1.4354745 0.25834125 2.5248199 8.1504498
1.5199318 0.28251997 2.549541 6
1.6226555 0.22668673 2.5404646 4.8333335
1.1837687 0.34343204 2.5566814 11.108
1.2358577 0.31646514 2.5140011 10.10825
1.3650819 0.35975876 2.5799842 9.2965002
1.4589558 0.33983925 2.5563245 9.5369167
1.5029062 0.30214766 2.549263 9
1.026039 0.45352387 2.5498595 12.1165
1.1496428 0.42649481 2.5683112 12.108
1.2242264 0.41303039 2.5722945 11.115
1.37766 0.44617096 2.5449557 11.641442
1.4242413 0.46495122 2.5710156 11.464683
1.5370173 0.42447975 2.5506852 8.0909996
0.77046627 0.56427836 2.5204477 13.1105
1.2221303 0.51657408 2.5527287 13.11525
1.379436 0.5799104 2.5461962 12.197333
1.4310136 0.5587821 2.5384498 11.982459
1.5658783 0.55249572 2.5314152 10.3995
1.6379118 0.52709615 2.5677574 8.085
0.86363554 0.68638122 2.5575848 15.1105
1.2203435 0.61201423 2.5843029 14.115
1.3756818 0.63603657 2.556047 13.761149
1.4461095 0.63023585 2.5528316 13.8175
1.5385095 0.65331155 2.53947 12.431999
1.625663 0.62837744 2.5512466 8.9313889
1.1603793 0.78074658 2.5433383 18.1085
1.2410417 0.7539584 2.5783777 16.115
1.3729856 0.74830961 2.5647814 14.513968
1.4387826 0.7487123 2.5378804 15.327694
1.6699249 0.74637133 2.5026093 10.0855
1.097984 0.86824673 2.5782282 18.115999
1.132843 0.88831544 2.5353785 20.108749
1.3473613 0.85804212 2.5676248 17.943001
1.4600276 0.85161328 2.5614812 15.907676
1.5385756 0.80678409 2.592483 12.09075
-2.0348015 0.96794271 2.5743961 19.018999
1.2397934 0.92967319 2.5047932 19.108749
1.3647549 0.95366281 2.5767043 18.077063
1.4342021 0.94957471 2.5544207 17.721886
-2.1880298 1.0724369 2.5414283 19.049
0.90899932 1.0765952 2.585659 22.1175
1.1713468 1.0350394 2.5390308 20.115999
1.2502882 1.0414767 2.5501482 21.10825
1.357917 1.0273502 2.5252283 19.612249
1.43672 1.0640903 2.542825 18.598938
1.5334644 1.0682952 2.5179701 19.237249
1.6389105 1.0090601 2.5628567 13.277778
-2.0321693 1.1737311 2.5323739 21.018499
0.72632223 1.1624287 2.5933633 22.1105
1.352922 1.1596057 2.54635 21.482189
1.4388765 1.1546323 2.5643837 20.3822
1.5477314 1.1410046 2.5416169 18.598375
1.6327043 1.174469 2.5700259 15.0915
-2.1500373 1.2382492 2.5490932 22.035625
1.2746176 1.2307047 2.5522313 23.10825
1.3805703 1.2397408 2.5729485 21.1745
1.4573894 1.254423 2.5545995 20.851969
1.5442322 1.2975539 2.5030122 18.09325
1.6743885 1.2351786 2.5393708 15.922999
1.3923203 1.3461533 2.5988135 22.099751
1.4387465 1.3710141 2.5499315 22.602001
1.5300419 1.3116975 2.561862 20.098251
1.6823211 1.3644838 2.5181637 19.094
1.3860482 1.4476656 2.5943639 23.099751
1.4510169 1.426245 2.5435467 23.105202
1.5525439 1.4441123 2.5592604 21.5965
1.6480858 1.4490495 2.5391846 18.505751
1.5404978 1.5490509 2.5527761 21.761917
1.5773669 1.6113561 2.5013978 22.096001
1.6473465 1.6554086 2.544091 20.256351
-2.7644017 1.7283295 2.590229 22.021999
1.5423902 1.7433053 2.5457401 23.095501
1.6338463 1.7266971 2.5419545 20.295876
1.6578982 1.8571972 2.5140924 22.319603
1.7545291 1.821085 2.5067103 23.097
-6.1971016 1.9080313 2.5905733 12.015
1.522625 1.9991537 2.5653608 22.084249
-7.0391331 2.0188992 2.5252776 11.04
1.4894959 2.0928223 2.5795307 23.084
1.5484089 2.0622215 2.5631154 23.030167
-6.9772778 2.324369 2.5075331 13.0285
-7.5071287 2.6863625 2.5999422 14.028
-7.3784013 2.779279 2.5534778 14.04
-6.3268733 2.7306347 2.5421906 16.040001
-7.7636232 2.884799 2.5776751 14.027
-7.3672724 2.8786788 2.5260525 14.527
-6.9648714 2.8748467 2.5580688 15.04
-6.5739493 2.8456218 2.5488229 16.028
-6.1868463 2.8832376 2.5610847 17.040001
-6.0837426 2.8912544 2.5663643 17.0285
-5.6827822 2.8703637 2.5968831 18.0285
-5.2711263 2.8775883 2.5630794 19.025499
-5.0481186 2.8666379 2.5720537 20.026833
-4.6781335 2.8933098 2.5070531 21.012501
-4.5070095 2.8872778 2.5657094 22.012501
-4.4289188 2.8970366 2.508337 22.011999
-6.3264189 2.9145286 2.5762925 17.0275
-6.2173228 2.9458678 2.5008821 17.0145
-5.9347696 2.9372966 2.5508852 18.040001
-5.5654635 2.9271271 2.5236011 19.027
-4.9962897 2.9255762 2.5278292 21.028
-4.8263555 2.9620605 2.5355215 21.025
-4.7125688 2.9068711 2.5432711 21.040001
-4.5363703 2.9363589 2.5605128 22.2875
-4.3128762 2.9142532 2.5489817 23.034
-4.2956738 2.9128878 2.5987618 23.026501
-0.72679245 -0.10007261 2.6004059 1.6666666
0.20434371 -0.10693434 2.687062 2
0.75201303 -0.12569511 2.6394486 0.66666669
1.1956911 -0.10021755 2.648546 2
-1.5700516 -0.090797201 2.6967664 1.6666666
-0.94007427 -0.079238884 2.6739156 1
-0.27543005 -0.058166735 2.678652 3
0.36129111 -0.049744904 2.6496463 3.5
0.46699822 -0.075586081 2.613754 3
1.0374728 -0.099015683 2.6106119 3
1.2851988 -0.037988842 2.6841993 4.5
1.3284206 -0.019932255 2.6081634 4.5
1.4557028 -0.023379045 2.6845672 3.75
-1.9741042 0.029720576 2.6251986 2
-1.6451899 0.036356159 2.6088831 2
1.2857823 0.039040003 2.6896222 5.6666665
1.3415102 0.020857591 2.6658044 5.1875
0.11312866 0.1958155 2.6016114 8.6155005
1.1639189 0.18106566 2.6464939 8.1145
1.355427 0.13821945 2.6219022 6.2971215
1.4380989 0.18690073 2.6453898 8.1035833
1.549758 0.16387673 2.6641102 4.1999998
0.069707155 0.26174036 2.6577458 10.1155
1.1708641 0.24697241 2.6698174 9.1064997
1.2779149 0.26246142 2.6339717 9.1140003
1.3652656 0.2368553 2.6314304 8.6052494
1.4469359 0.28884125 2.6567659 9.1030006
1.1474414 0.33334866 2.6069112 11.1075
1.3453094 0.36591735 2.6416152 10.001834
1.4617069 0.35303184 2.6358602 9.8538132
1.565006 0.30065447 2.6603422 9.1094999
0.13973266 0.41707203 2.6793861 14.1145
1.2490603 0.46577802 2.6232202 12.445333
1.3692355 0.46198127 2.6678183 12.000737
1.4482498 0.46058074 2.636791 11.125463
1.358902 0.5518837 2.639169 11.935917
1.445912 0.5739153 2.6835876 14
1.5142881 0.57310969 2.6166267 13.1065
-1.8148226 0.65440065 2.609571 18.021999
1.0559844 0.66355288 2.6435475 16.115499
1.2481481 0.62206161 2.6881523 13.353375
1.3499361 0.66138071 2.6495631 14.578375
1.4604839 0.65041494 2.6480556 14.327812
1.5150782 0.62652218 2.6836119 9.59025
-1.8368435 0.7505551 2.6507802 19.522751
1.1141526 0.78412032 2.6145158 18.60775
1.2580338 0.75503182 2.664851 16.445
1.3556926 0.74937952 2.6513329 15.451313
1.4178649 0.728266 2.669467 16.30225
1.5100152 0.75556821 2.6940732 12.092
1.0901793 0.82971168 2.6849239 18.115
1.3593011 0.86124003 2.657403 16.453041
1.4546938 0.85642135 2.6356039 14.957839
0.91808665 0.94890994 2.6186957 20.117001
1.1529984 0.95649034 2.6474929 20.112499
1.345746 0.94183284 2.6545944 18.00382
1.4409754 0.94212317 2.6413794 17.826563
1.5617231 0.94616252 2.6306114 15.430501
1.1386833 1.0670984 2.6395171 21.11525
1.2372559 1.0246043 2.6354518 21.10725
1.3628463 1.0386704 2.6510653 18.88928
1.4230021 1.0494477 2.6537693 19.240116
1.5728369 1.0122825 2.6423745 13.59075
0.81312728 1.1407388 2.6914616 22.110001
1.3677353 1.130143 2.6539385 20.420166
1.4256754 1.157958 2.6178918 20.636459
1.3659407 1.2447474 2.6586027 20.998102
1.4572357 1.2433798 2.647198 20.842966
1.5541914 1.2406492 2.6525259 19.85
1.6068003 1.2150127 2.6857705 15.09075
1.3900751 1.3600836 2.6443489 23.107332
1.4466647 1.3456689 2.6508183 21.729321
1.3299469 1.4307992 2.6975074 23.098499
1.470597 1.415349 2.656661 21.595249
1.5662456 1.4451246 2.6788175 17.5905
1.6017717 1.4341356 2.6209824 17.591
-7.1013637 1.5474216 2.6114407 9.0290003
1.4816594 1.5212531 2.6613572 23.096251
1.5615412 1.5203263 2.6444781 20.547501
1.5527052 1.645182 2.6571794 21.593624
-6.7183361 1.7618494 2.6626849 10.0405
1.5036689 1.7362388 2.6553855 23.0945
1.6098971 1.7465924 2.6960773 22.092501
1.5978885 1.8498522 2.6359272 23.092751
-6.7967167 1.9186708 2.6583738 11.0405
1.5451555 1.9430885 2.6360185 22.0905
1.4685107 2.015429 2.6679897 22.0835
-7.3287716 2.4541657 2.6014543 13.028
-7.4774699 2.5743303 2.6432638 13.029
-6.9402585 2.6910846 2.693471 14.0405
-6.4875226 2.6355517 2.6751816 15.028
-6.2691693 2.7141232 2.6109722 16.025
-7.0461335 2.875941 2.6748204 15.027
-6.8214517 2.8521671 2.6327293 16.025499
-6.5713 2.8817635 2.6769233 16.028999
-6.4511466 2.8189597 2.6139383 16.026501
-6.1444588 2.8767695 2.6673341 17.040501
-6.0486078 2.8274701 2.6675208 17.027
-5.3699698 2.883215 2.6779194 19.0245
-5.2646594 2.8907835 2.6612754 19.025999
-4.6559777 2.8485336 2.632812 21.02
-4.2227902 2.8905978 2.6643958 23.025
-6.5819478 2.9013009 2.680707 16.040501
-5.8396907 2.9219272 2.6039362 18.0145
-5.756145 2.9328108 2.6361585 18.0275
-4.980155 2.9271755 2.6295104 21.0285
-4.8130393 2.9519699 2.6458206 21.025499
-4.759582 2.9026704 2.6134543 21.0235
-4.6125894 2.9264235 2.6428194 22.0285
-4.5232186 2.9250062 2.630352 22.040501
-4.3594117 2.9158239 2.6506896 23.0285
-4.2859945 2.9312367 2.671803 23.03475
-4.1234655 2.9393728 2.6003413 23.0245
-4.0907998 2.9195559 2.637681 23.011999
-1.1146013 -0.10801405 2.7811284 1
-0.52406311 -0.12484819 2.7098553 0.66666669
-0.0090048611 -0.1116 2.7742794 1.5
0.3725808 -0.10107769 2.7947578 2
0.57329154 -0.11022213 2.7852228 2
0.73609042 -0.11370592 2.7304611 3
0.83184433 -0.15329775 2.7074945 2
0.92007458 -0.13308267 2.7133756 2
1.2031989 -0.14328228 2.7627177 2
-4.1430273 -0.0077917576 2.7516885 1
-1.2339082 -0.084193893 2.7548251 1
-1.1298995 -0.084087446 2.7546518 2
0.17578197 -0.037715413 2.7723649 3
1.3495513 -0.00079629198 2.7314446 4
-3.7390537 0.0078858361 2.7097349 2
-2.5802054 0.043749101 2.7789478 3
-2.4368877 0.010796771 2.7396698 2
-1.361062 0.00057606399 2.7530658 2
0.91239703 0.05255302 2.7688215 6.5
1.2570729 0.065259799 2.7564712 5.5
1.5629326 0.014455229 2.7233686 3
0.89322519 0.16253933 2.7612712 9.1059999
1.0834829 0.14240079 2.740262 8.1140003
1.3180552 0.18726847 2.7857699 8.1047497
1.483363 0.11119135 2.7191803 7
0.73344177 0.23223385 2.7724364 8.1079998
1.0281727 0.23983575 2.7327046 9.1145
1.2573619 0.25458089 2.7371778 8.5795002
1.3481876 0.21963899 2.7439902 8.3539371
1.4569457 0.25316375 2.7737861 8.3838501
1.5398225 0.2828784 2.717428 9.1090002
0.47627622 0.35648298 2.7682261 11.11
0.67682725 0.37196895 2.773386 11.1085
0.73048621 0.3764424 2.7809391 11.108
1.0681852 0.31110042 2.7181525 11.10625
1.2755708 0.36008292 2.7493033 10.382451
1.3469059 0.36450663 2.7507174 10.452688
1.4615557 0.39816219 2.7331414 10.8025
1.1747751 0.4885985 2.7980468 14.105
1.2428684 0.43570742 2.7471743 11.270416
1.3461688 0.44702065 2.7491519 11.618833
1.4616858 0.46658781 2.7564952 9.4113569
0.45306093 0.58257794 2.7617872 16.1105
0.51487309 0.5972873 2.7613654 16.110001
1.2781075 0.57861489 2.7469609 12.263021
1.3358345 0.55030262 2.7486203 12.880499
1.4383949 0.50399667 2.7178588 13.1055
1.5762264 0.54611343 2.7326734 11.572499
0.63247365 0.60955441 2.7672217 15.109
0.73465163 0.64470685 2.7974679 15.108
0.90926373 0.67717433 2.7924027 17.115
1.1966375 0.62342548 2.7528737 15.1135
1.2361603 0.61499673 2.7726841 13.3525
1.3431509 0.63542336 2.7682326 14.496395
1.4539036 0.6209957 2.7529721 11.0573
1.567167 0.64029723 2.7980702 14.60825
1.0282919 0.79486519 2.7473273 19.606251
1.2542489 0.74372554 2.7596321 16.456188
1.3607128 0.74678028 2.73682 15.69518
1.4414306 0.76405233 2.7566164 15.666458
1.0663453 0.80591971 2.7479215 18.1145
1.2802569 0.89351469 2.7259176 18.113501
1.3450189 0.84505975 2.747148 16.749094
1.4560076 0.8533057 2.7331374 15.679813
1.5305722 0.85985047 2.7072279 11.5
-1.7157004 0.96755898 2.770982 22.019501
0.45117444 0.9277184 2.7424493 21.111
0.54626864 0.92873645 2.7468016 20.610126
1.1259595 0.93159503 2.7633941 20.114
1.2732906 0.94414967 2.770751 18.78245
1.3296868 0.95014876 2.7478681 18.810127
1.4372529 0.94118881 2.742265 16.463749
0.80186427 1.0708773 2.7003512 21.110001
1.256561 1.054579 2.7652569 20.283499
1.3295586 1.0641519 2.7501707 20.828499
1.4011235 1.0510234 2.7584224 21.109501
1.5519454 1.0199246 2.7191629 13
1.2779145 1.1337143 2.7583632 20.349125
1.3531519 1.1493551 2.7462997 20.32564
1.4188117 1.1773698 2.7190342 20.6035
-6.4881663 1.2251714 2.7525063 8.0295
0.79483616 1.2356393 2.7229586 23.110001
1.28882 1.2524637 2.7804012 22.15275
1.3749208 1.2350322 2.7676919 21.565222
1.4476292 1.2429725 2.7214127 20.50005
1.5486096 1.2077889 2.7683311 15.09
1.3509166 1.3383648 2.7524376 22.547916
1.4269292 1.3929735 2.7105908 22.095501
-7.0289335 1.4078574 2.7953811 8.0410004
1.3157583 1.4564362 2.7471294 23.049
1.459705 1.4086224 2.742346 21.095501
1.5432982 1.4408913 2.73877 17.647499
1.4364392 1.5239156 2.7586174 21.844315
1.4869001 1.6357003 2.7493486 21.446999
-6.5252957 1.7394215 2.7690034 10.041
1.4549875 1.7383175 2.7530379 19.666668
1.567777 1.7010943 2.7483563 21.091999
-7.1246853 1.8207142 2.7321224 10.0285
-6.4745164 1.8027443 2.785337 11.041
-6.3242517 1.8702396 2.776433 12.0285
1.5625485 1.8483695 2.7282462 22.091999
1.6374805 1.8718656 2.7111869 23.094999
1.5111065 1.9441711 2.7004182 22.09
-4.9195104 2.0617287 2.7158716 17.018
1.3614311 2.0433931 2.7454903 21.5825
1.4148257 2.0102067 2.7113829 22.083
-6.9821796 2.2780809 2.7666626 13.0285
-6.6351347 2.273159 2.7921801 13.0295
-6.0416136 2.3777487 2.7741973 15.0155
-4.8256755 2.3711958 2.7467706 19.018
-6.3443589 2.7323129 2.7994928 16.041
-6.9424591 2.8846867 2.7003462 15.0405
-6.4870515 2.8215468 2.7474837 16.027
-6.18396 2.8669877 2.7165296 17.028
-6.0507317 2.8372233 2.7883577 17.033249
-5.780519 2.896117 2.7269776 18.014999
-5.6067715 2.8603163 2.7144005 18.028999
-5.3616824 2.8862514 2.7950108 19.025
-5.1963596 2.8653502 2.7819633 19.026501
-5.0310783 2.8665237 2.7064037 20.026749
-4.7474928 2.8037515 2.7299128 21.028999
-4.628623 2.8439112 2.737958 21.0205
-4.5285006 2.8032336 2.7855654 21.025999
-4.1835432 2.8833106 2.7614014 23.025499
-6.1384125 2.9068592 2.7900984 17.027
-5.6619668 2.945682 2.7167087 18.026501
-4.9787769 2.9332438 2.7546556 21.019249
-4.5843787 2.9515314 2.7135043 22.041
-4.4531384 2.9217656 2.7356849 22.542
-4.267252 2.9174285 2.7319877 23.035999
-4.1457405 2.9039588 2.7949038 23.043501
-1.0044749 -0.10688571 2.8889222 1
0.14037272 -0.13722165 2.834516 1
0.47608301 -0.17337638 2.8242416 0
0.76149046 -0.15749411 2.8377497 1.3333334
1.0368476 -0.14676002 2.8161151 2
1.1605071 -0.163234 2.8172426 2
1.2082586 -0.16688751 2.8375118 2
-4.6756554 -0.0095605105 2.8412933 1
-1.9911852 -0.0091170669 2.8329279 2
-1.6288902 -0.027696576 2.8824522 1
-1.489223 -0.02456798 2.8749557 1
-0.93223548 -0.08612778 2.8554771 2
-0.51031876 -0.085720591 2.8361537 2
1.4620162 -0.064878851 2.8772676 2
-6.0725641 0.078091539 2.8502879 2
-2.4392629 0.02751065 2.8046818 2
-2.1694047 0.025940774 2.8109462 2
-1.4319428 0.026543783 2.8192875 2.6666667
-1.3861248 0.039469052 2.8012674 3
-0.39674079 0.0013404302 2.8111591 3
1.1466482 0.058763471 2.8410406 5
1.3628603 0.076470293 2.8687179 5.5
1.4328306 0.071609065 2.8810382 3
-0.007368505 0.12525932 2.8153291 8.1145
0.67488694 0.12214608 2.8779204 8.6155005
0.84425735 0.1403608 2.8903444 6.3333335
1.1972423 0.14065284 2.8417366 8.1087494
1.2649391 0.13760793 2.84586 6.5361848
1.3364878 0.18149599 2.8473983 6.8000002
1.4503448 0.19079819 2.8151381 4.8000002
0.0045687556 0.28924242 2.8283689 12.447667
0.13742673 0.23419124 2.8361404 10.1125
0.84371191 0.25822493 2.8400087 8.8566246
1.0344847 0.22800303 2.8429847 10.1045
1.199596 0.25489098 2.8651924 10.1085
1.2559779 0.28186804 2.8296049 9.1021881
1.3523461 0.2328679 2.8404207 8.3438129
1.4653493 0.2156477 2.8785079 8.1035004
0.049021363 0.30811113 2.8961291 13.112834
0.13956553 0.37828049 2.8320236 13.779334
0.78994817 0.38694119 2.8377452 11.107
0.87638247 0.38037038 2.8761415 12.23025
0.93012822 0.39234963 2.8145769 13.605249
1.235744 0.36864826 2.8554823 10.938042
1.3439087 0.36051291 2.8505867 9.0713215
1.4367499 0.38292816 2.8063812 11.1025
-6.4613976 0.44358376 2.8432608 3
0.03767081 0.46354759 2.8397653 16.44725
1.2742091 0.45148236 2.8696644 11.278551
1.3324727 0.42950216 2.8625131 11.5016
1.414001 0.45464879 2.8696198 10.347
0.040686637 0.54170305 2.8527832 18.11375
0.13879383 0.57032812 2.8578115 18.112499
0.25344092 0.55796576 2.834209 16.6115
0.79752535 0.58304179 2.8458414 14.107
0.89016098 0.57378733 2.8907278 14.106
1.1969332 0.56167287 2.8533466 11.59375
1.2739735 0.56212431 2.8663075 12.582959
1.3206775 0.58974737 2.8313639 13.103001
1.4304063 0.56850672 2.8799806 11.440639
0.020843983 0.64451933 2.865984 20.114
0.17145449 0.64297521 2.8704963 19.612
0.78392005 0.6434747 2.8652089 15.369083
0.82435209 0.65843117 2.8973744 15.439667
1.1382071 0.68932128 2.8904696 17.104
1.2494419 0.64108723 2.8514621 14.351562
1.3447921 0.61203694 2.8531432 13.447563
1.4262415 0.66600531 2.847399 12.675861
1.5316693 0.65986764 2.8643613 12.598375
0.91004658 0.75071633 2.8484628 20.105
1.2769552 0.75494826 2.8621907 15.684041
1.3246408 0.7443527 2.8169355 15.6
1.440825 0.73912722 2.8485022 15.411438
-6.4389 0.87693667 2.8864865 6
0.064414598 0.81718898 2.8298495 23.114
0.51478332 0.8721087 2.820749 20.109501
0.61911374 0.88507056 2.83427 20.1085
0.82152897 0.89791918 2.8965759 19.106501
1.2594041 0.84649467 2.8688793 16.109932
1.3365607 0.8440243 2.8477895 17.451126
1.4110901 0.88540477 2.8788371 15.9285
0.60084075 0.94559681 2.8310637 21.108749
0.7395497 0.97470343 2.8765762 20.60725
1.108175 0.90652543 2.8200293 20.113501
1.2503792 0.94499427 2.8391554 17.983271
1.3477647 0.91895628 2.829165 19.442167
1.4672418 0.98722714 2.8583703 12.777778
0.74367183 1.0452034 2.8784673 21.60725
1.1109887 1.0567566 2.8043246 21.61375
1.25044 1.0572791 2.8721545 19.934752
1.3455502 1.0324212 2.8511229 19.036156
