# .PCD v0.7 - Point Cloud Data file format
VERSION 0.7
FIELDS x y z intensity
SIZE 4 4 4 4
TYPE F F F F
COUNT 1 1 1 1
WIDTH 651
HEIGHT 1
VIEWPOINT 0 0 0 1 0 0 0
POINTS 651
DATA ascii
3.2126176 3.5812411 -2.2248025 15
3.2034173 3.7141244 -2.1511631 16
3.1968324 3.9245834 -2.1279845 17
2.3137772 1.838796 -1.4777 9.5
2.3113503 1.4550295 -1.39126 4
2.311727 1.7269777 -1.3357511 6.5
1.9345365 2.5887411 -1.3003801 14
2.2261949 2.3610075 -1.123479 13
2.1963947 2.4855661 -1.0868465 14
2.1536479 2.6515224 -1.0408992 15.5
2.0337617 2.9104433 -1.059935 18
1.1932498 1.3693924 -0.99267596 19
1.2323215 1.4394429 -0.87469488 20.5
2.1555581 2.7708964 -0.99586689 17
3.5813856 3.7477942 -0.83485711 19.5
1.6586835 0.33622354 -0.78161585 3.5
1.3622665 1.3621027 -0.65281421 20
1.6163445 1.0847635 -0.50101984 11
1.8123994 1.1759645 -0.5870558 11
-1.7737122 -0.050167002 -0.31330222 8.5
1.9194065 0.43193653 -0.36702174 3.5
1.8941708 0.82835352 -0.38639033 6.5
1.7526555 1.1931398 -0.32302439 12.333333
1.8482847 1.0338985 -0.27499878 10
2.0014777 1.1389456 -0.29698145 10
1.6253523 1.4737971 -0.22967166 21
-1.7140164 -0.17323314 -0.1249631 7
-1.7761734 0.23001063 -0.083674312 12.5
2.188091 0.78215408 -0.19614577 5
2.0083232 0.90288365 -0.12046993 7.5
1.9817483 1.0267648 -0.12218654 9
2.0988016 1.167871 -0.1461345 11
2.1948626 1.4211507 -0.074888468 13
-1.5688404 -0.39136845 0.06088829 3.75
-1.6404483 -0.091094181 0.073545575 8
-2.4558444 0.15601842 0.1720701 4.5
-1.6439223 0.016853061 0.0721668 10
-2.4349196 0.26987165 0.16990203 6
-1.6704745 0.28007498 0.15309525 14
-2.4483266 0.41218525 0.18465137 8
-1.7749519 0.50654101 0.067096323 16.75
2.3389983 0.99347353 0.19431639 8
2.2345421 1.1092851 0.042301536 9
-2.1974173 -0.12128963 0.26775816 4.5
-2.3073404 0.018846586 0.31996122 4.5
-2.4401903 0.49118748 0.25569874 9
-1.6919966 0.51882094 0.22223216 17.75
2.2650054 0.48610175 0.27223819 2
-2.3743412 0.78680128 0.38579828 13
2.3704798 0.78437173 0.34190446 4.5
2.3475018 0.92192495 0.30234781 6.5
2.6019139 1.0764031 0.35750121 6.5
4.5489659 2.993386 0.38509941 16
-1.4624658 -0.30085948 0.47514156 4.5
-1.8087878 -0.10066667 0.44502616 9
-1.4451212 -0.13233331 0.52079761 5.5
-2.1447814 0.07039766 0.59860653 6.5
-1.5864031 0.10247275 0.44964734 11.25
-1.5432303 0.26196903 0.59935647 14
-2.1265583 0.54925609 0.51178855 13.5
-1.6335917 0.54585004 0.48502824 18
2.3115354 0.50904167 0.40060753 2
-2.3520463 0.73332351 0.43955669 12
-2.0041008 0.74446607 0.46901453 16
-1.6469491 0.6101405 0.47929057 19
-2.3285334 0.88878572 0.44559488 14.5
-2.0133874 0.81130856 0.46982345 17
2.5893388 0.89838398 0.55800259 4.5
2.5145471 1.0491151 0.52719694 7.6666665
1.99111 1.5493956 0.5385114 19
1.8955994 1.6551163 0.48182952 21
4.4175024 3.1411252 0.46682549 17.5
4.3179898 3.3322413 0.54676998 19
4.2858191 3.4171774 0.57208729 20
-1.235634 -0.27096504 0.73127455 4
-1.330259 -0.014571317 0.72958559 9
-1.3788106 0.074066818 0.73278803 11
-2.1340702 0.29181701 0.66998774 10
-1.5030619 0.35581321 0.67703521 13.75
-2.0921726 0.49785274 0.68452358 12
-1.5097834 0.46475115 0.70993739 16.166666
-1.5731671 0.65851116 0.71544862 20.5
-2.2373345 0.98006451 0.60928732 16
2.2728822 0.92411941 0.67691684 10
2.6259022 0.94764805 0.64545274 5
-2.1980369 1.1008875 0.70478404 17
2.3654389 1.1250777 0.64940554 10
2.4124796 1.0080113 0.6813581 8
2.6272073 1.0438693 0.68217725 7
2.0966542 1.2587126 0.64232361 15.5
2.3509521 1.3128624 0.79215854 13
2.103302 1.4423583 0.72356707 17
4.1016631 1.5286376 0.7684809 7
-1.997323 -0.21307057 0.84169841 3
-1.9794524 -0.13609369 0.85779107 4
-1.2423491 0.10868955 0.86847413 11.5
2.4230304 0.56460387 0.9861244 1
-1.9526322 0.65789783 0.99028742 14.333333
2.4312739 0.6580373 0.86679238 4
2.3820009 0.83856952 0.86089897 7
2.5812416 0.80231273 0.98549294 4
2.3210404 1.0420897 0.84940416 10
2.4333682 1.1737788 0.84579533 10
-2.1006579 1.2094041 0.91515076 18
2.1730959 1.3640177 0.81067085 15.5
2.2506356 1.2241564 0.86041051 13
2.1400058 1.5975924 0.83041322 18.5
2.0713837 1.7349758 0.81493211 20
4.0647097 1.6826861 0.84931445 9
3.9893417 1.8845454 0.94623417 11
4.0011568 1.8613517 0.92425728 11
3.9439838 2.1086407 0.98784947 13
-0.91596019 -0.22920147 1.0656347 3
-0.88191056 -0.18620834 1.143353 4
0.095274985 0.69794685 1.0890415 6
0.049333811 0.81688291 1.1723417 9.8571424
1.4798865 0.88653588 1.1876622 15.5
2.5504889 0.93475878 1.0061129 6.5
-2.0670702 1.088637 1.0296595 17
3.9316804 2.1110694 1.0180707 14
3.8621869 2.3231776 1.1018867 15.5
3.8260443 2.5058618 1.0792537 17.5
-1.8500514 -0.11853053 1.2325485 4
-0.77809727 -0.098918073 1.3478125 5.25
-1.8253977 0.13444777 1.3812157 7
-0.90771139 0.29146004 1.3809342 14.5
1.5380126 0.33872831 1.3992227 7
-1.7733727 0.57015318 1.3071492 13
-0.057784319 0.70873165 1.2774651 7.5833335
-1.8010831 0.81664938 1.3989606 16
1.4836012 0.86299223 1.3041979 15
3.3466289 0.89812076 1.357105 3.3333333
1.4504064 1.0406688 1.2688346 17.5
3.3836567 1.0547748 1.2737672 5
3.4231644 1.0052507 1.2344503 4
3.3257902 1.3408494 1.3957407 9
3.8067982 2.2648184 1.2130015 16
3.7514129 2.4952633 1.2781763 18
3.7338486 2.6389754 1.2475574 19
-1.7784889 0.32972008 1.5383505 10
-0.8187781 0.28914559 1.5135176 14.25
1.556049 0.29896042 1.4669883 5.5
-0.33920741 0.52266896 1.5464662 4.5
1.5408416 0.49594125 1.4505595 9
-1.8045697 0.645441 1.4254049 14
-0.2052573 0.65164626 1.4538878 7
-0.1738286 0.75149095 1.4181685 9.5
-1.8005141 0.95001829 1.5491345 15
3.1764183 0.9039852 1.5443454 4
-1.8376161 1.0151452 1.5145048 16
3.3186462 1.1362338 1.4179122 6.5
3.2369649 1.3492994 1.5490054 10
3.2732341 1.5133027 1.4549106 11.5
6.3194485 1.5504193 1.5338004 1
3.2730436 1.7260008 1.5105431 14
-1.6625054 0.11605364 1.7240493 7
-0.64094007 0.14467096 1.7602561 9.5
-0.59434688 0.026670691 1.7767479 7
-1.3957851 0.29633066 1.7366831 13
-0.69758523 0.28277808 1.747156 12.75
-0.77782595 0.58612669 1.7928984 7
-1.7364458 0.70823789 1.7181431 11.5
-1.7301273 0.86231101 1.7137095 13.5
-0.44525027 1.011956 1.6096952 15
3.1176939 1.2953842 1.6717474 10.5
3.1574376 1.5131328 1.6408567 13
3.1160264 1.7436435 1.6820366 16.25
6.2296448 1.7075408 1.649431 3
3.137584 1.8432944 1.6274962 17
6.2177014 1.8537657 1.6079602 4
6.1790509 2.094857 1.6136165 5
6.101696 2.2781587 1.6559936 6.5
5.8238611 2.8907971 1.7305956 10
5.7871146 3.1523664 1.7294984 11
5.7572589 3.3362162 1.7311161 12
5.8009796 3.4763813 1.7297378 13
-1.4800214 -0.024835216 1.9781322 5
-0.55768704 -0.013004486 1.805521 5.5
-1.6940012 0.0082216524 1.8074939 2
-1.547147 0.1632781 1.9770939 5.5
-0.55078131 0.05357904 1.8706194 7
-1.5619067 0.28731182 1.8955283 8
-1.6729327 0.55754292 1.8435253 9.5
-1.5524619 0.43511698 1.8872702 9.75
-1.2716866 0.46962431 1.8863783 14.5
-0.88358557 0.4330619 1.8806101 4.5
-0.91178989 0.71420401 1.9532095 9.25
-0.87861562 0.91591108 1.9181951 12.5
-0.87401927 1.061821 1.9447203 15
3.0547872 1.2850161 1.8260558 11.5
3.0236583 1.4642854 1.8180592 13.666667
2.9462738 1.664626 1.9035528 17
-1.6060945 0.17012459 2.0230339 5
-1.5856769 0.061148435 2.0148578 3
-0.35179108 0.13343526 2.1235995 6
-1.0234654 0.322694 2.1614819 3.5
-0.49273935 0.23792678 2.0989752 9.083334
-0.38001555 0.21910097 2.1268616 8
-1.0493169 0.5078178 2.1937947 6.5
2.7573996 0.68216056 2.160784 3.5
-0.82883668 0.89111918 2.1936979 21
2.859741 0.94514573 2.1298709 7.5
2.9006543 1.1020341 2.1028376 9.75
2.8860955 1.3586314 2.1283669 13.75
-0.82264924 1.569664 2.0238051 22.5
5.8246522 1.4849083 2.0203922 3
2.8451715 1.7477365 2.0411835 19
5.773869 1.7864056 2.0062919 4
-1.1697581 0.32609284 2.3270438 4.5
-0.66903418 0.26030582 2.3029835 9.5
-0.5654763 0.30413598 2.2133923 10.5
-0.68750751 0.57226902 2.3087728 15
-1.1152867 0.66545618 2.2990265 9
-0.69432026 0.6911239 2.3229213 16.5
2.3875856 0.62267888 2.3748264 4
2.4072156 0.66636014 2.3965125 5.5
2.6758394 0.7586984 2.2440069 5.5
-1.0679302 0.94158953 2.2667241 13
-0.65900254 0.85397315 2.2370274 18.5
2.6508574 0.9407925 2.299211 9.1999998
-1.0823667 1.1243296 2.3203502 15.5
-0.79162192 1.0625176 2.265995 23
2.6665385 1.0360891 2.3207273 11
-1.7931364 1.234444 2.2929471 18
-1.1172807 1.2504127 2.3996911 17
2.7765727 1.5424647 2.2749896 17.666666
2.7509375 1.687351 2.2514725 20
4.9917831 2.063324 2.3998933 7
5.9598694 3.6540186 2.2521908 12.5
-1.2119515 0.32473451 2.4768033 5
-1.1878982 0.25124669 2.4097662 3.5
-0.48546055 0.31512174 2.4997206 9.5
-1.2392946 0.51675886 2.5139706 7.25
-1.2166204 0.67162174 2.4784694 9.5
-0.54941225 0.61894298 2.5555155 14
2.2499232 0.62342381 2.5627975 5
2.4383116 0.79143894 2.4196634 7.5
-1.2076702 0.86410618 2.5184612 12
-1.1941485 0.87474573 2.4391508 12
-0.68690336 0.99244344 2.4276183 20
-0.57949674 0.82797658 2.5340803 17.5
2.304261 0.84057993 2.5244305 9.5
-1.1677766 1.0802801 2.4605284 14.75
2.4675236 1.1013453 2.5070336 13.5
-1.7286412 1.3054521 2.4816303 16.75
-1.1616542 1.201246 2.4935663 16.5
4.7829018 1.2877464 2.4899952 2.6666667
-1.7247488 1.4799317 2.475373 18.5
4.7097359 1.5200109 2.4722302 5
-1.6148994 1.7444496 2.5770345 19.5
2.6500463 1.7229764 2.4129736 21.5
4.6179447 1.7498648 2.4930048 6
2.6084766 1.8044193 2.4468253 23
4.4714313 1.9440978 2.5721536 8
4.5323224 2.105006 2.5121794 9
4.5132442 2.2466815 2.5143509 10
4.3355212 2.4943135 2.5677996 11.5
4.2652807 2.6994488 2.5559583 13
2.0275257 0.47235909 2.6703217 3.3333333
-1.6051915 0.86395663 2.6251743 13.5
-1.5859579 0.90869379 2.7455795 11.5
2.2738414 0.91991854 2.6459408 11.25
2.7145374 0.89253968 2.7579846 7
-1.6399233 1.101306 2.6361921 13.5
-1.5754112 1.1203051 2.7071755 16
-1.5570892 1.2776808 2.6979961 17
2.4684048 1.5483224 2.6646307 20.5
-1.5272633 1.6551341 2.7018588 19
4.3672619 1.727489 2.7245901 7
-1.4590273 1.8635032 2.699167 20
4.0325589 2.9998267 2.6746054 15
3.9649053 3.1765566 2.6662347 16.5
3.5815485 3.2263043 2.6941705 18
-1.5012046 0.11024614 2.8024955 3.5
-1.5200516 0.33917499 2.8106697 5.5
-1.5065508 0.51369935 2.885392 7.5
1.8824096 0.50595486 2.8746421 5.25
-1.5100703 0.68729955 2.8651073 9
1.9341953 0.68504947 2.8911538 8.8500004
-1.500237 0.83094418 2.9349914 11.25
2.0141277 0.88585055 2.8732347 12.5
-1.479185 1.0893255 2.9049668 14.25
-1.4587053 1.2410221 2.8558838 17
4.2987928 1.4402485 2.9076748 5
4.687705 1.5831378 2.9300013 6
-1.3157184 1.7156891 2.9239597 19
4.2693281 1.6942616 2.8652775 6
3.8586876 2.6751769 2.8282766 14
3.4999928 2.9593105 2.8802629 17
3.7005737 2.8441238 2.873096 15.25
-1.3812323 0.0086697899 3.1083825 2
-1.4522102 0.29774943 3.0180566 5
-1.2957258 0.31344977 3.0970078 7.5
-1.4186037 0.52708817 3.0403337 8
-1.2709796 0.49284273 3.0307813 9
1.7490661 0.40857017 3.1382856 4.3333335
-1.4697236 0.71950692 3.0031123 11
-1.3938296 0.70909297 3.0645299 9.5
1.7551258 0.61194682 3.1759696 8
-1.2993574 1.1047151 3.1013823 14
-1.1927798 1.1105151 3.1824067 15
1.9928012 1.2657492 3.1338162 19
4.0361452 1.3532565 3.0956159 5
-1.2344255 1.5130448 3.0666373 17
-1.1968327 1.4868585 3.1064491 16
3.9895918 1.4864442 3.0935445 6
-1.2279344 1.6718755 3.0255477 18
4.4475856 1.97483 3.06634 9
4.3028798 2.1665258 3.0323591 10
3.4044595 2.9153938 3.0238223 16.5
3.2897682 3.1977847 3.0791898 18.5
3.4373667 3.0160265 3.1248031 17
1.6140909 0.36126897 3.3641653 4.25
1.6791387 0.54254889 3.3062706 7
-1.1251179 0.72105581 3.3245292 9
1.7055221 0.62010539 3.2764668 8.666667
-1.3044921 0.80432826 3.2234337 11.5
-1.0773592 0.97805601 3.3345358 11
1.7669417 0.92204523 3.280596 14
3.5907595 0.97464699 3.2779796 3
-1.2134628 1.1055897 3.2325599 14
-1.1450635 1.1072915 3.2762854 12.5
3.1780775 1.1654868 3.3939812 5
3.3404901 1.090585 3.340729 4
-1.1023306 1.3144393 3.2399971 14.5
3.2518125 1.3543606 3.3755038 6.5
3.7622628 1.3014661 3.2329617 4.5
3.7180984 1.5054009 3.2594631 6.5
3.5889933 1.7075624 3.3075886 8
3.4630151 1.9023389 3.3609242 9.5
3.4017746 2.160805 3.376569 11
2.8022192 2.9530165 3.3489785 18
3.1336331 2.9792199 3.2756343 17.5
3.8316004 2.8163154 3.2857785 16
3.593118 3.172338 3.3253264 18.5
-0.99251091 0.10350505 3.4824758 3
-0.96100551 0.30441958 3.5296898 6
-1.0315206 0.47410926 3.4549613 8.5
-0.9656527 0.53386366 3.4812365 8
1.5680962 0.54014838 3.4857247 8
1.5803497 0.69412351 3.5163116 10.5
1.6423805 0.9140687 3.4790111 14
3.0741329 0.90775329 3.5029554 3
1.6885247 1.0966403 3.46437 17
2.8693783 1.1545522 3.5724027 5
1.6530175 1.2706256 3.4942327 19
3.0090137 1.3202763 3.4603741 6.5
-0.96362358 1.4178277 3.5393572 14.5
3.0168858 1.5522451 3.4631836 8
2.9522212 1.7070515 3.4792073 10
2.9319842 2.730602 3.4716995 17
3.1376264 2.6483023 3.4059067 15.5
2.8631499 2.8944342 3.5148897 18
2.7660701 3.0527489 3.5583591 19
3.5224836 3.1517236 3.5003347 18.5
1.3317902 0.47201797 3.7268915 7.5
1.4592204 0.5781287 3.6392374 9
1.3548827 0.69871879 3.7308183 10.75
1.3202037 0.88416994 3.7572274 13.75
2.4949276 0.83221334 3.7986298 3.5
1.2365489 1.0402105 3.7762775 16
1.2858331 1.3561282 3.7305489 21
1.2848833 1.4565442 3.7277045 22
1.4727609 1.4662335 3.6157725 22
2.5407217 1.5069869 3.6660995 9
3.5896096 1.422902 3.7724638 6
2.3606029 1.7447488 3.7916608 11
2.7560585 1.6999326 3.611485 10
2.2807095 2.1433258 3.7953763 14.5
2.7563806 2.2223413 3.7528925 14
2.8055699 2.3224711 3.6436868 14
2.6944396 2.476341 3.7304728 15.5
2.8131108 2.4312346 3.648622 15
2.439827 2.7734649 3.6291301 18
2.6528957 2.660249 3.7209954 16.5
3.4477696 2.8207579 3.6551414 17
3.1719434 3.1229057 3.66714 19
1.0747737 0.30869383 3.9036665 5.5
1.2942405 0.34054792 3.8096666 5.5
1.0935529 0.67299575 3.9199176 10.75
1.2514929 0.6243006 3.8626814 10
1.0865569 0.90684855 3.9119833 14.25
2.4778521 0.94364989 3.8063126 5
1.186051 1.2306809 3.8545537 19
2.0747781 1.7188907 3.9520638 11.5
2.1054153 1.9666972 3.9090171 13.5
2.3453476 1.9490488 3.8084064 12.5
1.488687 2.1456156 3.8886018 19
1.6586585 2.0689564 3.9707465 18
2.0649958 2.1200035 3.9106038 15
2.6663337 2.3753955 3.8265455 15
2.3862631 2.5135343 3.8673146 16
2.3256209 2.6024079 3.8669734 17
2.3930969 2.8567276 3.8534455 18
3.0333695 2.8306611 3.998426 18
2.3244457 3.0241349 3.814121 19.5
3.0479574 3.0211432 3.88939 19
0.86800385 0.1204825 4.0695338 3.5
1.4920473 0.65886396 4.1764855 4
2.0569408 0.62837189 4.0233693 3
2.2672317 0.62908733 4.133688 3
2.6166387 0.74942249 4.0325694 1
1.3709891 0.93857318 4.1691532 7
1.4080787 0.88145095 4.1382308 6
1.670447 1.4734309 4.1745906 10
1.6227485 1.9803963 4.1877136 14
1.5629284 2.0053606 4.0667906 17.333334
1.876328 2.0765266 4.0192599 15
2.3140514 2.5682118 4.1889749 16
3.0076642 2.5077045 4.0068159 16
2.2163064 2.7212145 4.0761333 17.5
2.9496961 2.6304226 4.0534453 17
1.9878477 2.8316627 4.1070886 18.5
1.2922025 0.64312285 4.3097129 4
1.6580522 0.71117187 4.2727079 4
2.2773788 0.67441219 4.2292943 1
1.6470846 0.94123071 4.2651706 6
1.5463741 1.1249864 4.2795668 7.5
1.3748906 1.3848364 4.3794317 10
1.4141015 1.5918431 4.3010402 12
1.2585415 1.8766184 4.3572574 14
1.5168751 1.9783428 4.285244 14.5
1.6982088 1.9656813 4.3501029 13
1.3588427 2.1481168 4.2515368 15.5
1.4333398 2.1099384 4.2553406 16
2.2006404 2.5724068 4.3390675 16
1.0963463 0.57575142 4.5031681 4
0.90369713 0.66412061 4.5658021 5
1.2088411 0.70709246 4.5164304 4.5
3.6334293 0.65423596 4.4836888 5
0.64552176 0.85120094 4.5519567 12.5
1.1914458 0.8882193 4.5090327 6.5
3.6223955 1.0670613 4.491796 7.5
0.94433814 1.2877778 4.5570436 10
1.1955551 1.3976076 4.4730005 10
3.6084793 1.3985813 4.4887295 9
0.97502482 1.5467238 4.5180964 12
1.1574459 1.6533937 4.452939 13
1.7674391 1.7452885 4.5437007 11
3.3523979 1.7618678 4.5034132 11
3.6375976 1.6274326 4.5043631 10
1.3407134 1.9048529 4.4578419 14
1.8151759 1.8238572 4.4423113 12
3.338717 1.8006314 4.575479 12
3.4559753 1.8860743 4.4669633 12
0.96465993 2.0349925 4.4146509 15.5
3.3987384 2.1671216 4.4759192 13
0.91695762 2.2191355 4.4328103 17
3.2009029 0.16760918 4.6603656 2
0.81386411 0.45916891 4.6849914 4
3.1733954 0.44492924 4.6639037 4
0.75830567 0.63793015 4.6970491 5
3.1158798 0.69481802 4.7157369 5
3.5144067 0.67401904 4.6003475 5
0.80180079 0.80947709 4.6606116 6.5
3.3700776 0.93520927 4.6822577 6.5
0.82802927 1.0017307 4.6343474 8
3.0797169 1.1434804 4.7714477 8
0.66447484 1.2825254 4.6204786 17.25
0.56180388 1.8652771 4.6728783 14.5
0.61508733 2.539737 4.7934642 18
0.56398273 2.6069725 4.7732229 19.5
0.18842071 -0.091903925 4.9126706 3.5
2.5833192 0.025526643 4.8786888 2
0.23503792 0.23256373 4.909512 6
2.4831519 0.32381088 4.9655476 3.5
2.8944008 0.21190572 4.8986316 3
0.19852412 0.56452239 4.9889669 10
0.50328475 0.43848783 4.9719381 4
0.72303009 0.41927963 4.819602 3
0.46866351 0.66034168 4.9675298 6
2.8250995 0.7351104 4.8599224 6
0.26049113 0.82514596 4.9287271 12
3.0626919 0.89460409 4.8351154 6
3.5484068 0.93615812 4.8919044 5
3.4655621 1.1852106 4.9041376 7
0.52793312 1.2461938 4.9495869 9.5
2.8996346 1.3323998 4.8495364 9
0.51920199 1.5060347 4.9781337 12
0.1730119 1.7571867 4.9980025 20.5
0.48257911 1.6784891 4.8735871 13
-0.10724053 1.995598 4.9022789 16
0.75071061 1.9168313 4.8247738 14
-0.14587477 2.1308219 4.8879075 17
0.13860384 2.0959454 4.8203678 16.5
0.70999169 2.0496354 4.8018255 15.5
-0.095015287 -0.22828919 5.0394845 3
-0.064056873 0.015344918 5.0593619 4.6666665
2.0100861 0.021273855 5.143611 2
0.12068427 0.27697009 5.0089164 7.5
2.037677 0.37636632 5.1938171 4
0.09910202 0.49308267 5.0458984 9
0.32139337 0.55587018 5.1417975 5
0.31236902 0.71379173 5.1170297 6.5
0.48985529 0.61644542 5.0300088 5
2.3194907 0.73393553 5.1096716 6
-0.0033173561 0.83756298 5.097188 12.5
0.13661373 0.88055432 5.0433192 13
0.31097394 0.99158138 5.1221151 8
-0.10895681 1.0879846 5.1858768 14
0.15786821 1.0119998 5.1814923 8
0.24940395 1.1127664 5.0864506 11.75
-0.46547589 1.3074872 5.1588473 11
-0.3139033 1.3507828 5.1786695 11.666667
-0.027634621 1.2645321 5.1115389 16
0.16923052 1.3479269 5.038249 17.25
0.20863637 1.3290627 5.1878653 10
0.18852949 1.5259044 5.0210471 19
0.36868489 1.5436459 5.0617733 12
0.41122371 1.4442339 5.0268955 11
2.284637 1.4430646 5.1722016 10
-0.48186323 1.6081424 5.0639009 13
0.37555498 1.6878135 5.0592313 13
0.15567903 1.8924775 5.0780268 18.25
2.2920377 2.1770382 5.1461611 14
0.1385712 0.18314004 5.2970929 2
1.7934843 0.059121061 5.3806105 2
1.7941443 0.30386564 5.2940068 3
0.10271701 0.81975633 5.2991271 7
1.6994731 0.86205828 5.2695627 5
2.1476133 0.86823899 5.2068391 6
-0.2717379 1.0145552 5.3959188 8.5
-0.15243527 1.147064 5.383153 9
0.097773492 1.1346653 5.2568364 9
1.6813937 1.1549698 5.3153601 6.5
-0.27642408 1.210952 5.2521129 10
-0.16212407 1.2569348 5.242754 10
0.084321678 1.2292428 5.2764139 10
-0.11046115 1.5897069 5.2828741 13
0.0017848909 1.4780543 5.2563601 11.5
1.9588854 1.7025099 5.3190103 11
2.164901 1.6263473 5.3086996 10
-1.723736 1.9947579 5.3271294 20
-0.27810109 1.8896785 5.2621956 14.5
2.4868417 2.4137437 5.3477688 14
-0.22289291 0.10133927 5.4616728 2
1.3620026 0.0025423616 5.5063343 1
-0.24349585 0.2617079 5.5090303 3.5
1.4923259 0.29281637 5.4351187 3
-0.2889792 0.40020761 5.5086198 5
-0.29620764 0.78132045 5.5203967 7
1.3721979 0.61588973 5.5298853 5
1.7109002 0.61405051 5.4627342 5
-0.12100525 0.91638899 5.423707 7.5
-0.47278199 1.1699982 5.4847059 10
-0.82407641 1.2930444 5.522121 11
-0.21878609 1.2280142 5.4004006 10
-0.82844961 1.4426769 5.4677572 12
-1.7806752 1.871315 5.4490609 18.5
1.6779068 1.8954822 5.439199 12
1.9056435 1.8598665 5.4222951 12
2.418396 2.2480745 5.4408169 13
-0.69427156 0.064741611 5.679841 2.5
0.96743435 0.19227162 5.7130861 2
-0.7743752 0.23019274 5.7371922 4
0.40690488 0.20871986 5.6883402 3.5
0.66563225 0.2983858 5.7387414 3
-0.68159294 0.59066361 5.6569414 6
0.98724592 0.45825803 5.7577958 4
-0.7228092 0.72743303 5.6559324 7
-0.73480129 0.91019487 5.6361847 8.5
-0.95887649 1.0983603 5.7457418 10
-0.69166648 1.1055689 5.6497936 9.5
1.1175238 1.2875432 5.6957874 9
0.8921982 1.5969064 5.7668571 10
1.7733356 1.4194643 5.7229686 9
1.0064807 2.1042125 5.7435641 13
1.4977486 2.0165939 5.6117401 12
0.64766645 2.2941945 5.6816268 14
-0.28165513 0.1172746 5.9993062 4
0.071707398 0.045410067 5.8873467 3
0.50740868 0.10437144 5.9444466 1.5
0.037737846 0.23342758 5.8456197 4
0.67744464 0.38776332 5.8299041 4
0.01613301 0.40955645 5.875381 5
-1.0538256 0.64848578 5.9799843 7
0.64958209 0.67587006 5.8587756 5
-1.1224785 0.92981935 5.9478035 8.5
-1.1792679 1.0877554 5.9397073 10
0.58157921 1.1784236 5.8850918 8
-1.239476 1.3865523 5.8997536 11
0.49266729 1.315316 5.9621882 9
1.0580089 1.2995749 5.9595909 8.5
0.65637267 1.4701267 5.9537191 10
0.56441808 1.7157917 5.889255 11
0.56768394 1.8818541 5.8703227 12
-1.3697033 -0.065793395 6.0677519 2.5
-1.3957332 0.086350143 6.0628109 4
-0.51942915 0.0074706674 6.1986446 3
0.12464084 0.061530914 6.0516949 1.3333334
-0.32165056 0.3450225 6.1779151 5
-0.18509065 0.26046464 6.1252456 4
0.12539935 0.30385423 6.1317587 3.5
-1.3505979 0.56933898 6.0720315 6.5
-0.51647139 0.48668474 6.1016607 6
-0.32904357 0.5398289 6.0788159 6
-0.019413233 0.40100798 6.1140156 5
-0.23541331 0.78285837 6.1835961 7
-0.059041198 0.73667276 6.1607523 6
-1.4976025 0.80733305 6.0223289 8
-1.5271912 1.0127604 6.0671735 9
1.0663184 1.0952076 6.0157776 7
0.68892097 1.2453934 6.0396543 8
0.16030538 1.5230823 6.0526967 9.5
0.22668178 1.8366933 6.0427222 11
-0.22319199 2.1455078 6.1033616 13.5
0.098473266 2.1206975 6.1096001 12
-0.52777064 0.019372385 6.2625966 2
-0.39335394 0.054050609 6.3473377 3
-1.7504756 0.39097929 6.2346907 6
-0.80701727 0.23065361 6.3912473 4
-0.66441619 0.2093934 6.3501606 4
-0.50508463 0.30026829 6.2553186 4.5
0.094320476 0.26683658 6.2346277 3
-1.8775649 0.56548822 6.2481794 7
-1.9455621 0.79027635 6.2327976 8.5
-0.39458176 0.97224683 6.216486 7
0.42929891 0.92737001 6.2031951 7
-0.40083069 1.1897919 6.2813902 9
-0.021836415 1.1188552 6.3236732 7.5
-1.9415917 1.256906 6.2240987 11
-0.079089254 1.3398991 6.2014132 9
-2.0125906 1.5095363 6.226151 12
-0.39927483 1.5562201 6.2760801 10
-2.0847974 1.729131 6.2273006 13
-0.23852965 1.9517124 6.2400918 12
-1.0153375 -0.027297229 6.4287844 4
-0.80749708 0.097232655 6.4032278 3
-0.66250092 0.061954454 6.4087486 3
-1.0954616 0.28908393 6.4675856 6
-1.1590195 0.53263593 6.5189171 7
-0.6991846 1.1829845 6.4188089 8
-1.694952 -0.14029972 6.7062745 3
-1.7328973 0.15706381 6.7487884 4
-1.3736109 0.19975942 6.76473 3
-1.1221443 0.0046370849 6.7226763 2
-1.738408 0.3470124 6.6766429 5
-1.3142344 0.33154926 6.7574182 4
-0.96426779 0.56132621 6.6961093 5
-1.2891245 0.6398378 6.7723136 5.5
-0.92348212 0.85981095 6.7010713 6.5
-1.0000793 1.3159641 6.7176218 9
-1.6537365 0.17612258 6.8977337 3
-1.6006612 0.39585108 6.8303905 4
-1.3128121 0.98087692 6.8829632 7
-1.6290925 1.0659124 6.9577613 7
-1.4914048 1.1448333 6.8796139 8
-1.2981046 1.1670312 6.8832798 8
-1.5195316 1.5109501 6.9211302 9
-1.4772772 2.7264185 8.5926313 13
-1.5984464 2.9868464 8.5420942 14
