# .PCD v0.7 - Point Cloud Data file format
VERSION 0.7
FIELDS x y z intensity
SIZE 4 4 4 4
TYPE F F F F
COUNT 1 1 1 1
WIDTH 1202
HEIGHT 1
VIEWPOINT 0 0 0 1 0 0 0
POINTS 1202
DATA ascii
8.6305332 4.3080215 -0.97908938 10.111
-1.7756847 -0.053852029 -0.53202164 8.6240005
-1.8447822 0.17130461 -0.50607717 11.8244
0.98867774 0.37099409 -0.57961804 9.1304998
-1.8798897 0.60402608 -0.49429423 18.025
0.15589213 0.62347764 -0.74172461 23.002001
0.61700505 0.58047843 -0.62522376 21.484297
0.92435408 0.53693831 -0.51271546 17.277575
1.3914922 0.59980863 -0.54068941 10.957916
1.6810302 0.72434694 -0.57175946 10.060032
0.73960418 0.96436006 -0.70443302 21.799667
1.5114113 1.0044614 -0.65959334 12.779305
1.7287432 1.0009614 -0.55100912 11.543168
2.1394074 1.1558361 -0.52668607 8.1248751
-2.8823256 1.4229685 -0.42683461 19.032499
1.1584055 1.2378082 -0.69676858 21.960083
1.4320904 1.4228386 -0.60662234 18.631395
1.7517247 1.3794222 -0.56198376 13.672388
2.1883936 1.3986024 -0.56896102 9.2731104
2.4815624 1.4928169 -0.47774014 9.1223335
1.1783655 1.7128279 -0.73209947 19.1325
1.4579849 1.7402443 -0.59943372 19.67351
1.7561808 1.7431837 -0.48839024 17.293146
2.1483335 1.8083184 -0.5282228 14.586249
2.5884252 1.9842921 -0.7383132 12.123
1.6602538 2.0117643 -0.79347312 20.127001
2.2378342 2.1919754 -0.7500127 16.624874
2.5757596 2.2156577 -0.61764562 15.622189
1.9675835 2.7774804 -0.71351039 23.1255
2.1701398 2.7203126 -0.57217515 22.665146
2.5181279 2.6260674 -0.63946283 19.322451
-1.655131 2.9994957 -0.65225911 23.011499
2.2623289 3.0228348 -0.54901302 23.124001
2.4634438 2.9211075 -0.53806216 22.122583
-2.1253479 3.2114129 -0.70909846 20.009501
3.5933723 3.5592506 -0.62010396 21.117001
3.7352829 3.5442059 -0.49736771 20.449333
5.3440127 3.5718067 -0.58853638 14.113
6.202929 3.4325819 -0.59897566 12.1105
6.5251904 3.5429862 -0.43029666 12.1095
2.6964839 3.7264249 -0.58697265 23.121834
2.9966023 3.7417166 -0.67185348 22.675947
3.412205 3.7610624 -0.56511652 22.27169
3.7983904 3.7422316 -0.60352707 20.449888
4.1729083 3.7134132 -0.57477695 19.22225
4.5585518 3.7596982 -0.66744137 17.714499
5.0054917 3.7786839 -0.56176043 16.75593
5.3724041 3.8065026 -0.55339622 15.778915
5.8473158 3.8832169 -0.67882186 14.912199
6.1584806 3.8975744 -0.6388669 14.11175
6.4659953 3.8810434 -0.56009316 13.610126
6.9440675 3.8503184 -0.65103906 12.11125
7.8146057 4.0951428 -0.64706075 11.1105
-1.748118 -0.083669424 -0.23176812 8.5471735
-1.8422477 0.22015467 -0.18666703 12.868829
-1.3410052 0.23295002 -0.18446939 8.1864166
1.635763 0.28180516 -0.23909128 3
-2.4851487 0.54989535 -0.041345704 9.5356245
-2.1353171 0.53842276 -0.18010238 13.8325
-1.8337274 0.55246913 -0.13044882 17.367315
-1.2775462 0.50614518 -0.026003003 8.0187502
0.78183919 0.59124541 -0.361469 23.126499
1.0237448 0.55651551 -0.22136682 16.766386
1.389734 0.56144071 -0.22073759 10.858846
1.8144302 0.64364052 -0.20748673 8.3357697
2.0437641 0.75287539 -0.040867865 8.1169996
-2.8779397 0.93415773 -0.36069953 17.031
-2.7668531 1.1893055 -0.014986917 18.0355
-2.2274516 0.97791958 -0.11820632 17.367666
0.7919476 0.80947703 -0.36581844 22.129499
0.98148948 0.89825934 -0.25809792 22.291418
1.3024094 0.81998062 -0.034404814 18.118
1.8371031 0.99942732 -0.22174037 12.335753
2.0803335 1.0399827 -0.095141672 9.8791447
-2.8648486 1.4494383 -0.17231925 19.2344
-2.7561455 1.3860836 -0.12479992 19.784626
-2.3366966 1.3231152 -0.053410091 19.0355
1.5161076 1.4912307 -0.30419084 21.193319
1.7994491 1.3815147 -0.21019679 16.50399
2.1858249 1.4105493 -0.18028294 12.561631
2.505161 1.4695159 -0.25520089 10.537126
-2.927294 1.6558514 -0.21450865 19.950916
1.5353718 1.6390558 -0.27322942 21.391644
1.789995 1.7664354 -0.21294266 19.487574
2.2159684 1.7490997 -0.21750659 15.301659
2.4939587 1.761273 -0.20987627 13.083565
-2.884964 2.107269 -0.22186458 23.034248
1.847258 2.046226 -0.17295718 21.922802
2.1559529 2.2246029 -0.17407003 20.870312
2.5409527 2.1478381 -0.20379093 17.120064
7.2125907 2.220335 -0.28637242 5
2.321919 2.6394892 -0.32669145 22.371124
2.4924922 2.5204501 -0.073809721 21.7187
2.5171273 2.8553326 -0.30198967 22.121
4.8672733 3.1259036 -0.12070251 14.611
3.4564462 3.5818582 -0.021211624 23.1145
3.9083586 3.5358186 -0.33507776 20.11475
4.1001287 3.5273144 -0.12687854 19.446585
4.6938157 3.2437172 -0.32008684 15.1125
4.8117857 3.2810285 -0.27682841 15.112
6.2010455 3.3105116 -0.18991613 12.109
3.0530255 3.7011631 -0.316818 23.118834
3.4419875 3.7253184 -0.20717168 22.716402
3.8482566 3.7453532 -0.24325339 21.257677
4.2003312 3.7086108 -0.217628 20.113285
4.587882 3.6807175 -0.19072297 18.512199
5.045887 3.7150803 -0.16221936 16.825785
5.4233298 3.7704859 -0.23193653 15.94429
5.8137245 3.8088019 -0.14067307 15.110126
6.1705117 3.8384376 -0.14622319 14.309799
6.5179777 3.8493447 -0.26167208 13.608999
7.1405396 3.8822899 -0.21794611 12.10975
-2.1875713 -0.1226245 0.27515885 4.5
-1.7599559 -0.071888022 0.18877153 8.875
-1.5165586 -0.13860685 0.29959983 7.7565179
-2.4331579 0.22217204 0.25855723 5.4545455
-2.1401346 0.2189486 0.21278664 10.199725
-1.7517886 0.22489591 0.17243123 12.725202
-1.3939488 0.22203124 0.20903185 9.274437
0.95371944 0.3026998 0.30665913 12.267583
1.4268504 0.33287638 0.36911076 5.3333335
-2.4295456 0.56367856 0.17590679 10.980374
-2.2031808 0.63390499 0.2484798 13.70704
-1.725125 0.58583593 0.2258873 17.519949
-1.3767931 0.61874062 0.20168395 13.505618
-1.1015419 0.54221547 0.34160182 9.6876669
1.0197687 0.56637782 0.21542887 19.399996
1.3012918 0.59492356 0.19116253 15.799083
1.8031305 0.64372569 0.21558703 9.2602501
2.1266532 0.66618586 0.19300042 6.9905438
-2.415329 0.8164655 0.13048284 13.037251
-2.2071354 0.97131991 0.25673378 17.280151
-1.7339964 0.89724892 0.23003146 20.812962
-1.4457879 1.0207715 0.34524322 19.023375
-1.0480655 0.89459372 0.27725691 13.81915
1.4131079 1.0499889 0.20506676 21.112215
1.8996025 1.0217936 0.21760996 14.311249
2.1944275 1.0290452 0.16951461 9.8770056
2.4871182 1.0123487 0.20512016 6.8071251
-2.8244901 1.4451954 0.059071526 18.036501
-2.7095385 1.4865706 0.085584953 21.036251
-2.2455761 1.2414742 0.3991248 19.040001
-1.4624636 1.2067175 0.18362546 22.022249
-1.1113195 1.5001838 0.32599235 23.019249
1.5606815 1.2856572 0.28781545 21.61075
1.8422514 1.4152498 0.12703294 19.148657
2.1761148 1.3741087 0.22063407 14.296967
2.5138381 1.3773313 0.24870977 11.279848
-2.7074928 1.7122104 0.19160694 21.537374
1.8254386 1.7774849 0.20029825 22.143875
2.2194505 1.6923277 0.1705139 16.828957
2.6130197 1.7521639 0.21164542 14.782944
2.8030829 1.8613487 0.32923508 15.1145
1.9570982 2.1251597 0.1359446 23.120377
2.1001577 2.0993252 0.25954264 22.61825
2.6598558 2.0507312 0.26329255 18.115999
6.4463954 2.1815486 0.19371808 6
6.9921494 2.1744368 0.3100704 5
2.3661232 2.5269282 0.10557306 23.11775
4.6318245 3.0360985 0.23612535 15.55525
5.0733051 3.1118712 0.089842081 14.6095
6.6651516 2.9265835 0.31135964 10.1065
3.3228526 3.4404268 0.39356303 23.111
4.2962136 3.5155697 0.14099757 19.1115
4.5230598 3.471808 0.27452102 18.360374
6.7475348 3.4480824 0.20485473 12.107
3.2869673 3.6356483 0.038351417 23.115999
3.8402317 3.6757214 0.17684023 22.398409
4.1280103 3.6769001 0.24431887 21.486374
4.5824223 3.6630635 0.16857922 19.66589
4.8511496 3.6470511 0.26686049 18.359249
5.3792968 3.7100456 0.2025125 16.026207
5.7646194 3.7575023 0.26061368 15.5087
6.238626 3.8038595 0.15557273 14.108643
6.6079283 3.8010321 0.12645829 13.109
-2.1096401 -0.051627163 0.64316547 5
-1.7543004 -0.11935709 0.54217869 8.4217005
-1.4095201 -0.10578611 0.66666788 7.182375
-1.1592664 -0.10276487 0.61961097 8.0367498
-2.1020391 0.28927872 0.57514751 9.9300337
-1.7459075 0.1792827 0.54326737 12.824162
-1.4674017 0.19672845 0.63955957 11.801173
-1.1160092 0.16790541 0.73409492 11.3685
1.093815 0.28838968 0.50571209 10.811929
1.296881 0.30557385 0.73540193 8.6786003
-2.1008677 0.61168528 0.59234124 14.134512
-1.7571632 0.62326473 0.58631378 18.165058
-1.4703418 0.53944504 0.64279002 14.956687
-1.0621376 0.60768658 0.57861769 10.722975
1.1151651 0.55211145 0.53536552 17.608603
1.3391234 0.57850587 0.62794352 14.602179
1.7169029 0.61754131 0.67776954 9.0786247
2.2245297 0.73328793 0.6545378 6.8578844
-2.1536524 0.99296391 0.59920114 17.093842
-1.8055719 0.93740845 0.63252652 20.81118
-1.4550277 0.98527128 0.66212404 19.405779
-1.0203847 0.94621849 0.60444379 14.003213
1.4847654 1.0732156 0.51509124 22.104834
1.8447219 0.98715025 0.64202803 14.105624
2.2268569 1.0146118 0.59274441 10.820278
2.5381722 1.0291109 0.58762068 7.327342
-2.4726653 1.5440297 0.67327082 22.291374
-2.3170061 1.3834921 0.70721275 20.292376
-1.3095351 1.3888605 0.59954262 21.773251
-1.0064055 1.2948829 0.58152235 18.02035
-0.66419661 1.4033537 0.75074518 19.019501
1.8656844 1.4638407 0.59610063 20.488544
2.1643403 1.3889278 0.60899419 15.739323
2.511642 1.4024638 0.60214418 12.737686
4.0747814 1.3019226 0.66571599 4.5
-2.4936628 1.7480053 0.67617255 22.042084
-0.85002083 1.8084304 0.72699398 23.019249
1.9354419 1.8073794 0.57727325 22.614641
2.1511889 1.733068 0.64829099 19.550493
2.4735379 1.7712085 0.61296797 17.612812
4.1879401 1.7826964 0.64826399 9.0329285
2.1966982 2.0312879 0.6147871 22.780668
4.0074773 2.175802 0.75533617 13.108
5.1802135 2.3221686 0.49328065 10.107
5.5041718 2.0480113 0.7983917 8.1049995
6.5178156 2.0418723 0.63630575 5
4.7866073 2.7455025 0.63846678 14.107
5.2364955 2.5682044 0.60118431 11.1065
5.943862 2.4427376 0.54232699 9.1059999
6.1645799 2.653321 0.59824085 9.7723322
4.3572187 3.1580122 0.53318733 18.054501
4.6725106 3.1589632 0.71904314 17.107
5.0114102 3.0660198 0.62920666 15.273583
5.2347417 3.1534626 0.67391109 15.1065
7.3547888 2.9231491 0.66849291 8.1070004
3.4745688 3.4996138 0.4633311 23.11075
3.7225497 3.5267105 0.65046835 23.110126
4.2169108 3.4220746 0.67444342 19.572166
4.548408 3.4686289 0.6387192 18.483376
5.0387969 3.5841541 0.61160177 18.10725
6.4326477 3.4038863 0.71123564 12.107
3.8607094 3.629442 0.50892186 23.110834
4.265027 3.6691747 0.5632056 21.859034
4.6929984 3.6257632 0.47408208 19.1085
5.0182633 3.6718173 0.5175854 17.608749
5.5037513 3.6777439 0.63308471 15.107999
5.7629623 3.7250707 0.53718811 14.774833
6.0726051 3.7390761 0.5041762 14.108
6.5258398 3.7820835 0.56039268 13.536
7.1206079 3.9613385 0.7803334 12.107
-1.8367134 -0.038355358 1.0043161 8.8404493
-1.3966247 -0.10448522 0.90984887 7.7280412
-0.97209316 -0.082607202 1.0594764 6.6375718
-2.0904195 0.18570726 0.90021592 7.2291665
-1.8312429 0.23184128 1.0005673 11.639506
-1.3600713 0.2457685 0.93085128 13.264059
-1.0989798 0.21861142 1.0749507 13.358651
-0.63449413 0.28170067 1.0188339 11.262595
-0.35967088 0.38290164 1.1075957 8.5283756
-2.0391667 0.5618819 0.87296456 14.135419
-1.8758125 0.5697962 1.0181636 15.320226
-1.35418 0.5901171 0.98786205 16.846748
-1.0565764 0.65254241 1.0108393 14.074978
-0.49763802 0.55532914 1.1338843 13.886749
-0.28797641 0.69243908 1.0318884 15.739858
0.082285747 0.73346871 1.1214488 8.9395523
1.4143244 0.5758726 1.0343193 13.260585
1.8076141 0.71789199 1.0122092 10.850063
2.1673541 0.78086269 0.94728792 8.6025
-2.0315037 0.94279712 1.0105751 16.413204
-1.8481519 0.94466752 1.0180761 18.981945
-1.4339281 0.9022615 0.98942655 20.934259
-0.96895343 1.0533942 1.0509127 15.470222
-0.66080755 0.9822281 0.87175351 15.356166
-0.19414698 0.84697706 1.0769596 18.691666
0.13268749 1.0019087 1.0607932 16.345024
1.4326108 0.98624426 1.0269269 19.575869
1.8220612 0.98476315 1.0858881 13.49985
2.1422234 0.9916563 0.9596048 11.218095
2.4772902 1.0700164 0.9041146 8.7064371
2.8194525 0.94095373 1.0959033 5
-2.2118487 1.4522116 1.0379757 21.845301
-1.9641174 1.3141168 1.1299357 20.048
-1.3303255 1.3613366 1.0239967 22.528126
-0.99418384 1.2817589 0.95762521 20.858833
0.11999771 1.2760329 1.1121641 21.6385
1.4271061 1.2790307 1.0425986 22.595108
1.7741145 1.3731726 0.9630425 20.645796
2.173564 1.3844037 0.893426 15.781207
2.5514235 1.3266037 0.96939361 11.896344
2.9278991 1.4505125 0.86159587 11.109
3.8743908 1.2232563 1.0802699 5
-2.3035736 1.7589979 1.0330048 22.379
-0.71411723 1.6722066 0.86338818 22.520374
1.9595169 1.668295 1.1106071 20.433668
2.181319 1.8437649 0.91384822 20.691002
2.5108302 1.9011878 0.87011439 19.109999
4.1612153 1.7146189 0.95358789 8.7840996
4.4473901 1.8980197 1.0364664 10.1045
5.24225 1.959577 1.1258782 8.1035004
2.2651734 2.0372949 0.9268707 22.309299
2.4736919 2.0130544 1.0834627 21.10775
3.8953307 2.2665651 1.015123 15.065896
4.1338749 2.1693029 1.0019151 13.069833
5.4290018 2.0219762 0.91083735 8.1044998
5.6316934 2.2574389 0.98300695 8.0529995
6.2439642 2.1488853 0.95783567 6
6.5673933 2.1266441 1.0376208 6
3.7986462 2.6453128 1.066605 18.607
4.0220675 2.5261877 1.1791608 17.1045
4.7189837 2.6731126 0.83101684 14.106
5.8609543 2.5528316 1.0308622 9.7718325
7.6559238 2.6235037 0.82330978 6
2.8782113 3.0384915 1.0943122 23.103374
4.73314 3.0534551 0.85799664 15.10725
4.9440303 2.9682214 1.035234 14.938832
5.230792 2.9343419 0.9035008 14.105249
5.9127479 2.9390006 0.8354997 12.105
6.2161541 2.8910246 0.903763 10.1065
3.4208398 3.3842015 1.0287701 22.534786
3.7842669 3.466109 1.0124832 21.7945
4.2205572 3.516187 1.0817232 20.418375
4.5874548 3.4697421 1.0179856 18.644539
4.902276 3.4937835 1.0669049 17.855375
5.331913 3.5414493 1.0854107 15.438333
4.2691851 3.6597428 0.90296823 22.506802
5.2371855 3.6073389 0.82638609 18.106001
5.7113757 3.6984651 0.99191588 14.6065
6.1284561 3.7366829 1.0295913 13.605749
6.5064707 3.8648343 0.97387409 13.60625
7.0230713 3.8108873 0.99608636 12.439334
7.3242378 3.8465388 0.92163026 12.106
-1.7650779 -0.069925837 1.2077409 6.5215001
-1.4788309 -0.14926001 1.4374179 6.2441168
-1.1256694 -0.0069365818 1.5951171 8.0500002
-0.71737117 -0.15679595 1.3477384 4
-2.0291555 0.18676268 1.2407123 5
-1.7499725 0.26323879 1.3630642 10.207218
-1.4082782 0.16992863 1.3664606 11.584544
-0.9698059 0.20052701 1.3544241 12.408003
-0.60331112 0.20634608 1.4191532 9.8975096
-0.33381003 0.33615944 1.5202405 9.3958387
1.5519788 0.35975924 1.4471824 7.5454998
-2.0164223 0.59859616 1.2294695 10.571428
-1.7707034 0.60505366 1.3760957 14.536166
-1.434976 0.68762201 1.3843521 19.436739
-1.0148413 0.59288663 1.4291412 18.647659
-0.60373491 0.5942288 1.453967 17.094797
-0.21645656 0.64041609 1.3987322 12.272218
0.12935227 0.71137893 1.5619581 12.033
1.5253123 0.65876508 1.3553872 12.4232
1.7425712 0.69110763 1.4407266 12.293625
2.1141958 0.49700257 1.5238969 3.5
-1.7598263 0.98596507 1.369812 18.757961
-1.3717065 0.90521675 1.355209 21.194944
-1.099317 0.93033099 1.4797171 20.459942
-0.67877698 1.0176399 1.2067738 15.026
-0.13809568 0.97784418 1.3954042 16.616333
0.086219303 0.95282233 1.408643 18.502974
1.5425084 1.0596262 1.3531171 18.685667
1.7597132 0.96461344 1.4610032 14.594249
2.1652923 0.8270843 1.4764944 8.0970001
3.4022012 1.0382612 1.4139926 4.7294116
4.1744013 1.1574645 1.5821553 4
-2.0878525 1.477107 1.3272809 21.798248
-1.8837565 1.2308631 1.3799028 18.550499
-1.5269926 1.2832401 1.5626727 22.052999
-0.44036388 1.5106127 1.5648345 23.021999
-0.14902718 1.3398966 1.3944211 22.118351
0.05290395 1.3455973 1.213624 22.513582
1.4860054 1.2771705 1.342131 22.176001
1.7766144 1.3351408 1.326593 19.095999
3.3122759 1.3773562 1.4698708 9.8412504
4.214756 1.4663484 1.537262 7
6.310998 1.5523829 1.5136237 1
-2.1491857 1.7369894 1.4303159 22.327053
1.7701379 1.7284901 1.3044229 22.3475
3.3202214 1.7957596 1.4859891 14.7285
4.298336 1.794238 1.3779948 9.7272816
5.0376129 1.9518024 1.3434473 8.1043329
5.2752924 1.6822035 1.5863417 6
3.9535904 2.2412879 1.4971617 15.102
4.0803056 2.2668414 1.3497628 14.478001
4.4230542 2.0015583 1.2169206 11.1035
5.1490669 2.1403868 1.2275698 9.1049995
5.4321809 2.1842804 1.461553 9.7684994
6.3012285 2.1510563 1.2251467 6
7.2187099 2.3964388 1.252351 5
3.5312204 2.776335 1.5639601 22.104
3.8635092 2.5994813 1.3887911 18.340343
4.1279368 2.4013906 1.2154651 15.104
4.5324793 2.7050967 1.5002145 14.60375
5.0507684 2.5264788 1.5809453 13.1015
5.3812923 2.5186682 1.4186118 11.103251
5.6931539 2.5287609 1.3852623 9.60425
6.2721305 2.643461 1.5899749 9.1035004
2.7543011 2.977864 1.4612169 23.1
3.0239406 3.1356673 1.4346457 22.5012
3.5561728 2.8398442 1.517158 22.6035
3.6579487 3.006216 1.3940244 21.881721
4.7369785 2.8865571 1.3344945 15.10475
4.9370675 3.0124559 1.4612998 15.436916
5.5386057 2.8939619 1.2538327 12.105
3.0943973 3.2566528 1.4435244 22.435165
3.4184985 3.3365462 1.3916504 21.853437
3.8141668 3.3628719 1.378821 20.103676
4.2042518 3.4713764 1.4040998 20.215584
4.6121087 3.5162301 1.3459557 18.467819
4.9867353 3.5194538 1.3773549 16.757885
5.4672174 3.5195072 1.3900228 14.104
6.1981015 3.5228314 1.4883926 12.104
6.689693 3.3774469 1.2427537 10.105
5.4782782 3.6469984 1.4913913 15.1045
5.7075539 3.695967 1.3519076 14.354875
6.156858 3.7853949 1.4422383 13.437667
6.6381717 3.7618239 1.4109669 12.438083
6.8539238 3.7976162 1.2552371 12.1055
-1.2903162 -0.059375644 1.7549328 7.0246248
-1.0511367 -0.10764459 1.7955759 5.4499998
-1.6652542 0.24948005 1.7420019 7.3854165
-1.452724 0.26083049 1.8267361 10.464754
-1.0013214 0.17947836 1.8151809 10.401294
-0.62291801 0.25274056 1.8094019 10.945438
-0.23060647 0.32303798 1.7745326 9.5641088
0.0010930896 0.34686542 1.915283 8.0477505
1.6055979 0.39738905 1.6081918 8.0900002
-1.6616495 0.67879158 1.7640023 13.461751
-1.4135654 0.60367787 1.8210509 15.034291
-0.9377777 0.61998457 1.7974899 15.912073
-0.57486957 0.59165192 1.785601 15.404865
-0.21260309 0.60829729 1.7979462 16.181553
0.15735869 0.67028946 1.80933 11.552653
1.7352837 0.61618298 1.6617699 10.1595
-1.7673786 0.99127519 1.7560743 15.528125
-1.3941448 0.95165712 1.7836237 20.699621
-0.96091008 0.95939827 1.8230391 20.618969
-0.61476034 1.0083539 1.7652774 18.069271
-0.20723943 0.87833214 1.7855546 21.885891
0.15386797 0.98089367 1.8060124 20.553272
1.5991918 0.91841519 1.6070223 16.091249
1.8486694 0.98592234 1.6878738 12.59325
3.0297754 0.98547196 1.8853408 6.9609046
3.7842417 1.1042254 1.8437436 4
-1.8367424 1.4034553 1.8549011 19.515385
-0.81228906 1.2587054 1.9331777 18.5315
-0.67501581 1.413404 1.783718 20.948122
1.5951542 1.2125078 1.7210323 19.0905
3.0663188 1.3957889 1.8617516 12.060694
3.360884 1.3673798 1.7864624 9.5982914
4.2218003 1.533767 1.7689385 8.0993748
4.450932 1.5890425 1.767853 8.0994997
-2.0575237 1.7867895 1.7234294 22.718332
-1.973902 1.749257 1.8489577 21.910213
-0.77520764 1.6079264 1.9380021 23.0275
3.0626068 1.7547251 1.818085 17.005459
3.2059367 1.9141617 1.8991276 17.097834
4.1855478 1.7054787 1.8137382 9.670928
4.5106726 1.7140253 1.6356628 9.1005001
4.9887309 1.7015976 1.8690232 6
5.3532114 1.7916894 1.7786729 5.5
5.7109852 1.7256595 1.8957846 5
6.1574211 1.7798281 1.697726 3.75
-1.9291034 2.0181091 1.971503 23.054251
2.9051659 2.1188605 1.9276162 21.973749
3.8565874 2.1916506 1.7486198 15.100499
4.1365943 2.1368196 1.8885771 14.099072
4.7011724 2.0934079 1.9851216 9.1014996
5.0369916 2.1450572 1.8958379 9.3874283
5.3954434 2.2291119 1.8805385 8.3521252
5.7055917 2.2163506 1.8081816 8.1023331
6.0944777 2.1439798 1.6879762 5.5
6.4325118 2.0690498 1.7460096 5
3.4087334 2.663754 1.6848682 22.902201
3.7406852 2.6549127 1.8296911 20.099833
4.6311865 2.6186798 1.889589 13.768333
5.0198569 2.5882602 1.8030726 12.60125
5.2608013 2.548799 1.7712637 11.10175
5.8064532 2.4702516 1.8453701 8.7017508
6.0959201 2.5632491 1.6733508 8.3273754
2.9937012 3.1308329 1.8261005 22.598999
3.7717154 3.0971143 1.7864411 19.509342
4.5829539 3.0480466 1.800976 16.302401
4.8952956 2.936245 1.729351 15.501699
5.4158473 2.8112388 1.8553083 12.1025
5.8356194 2.9874868 1.850638 10.734833
3.0405831 3.2505445 1.9172813 22.098751
3.4493237 3.3240316 1.7877859 22.184752
3.7470481 3.3378074 1.7935734 20.315588
4.1304641 3.3649924 1.7933419 19.238274
4.5788584 3.3885589 1.7872741 18.101814
4.9079766 3.4640498 1.7964885 16.502401
5.5284257 3.5861518 1.6579833 14.103
5.7903128 3.4918096 1.8466846 13.123428
6.1187863 3.3877783 1.7707986 12.103333
6.5148163 3.4913194 1.6720132 12.10375
4.7632594 3.6150568 1.7596362 16.101999
5.1403527 3.6307917 1.9663126 15.1015
5.3992801 3.6685891 1.7683007 15.102929
5.8317208 3.6178563 1.7653379 15.103001
6.170197 3.8147213 1.6913618 13.770333
-1.3339012 -0.085366771 2.127943 3.5
-1.6132076 0.23152193 2.0133808 5
-1.4171124 0.2923122 2.0916994 8.7137079
-0.90115905 0.23735665 2.1278017 10.117516
-0.61231089 0.26358798 2.208647 9.9142275
-0.29242679 0.30532208 2.2091944 9.0916157
0.089895785 0.31643045 2.1922746 6.3333335
-1.6303635 0.72172564 2.2994535 10.7245
-1.3498834 0.55982238 2.1792691 12.637959
-0.9652732 0.61481178 2.1781154 14.024474
-0.66453773 0.58493149 2.2339957 15.37165
-0.21403477 0.54324228 2.1702085 13.864862
0.19303752 0.64115006 2.1512847 13.845272
0.41052112 0.60048926 2.1346536 10.04825
-1.7088741 1.0294886 2.1975226 15.256498
-1.3060931 0.86384046 2.0910099 18.277666
-0.96799356 0.9812752 2.1442783 17.980911
-0.71237463 1.0075208 2.2459402 20.926233
-0.28852457 0.86040789 2.2602112 19.885626
0.31966376 1.0332148 2.1166332 22.046499
0.54426455 0.8083508 2.2287362 16.05225
2.3072226 1.035248 2.3391604 13.590251
2.6081121 0.99102384 2.2533062 10.253292
2.9710479 1.0530616 2.1654372 8.307889
3.2027845 1.1934745 2.3079329 8.5927505
3.6170583 1.0356812 2.0889294 4
-1.7899386 1.3714445 2.2334447 18.056221
-1.4936479 1.4576751 2.2619991 21.058001
-0.94686604 1.3950649 2.1986134 19.877077
-0.76258528 1.5399579 2.081445 22.783001
2.6730115 1.3819472 2.3359082 15.351242
2.930033 1.4278177 2.202374 13.568983
3.2759607 1.3093637 2.1616151 9.6659288
3.9077313 1.4701657 2.198842 8.0983753
4.2251062 1.5021567 2.228004 7.8229375
5.0458169 1.4960681 2.2258606 4.5
5.4353437 1.315907 2.2620196 3
5.7534804 1.3667194 2.3931689 3
-1.8075871 1.7683092 2.2100155 21.621271
-1.5525293 1.8342745 2.3994217 23.0585
-0.88575488 1.630031 2.1781614 23.025499
-0.38793015 1.6558242 2.2154253 23.068001
1.9193108 1.835446 2.1893408 21.088499
2.6715465 1.819028 2.2959404 21.2029
2.9978416 1.8066658 2.1641412 17.361181
3.566489 1.9511369 2.3363514 13.09725
3.8391907 1.6801381 2.2058182 9.9313326
4.1410913 1.6673651 2.24667 9.097167
4.6168594 1.892143 2.0844467 8.0502501
5.1895542 1.8960862 2.3647058 5.8000002
5.373971 1.7546042 2.1960003 4.958333
5.7248836 1.8423347 2.0964983 4.8333335
-1.7572713 2.0512741 2.1950178 23.056499
1.8648103 2.0169401 2.0303414 23.089001
2.7704287 2.0274982 2.1171927 22.596249
2.81689 2.0675488 2.0526905 22.597126
3.4195175 2.1840053 2.2879617 17.596375
3.6858623 2.1459286 2.1582973 14.527391
4.0802851 2.2843761 2.2510531 15.846687
4.6743302 2.1220207 2.2764575 9.6998997
5.014215 2.1756814 2.243505 9.2000513
5.4356117 2.2627258 2.2623196 8.1005001
5.7404499 2.2820423 2.1245956 8.1009998
3.5073926 2.4745471 2.1647573 20.09675
3.6523032 2.6645391 2.02915 21.098249
4.245914 2.5726995 2.2471089 14.599062
4.5957923 2.6857331 2.1162672 13.878222
5.0366244 2.5759771 2.2888162 11.100001
5.3028603 2.5083866 2.1203442 9.6012497
2.6067784 3.0521092 2.0923204 23.095501
3.0871654 3.1491616 2.1957521 21.541584
3.5133712 3.0051842 2.3243773 21.239536
3.719166 3.0764203 2.1183896 19.348251
4.3454442 2.8541298 2.1326108 16.10025
4.4687557 2.9112363 2.2090385 15.10025
4.8719378 2.831342 2.3144126 12.099751
5.4207907 2.8761644 2.0845723 11.10125
5.7042675 3.0629494 2.1886065 11.60125
3.1332424 3.2295251 2.1847117 22.240999
3.4599681 3.3026817 2.2216964 21.76511
3.7562096 3.3118787 2.185714 20.532543
4.1473627 3.3505025 2.1897206 18.945885
4.5885787 3.4019406 2.2007537 16.942265
5.0080132 3.4575706 2.2359757 16.800076
5.3669815 3.5794947 2.1201851 15.435
5.7724028 3.4713211 2.1319585 13.351375
6.0792561 3.4861166 2.1708853 12.4015
6.5549183 3.3299377 2.0480251 12.102
5.1831841 3.6045327 2.1076741 16.101749
5.9168544 3.6933939 2.255815 13.400666
6.1809344 3.6832643 2.2743771 13.101749
-0.96426702 -0.10284595 2.6042917 4.5
-0.64842343 -0.084446937 2.7697582 3
-1.3645316 0.18655097 2.6385121 3.7
-0.82671106 0.21414222 2.6096177 8.0602503
-0.5505591 0.28529689 2.5203946 8.8129997
-0.19305855 0.31396845 2.5108752 8.1751871
0.029579997 0.3874104 2.7419581 8.0574999
-1.6148598 0.7598356 2.4745417 10.55875
-1.428574 0.6440773 2.5997834 10.24605
-1.0457716 0.62144357 2.5543022 10.645801
-0.57185173 0.57731014 2.5865157 13.161879
-0.22579895 0.56012613 2.6032002 12.254889
0.10942364 0.59765786 2.4957476 12.890583
0.95973611 0.7294867 2.7414374 15.0615
2.2355905 0.70607501 2.5590646 7.2765369
2.6320829 0.76042235 2.5797567 5
-1.6376747 0.99260688 2.5757408 14.046801
-1.3949562 0.96140712 2.6311343 13.683393
-1.1167462 1.0868108 2.5071211 16.282375
-0.62446278 0.99074012 2.5197682 19.288404
-0.32739654 1.022493 2.6721947 20.168028
2.2436912 0.96602374 2.6614268 12.643737
2.5262556 1.0693562 2.6113167 11.430423
3.0023153 1.0336535 2.5732429 7.5219002
3.2978961 1.0583143 2.5437217 5.3333335
3.7444973 1.0991685 2.6394908 4.6666665
-1.6903325 1.424078 2.5506513 18.469042
-1.5605959 1.3168366 2.7087581 16.977999
-1.135107 1.3460538 2.4931557 18.533751
-0.47000226 1.2431021 2.5660939 23.055401
-0.31336832 1.2963351 2.7336426 23.055
2.3289218 1.4066919 2.7238879 17.994375
2.581326 1.3959473 2.5780058 15.912262
2.9659944 1.3548558 2.5796585 11.964625
3.4743428 1.4588113 2.6693308 8.2569504
3.7771425 1.5174909 2.6047766 8.7620831
4.1697717 1.4351071 2.5856445 7.9116664
4.6477079 1.3867575 2.5816872 3.7870369
5.0324082 1.3688952 2.4683659 3.6666667
-1.6582713 1.781865 2.4915354 20.293688
-1.4378519 1.8047342 2.6799569 22.178637
2.3311081 1.6977215 2.7086341 21.585958
2.5588381 1.7831117 2.5633812 21.142466
2.9896622 1.8198916 2.614011 15.842479
3.4331872 1.7905107 2.636606 12.538778
3.7785819 1.772734 2.5812135 12.3435
4.1426921 1.8529389 2.6044552 9.4862499
4.6142673 1.8687184 2.5584164 7.2392998
4.9145379 1.8216912 2.5697889 7.3986664
-1.6116688 2.1151676 2.4173636 23.0585
-1.4605554 2.0905902 2.5961452 22.615776
1.3300458 2.2744703 2.7707639 23.082251
1.8724754 2.3157947 2.5678697 23.086927
2.5147305 2.006309 2.623189 22.754749
3.4256444 2.2050948 2.6248498 15.864481
3.8380091 2.2236147 2.590663 15.458251
4.2984924 2.1150682 2.6682205 10.1179
4.5710883 2.1831417 2.5471268 10.2983
4.9169641 2.2002814 2.4650586 9.4157495
5.3747535 2.258606 2.5332389 8.4326668
5.6138916 2.2876132 2.454659 9.0994997
3.0442476 2.6952441 2.6473408 21.594439
3.3684888 2.7850676 2.5819399 23.0935
3.8672144 2.5131092 2.7313445 16.094812
4.2010341 2.5880892 2.6210749 13.222667
4.5906062 2.6002548 2.6195152 13.098
4.937396 2.5661216 2.5774655 11.0985
5.3785491 2.5508306 2.5883493 10.099
2.7441988 3.0980434 2.5999856 22.294001
3.0300345 3.0828552 2.6011047 21.017616
3.4184213 3.029876 2.5608153 20.495502
3.8727283 3.0198064 2.69189 16.796644
4.1850328 3.034723 2.6432614 15.08125
4.5541911 3.0055819 2.4447889 14.09875
5.2995849 2.852957 2.5019906 12.1
3.0971303 3.2288964 2.6121495 21.095249
3.4561379 3.2489393 2.6120026 20.263124
3.7482548 3.289747 2.6005678 19.430666
4.1723671 3.3146591 2.6291454 18.564018
4.5817504 3.3486197 2.5793805 16.910593
4.9261684 3.3672013 2.6627517 16.098751
6.234467 3.8070552 2.5089989 13.101
-1.3512781 0.28369084 2.9624715 6.1640835
-0.63402891 0.34084642 2.8823171 8.7298326
0.17698598 0.28617808 2.8078449 5
-1.4018078 0.59366608 3.0100293 9.2592068
-0.8739537 0.51441467 3.1524653 10.0625
-0.28329054 0.61702126 2.8645651 12.727208
0.040090241 0.5906347 2.8940072 11.258899
1.8600259 0.67711169 3.0102661 9.162569
2.147301 0.74124223 2.9089956 8.0904999
2.5797338 0.73465538 2.9971211 4.7888889
2.9056053 0.71769023 2.9746099 4
-1.3698417 0.96458364 3.0004976 13.483333
-1.109006 1.0015216 3.1400349 14.3965
-0.1184032 0.97523892 2.9252086 17.8591
0.053894162 0.87931782 3.1361251 15.06075
1.9153695 1.0416281 3.0898459 14.673944
2.1591048 1.0497074 2.9951401 12.597885
2.5523469 1.036078 2.9332199 9.4102688
3.0680742 1.0714307 3.1518855 5.5
3.5978353 1.1624868 3.0098591 6
3.6878955 1.1336774 2.96668 4
4.1480737 1.1607647 2.9352818 5
-1.3727168 1.4202799 2.9760687 18.503471
-1.1728892 1.3311536 3.1709843 14.5
-0.060269397 1.2897806 2.90536 22.3925
1.9148251 1.371577 3.1170344 18.765724
2.1887076 1.3900156 2.9787688 18.128546
2.5710576 1.3892653 2.9635258 12.7871
3.0021729 1.4411659 2.966938 11.46378
3.441628 1.4961953 3.0175264 9.3144999
3.8077209 1.4598179 3.008867 7.9791565
4.1471291 1.2916399 2.9232304 5.5
4.410068 1.5082234 3.1928387 6
4.8022871 1.4816034 3.1210022 6
-1.3185413 1.7800326 3.0268471 21.674131
-1.1022087 1.8314503 3.0516675 21.706356
1.8000454 1.7655896 3.108875 23.077002
2.2065704 1.7880374 3.0210798 21.664309
2.5522034 1.8228365 2.9027183 18.087999
3.0451622 1.7826611 3.0746777 12.96586
3.3847408 1.8075501 3.0379498 12.209382
3.8206017 1.8310648 3.0232048 10.292974
4.1804156 1.7980381 2.9899089 9.0785837
4.5536366 1.6663014 3.0023236 6.375
-1.2405469 2.2478833 3.0051498 22.063
-1.0051627 2.1879027 3.1010349 22.898333
-0.68387544 2.2959907 3.1052365 23.066999
-0.21454807 2.2978456 3.0948327 23.070417
0.67243034 2.2792699 3.1390369 23.077166
1.0218762 2.2804472 3.0400062 23.080151
1.5174061 2.3630192 3.1511383 22.583
1.7705607 2.3665149 2.9109013 22.585291
2.2220392 2.3681593 3.0110226 20.961563
2.6450288 2.3006902 3.111551 20.088999
3.0866365 2.3318384 3.0534654 17.64728
3.4194229 2.2402427 3.0376759 15.092502
3.764729 2.2591558 3.0172944 13.03963
4.1513128 2.1357572 2.9574764 10.4669
4.5178523 2.2620018 2.9735677 11.595875
4.8387589 2.1017518 2.8576496 8.0970001
1.4182631 2.6373019 3.0512121 23.084251
1.6662123 2.7874825 3.1168485 23.086
2.9177787 2.4682391 2.9495749 20.19165
3.4243407 2.5771554 3.1066451 18.105682
3.8188171 2.682204 2.9907029 14.563667
4.2333674 2.4558508 2.9715164 12.429333
4.6626043 2.4307492 2.9272549 12.096251
2.6406362 3.0257654 3.0218713 21.783596
3.0014033 3.0823686 3.0384517 20.413713
3.3865163 3.0504363 3.0208297 18.456732
3.7772264 2.9915321 2.9372141 17.740057
4.2350492 2.9933257 3.0042541 15.277774
4.5130544 3.0568717 2.8519607 15.0975
3.1316185 3.2117288 2.9343135 20.760584
3.4624295 3.2628739 2.9843864 20.494699
3.7670403 3.2649848 3.0089576 19.545149
4.130825 3.3247147 2.9582624 17.959522
4.5394783 3.2706683 2.9327693 16.525213
-1.2328315 0.28777909 3.2414012 6.2314997
-1.0218744 0.13753796 3.4739614 4.25
-1.2714914 0.70329326 3.2471759 9.9504995
-1.0594258 0.63058507 3.4104879 9.5697689
1.4749616 0.6676122 3.5141921 8.5944109
1.7368938 0.67787272 3.3776362 8.3249989
2.2385991 0.65406626 3.2645886 3.8888886
-1.2507741 0.96925664 3.2331665 12.172438
-1.0275738 1.0448624 3.3840301 13.613763
1.1220407 1.0753176 3.5297718 14.0665
1.4846456 1.003673 3.4723926 13.032789
1.7726533 0.9759801 3.368618 12.787606
2.185745 1.008936 3.3150322 9.6629992
2.5597727 1.080418 3.5008953 7.6013336
3.0055618 1.0280725 3.4451706 5.1395001
3.4125667 1.1329857 3.3440642 5.5172
3.7517195 1.1729802 3.3410635 6.1956668
-1.2047496 1.532357 3.312412 18.063999
-1.0760682 1.4103644 3.401933 15.71375
1.13976 1.4846706 3.5491507 19.817375
1.4276832 1.3226967 3.4324322 18.237083
1.7894437 1.381104 3.3677394 19.662731
2.1212218 1.3708827 3.4069786 14.36625
2.617604 1.4961897 3.4532254 10.987101
3.0060976 1.4881293 3.4515057 9.731286
3.4074538 1.482837 3.4035172 9.571723
3.7337058 1.4389025 3.2939396 7.9429283
4.0352387 1.4297299 3.4901154 6
4.5212016 1.4594067 3.2887912 5
4.8576388 1.5035168 3.2166681 5
-1.2705766 1.8451703 3.2276919 20.563499
-1.0757066 1.8209871 3.2958214 20.714123
1.4260859 1.6253543 3.4628477 21.070999
1.8327042 1.7610401 3.4086816 19.57925
2.2372131 1.8275818 3.4064972 16.68515
2.6504757 1.8033155 3.423486 13.373439
2.9658897 1.8075311 3.4175768 11.961046
3.3770435 1.7992554 3.3668921 9.9388161
3.7662501 1.8070117 3.3817806 8.6637859
4.2901406 1.7698599 3.2132173 8.0947495
4.5577364 1.9989184 3.3053017 10.094
-2.4514337 2.0613759 3.2886529 23.0455
-2.2927613 2.0181751 3.3194346 23.046249
-1.2281531 2.0622544 3.4697747 22.063999
-0.99701118 2.2029188 3.4492445 22.62114
-0.65393794 2.2149923 3.3862023 22.768002
-0.19895622 2.2366347 3.392982 22.721201
0.20484404 2.2802312 3.3727262 22.710272
0.60115796 2.3009813 3.4219344 22.410126
0.90787584 2.3469296 3.3759012 22.077999
1.3569087 2.3565547 3.3866255 21.747833
1.8926255 2.2046134 3.508425 20.582541
2.2277174 2.2972391 3.3762081 19.529972
2.6003759 2.1570776 3.445276 17.287167
2.9738352 2.1997106 3.425405 15.422517
3.4166641 2.1964653 3.3747125 13.116875
3.8078544 2.1399949 3.3924537 11.207633
4.1190772 2.1397994 3.3738933 11.236214
4.612628 2.0376909 3.2259603 10.0945
4.815196 2.0971696 3.2446604 8.0955
-0.91583645 2.4183118 3.4131575 22.066
0.16413033 2.4214265 3.5455363 23.073999
0.63487995 2.4039705 3.5636425 22.076
1.0657268 2.5857759 3.4375622 22.88055
1.4350652 2.6693051 3.3336127 22.654787
1.8706363 2.5070395 3.4704914 21.418249
2.2144389 2.493933 3.5212405 20.800215
2.5792034 2.5091546 3.4049227 20.598974
2.9892709 2.6003473 3.4828467 18.19541
3.330848 2.5432777 3.4233766 17.038116
3.7730408 2.6701941 3.3765166 14.378821
1.598859 2.8053644 3.3216169 22.084499
1.7980129 2.8850918 3.390825 22.085501
2.2643793 2.9857481 3.3727295 21.587954
2.6491537 3.0612919 3.4255624 20.709352
2.9476502 3.0024519 3.3216927 19.561115
3.4018817 3.057879 3.4420679 19.591644
3.7448759 2.9849539 3.3673835 17.109125
4.218605 2.9664621 3.2832341 15.59425
3.2344708 3.201489 3.215837 20.093
3.8165121 3.2714765 3.2712984 18.5935
4.2554083 3.2667456 3.5312119 15.09375
6.9353418 5.1101408 3.2915514 15.099
-0.71854341 0.0033853035 3.6728857 4
1.1995816 0.35107902 3.8512249 5.818182
-0.92869484 0.57158905 3.6186488 9.0658751
-0.72933406 0.55115765 3.6542473 9.0647497
1.079085 0.68739265 3.8495932 9.2824345
1.3319795 0.68523592 3.7024677 8.8717861
1.8659567 0.59801733 3.8098595 4
2.1041102 0.64123195 3.8396931 3.6666667
2.6294923 0.71342599 3.7925105 4.5
-0.95635653 0.97394496 3.6499944 12.065599
1.0799468 0.98028171 3.8932712 14.668583
1.430046 0.93563652 3.7275159 12.582657
1.7795792 0.95480567 3.8376489 8.6807499
2.2058229 1.0852747 3.8197722 7.5665002
2.5755851 1.0509129 3.8146574 6.7464442
2.9332883 1.1901447 3.6572945 8.0859995
3.32587 1.1678286 3.6649518 7.0421247
3.6849256 1.1875526 3.7840691 4.5
1.1176112 1.347186 3.8065245 19.280142
1.3796165 1.4525917 3.6945717 20.553371
1.858488 1.2477967 3.8364055 11.578834
2.2399135 1.3507671 3.8265376 9.8669052
2.5638471 1.3982711 3.7202404 10.34899
2.9770672 1.3774763 3.7630961 9.1693964
3.2867126 1.4745284 3.7393439 8.2454443
3.6617296 1.3872287 3.7573314 5.6666665
-3.0334055 1.8009472 3.9622619 19.046749
-2.7642336 1.9239606 3.9272451 20.047501
1.0752463 1.6131423 3.9693203 23.065001
1.5888901 1.7842945 3.9365368 18.075874
1.8090839 1.8002753 3.8636992 14.7485
2.2337532 1.8129038 3.795563 13.646792
2.5636809 1.8038958 3.7767062 12.532042
2.9167387 1.8116421 3.8010199 12.813
3.3472955 1.7360139 3.7214482 9.2560835
-2.5286639 2.1536794 3.8244617 20.0425
-2.2015486 2.1688733 3.9523211 21.04425
-1.7314054 2.2318859 3.8781099 23.04425
-1.4062499 2.0868471 3.8957493 22.890665
-0.97840309 2.2041991 3.8141413 22.247318
-0.61046118 2.2767355 3.8004553 22.145306
-0.1571627 2.3545694 3.8023109 21.871227
0.21968561 2.35325 3.75879 21.073612
0.574534 2.3720481 3.778554 20.825624
1.0490097 2.3725126 3.833849 20.453564
1.4129018 2.2640593 3.9073415 20.21657
1.8021632 2.207885 3.8117175 18.677465
2.2108734 2.2279122 3.835017 17.87244
2.6000171 2.2270939 3.7944653 15.694811
2.9850399 2.2018094 3.7602229 15.83168
3.3096619 2.1017897 3.760155 11.58975
3.7398648 2.0783415 3.6718979 11.09075
4.117249 2.0910702 3.9356856 9.0915003
-0.67771769 2.4139838 3.745182 21.317875
-0.047552139 2.4102888 3.9934936 22.071501
0.19675711 2.4449871 3.7807119 22.787891
0.65362412 2.5878568 3.8194144 22.632444
0.97247714 2.652549 3.7693846 21.912582
1.3962713 2.6505644 3.8471358 22.388653
1.7628373 2.5918245 3.868741 20.083
2.2034423 2.5735886 3.80441 18.992027
2.6185176 2.5578747 3.7616866 17.596443
2.9497111 2.4879127 3.7015064 15.910583
3.2495964 2.6405714 3.722697 16.535858
3.7957296 2.6411464 3.878238 16.089918
1.2953286 2.8324091 3.7499821 22.081499
1.7905229 2.97346 3.869585 21.083834
2.2666306 2.9516032 3.8350539 19.218975
2.6029856 2.9598539 3.7884045 19.110821
3.0108719 2.9874718 3.7995539 17.919374
3.3811157 2.9612064 3.6797967 18.122799
3.732023 3.0726795 3.8376172 15.091249
4.0425105 2.8285758 3.6152782 16.091999
3.9374428 3.2167149 3.7318807 15.09225
4.1760597 3.2632694 3.6836424 15.093
7.4217963 4.6822562 3.6858485 13.0985
0.94649506 0.2899226 4.016345 5.5714288
-3.0481391 0.49695343 4.3599997 8.0434999
0.88462406 0.62370527 4.1123109 10.186937
1.3710939 0.60744339 4.2447352 4.4250002
1.8415232 0.67511356 4.1430016 4.5641022
2.1812873 0.70143652 4.147655 4.1875
2.5284162 0.6753251 4.1960511 3.3333333
-2.9812775 1.1745113 4.2109609 14.04775
0.59706295 1.0099633 4.2391024 12.397167
1.028283 1.0306036 4.2529583 12.523846
1.3981235 1.0453583 4.2534971 8.9746332
1.791033 1.1302831 4.191658 9.0397797
2.146575 1.1077001 4.1499057 8.7324171
2.6434164 1.0982555 4.2181387 8.2198334
3.0102792 0.83203697 4.2668991 3
3.2995827 0.9521336 4.0903521 3
-3.6991127 1.2366877 4.2741532 14.046
-2.4833584 1.5021847 4.2362313 15.71
0.45542049 1.2592217 4.3883052 15.06125
0.98958498 1.4286383 4.2533894 16.735718
1.3815455 1.3759185 4.2420125 12.032318
1.7865871 1.3705703 4.2145591 10.656604
2.2693479 1.2561337 4.2437863 9.8804998
2.6091154 1.3139498 4.1591454 8.8744001
3.0205126 1.3764893 4.2378955 7.3143749
3.577286 1.4523357 4.1066394 6
4.1617012 1.3431963 4.0066423 4
-2.8795745 1.86094 4.1080985 18.712833
-2.6236622 1.9202942 4.2998419 18.546999
-2.3201754 1.9613166 4.231432 20.550499
0.66218346 1.7823 4.310317 19.781429
1.0307536 1.779897 4.250134 16.874949
1.4024985 1.8022418 4.2655153 15.383629
1.806612 1.7544767 4.1960044 13.95369
2.1880248 1.7411071 4.2090898 12.755955
2.5929585 1.757835 4.1734529 12.504012
2.9612968 1.7702248 4.0961175 11.335438
3.209348 1.8929527 4.2746091 9.0874996
3.7663958 1.6909927 4.3435302 11.089667
-2.4160795 2.1697898 4.3213601 21.041
-2.1020763 2.1182406 4.2331882 21.378332
-1.8886951 2.1458397 4.1543756 21.547464
-1.3788912 2.183192 4.2505651 22.440117
-0.96893001 2.2063179 4.1781578 21.201429
-0.58465821 2.265728 4.19736 21.085762
-0.24193463 2.2935467 4.2452707 20.332447
0.24804376 2.3073697 4.2472692 19.891319
0.62728876 2.3083732 4.2250586 19.356813
0.97296661 2.2917883 4.2394261 18.532183
1.4165465 2.1747875 4.1896825 17.964266
1.7944872 2.1586661 4.145411 17.680574
2.1713269 2.1906619 4.1913776 16.678963
2.6444457 2.1579235 4.1503978 17.354841
2.9191353 2.1760747 4.135078 16.4853
3.5029652 2.1808352 4.3750701 15.0875
-0.16128232 2.4533069 4.2900147 21.071249
0.32223186 2.5125253 4.2184544 21.823626
0.57966357 2.6142275 4.2381811 20.766525
1.0184435 2.6527584 4.1509938 21.695675
1.4554408 2.6118863 4.29918 19.541327
1.8119771 2.652035 4.1772418 19.387403
2.1564472 2.6792531 4.1503677 18.654301
2.6191721 2.594238 4.1743422 17.485249
2.9362006 2.6335504 4.0691309 16.516142
3.6031621 2.5052724 4.025773 16.088499
1.4447556 2.897521 4.2603989 20.580875
1.6928887 2.8387856 4.1922359 19.582251
2.2170243 2.8981924 4.183033 19.584499
2.5752001 2.9503794 4.1356249 19.919458
3.067992 2.9398863 4.2310061 20.086084
3.244101 2.9378822 4.1203151 19.08725
0.20737344 0.24706121 4.7406116 5
0.48144734 0.30033484 4.6591663 5
1.1800152 0.34615007 4.4294138 3
3.0233445 0.16969264 4.7591476 2.5999999
3.3552055 0.1533117 4.6280222 2
0.33286798 0.52600574 4.7552366 8.5592499
0.6225273 0.71015078 4.6658587 8.5246744
1.0914567 0.53561407 4.5537081 5.125
1.3841639 0.54627079 4.6650033 5.6666665
1.7861824 0.65134066 4.6048121 5.5
2.2550616 0.73845935 4.4098949 5.3333335
3.0450151 0.55143082 4.7770085 4.3333335
3.4061878 0.54790813 4.6175256 4.5
3.6142361 0.66025358 4.5185471 5
-0.090145707 0.96154523 4.7272205 12.057875
0.16187148 1.0213708 4.7079101 11.919856
0.66766363 0.98246521 4.6468701 11.542833
0.96883762 0.98113424 4.5710273 9.7560759
1.4148772 1.1028346 4.5054398 10.6725
1.7524362 1.1613019 4.4613967 10.076125
2.1909738 0.9822911 4.4705191 6.7687502
2.6697464 1.111356 4.5945387 9.0807495
2.9875531 1.0337574 4.6961517 6.9178753
3.3115478 1.0450108 4.6232557 7.686357
3.60923 1.1143014 4.645998 7.7940001
-0.13847828 1.2178172 4.733376 14.057751
0.23309383 1.3668208 4.6814456 14.067591
0.62169588 1.3875687 4.5901933 14.562979
0.98152721 1.4150516 4.6021342 13.078589
1.3640311 1.4304471 4.5845156 12.683349
1.7900212 1.3856994 4.6309829 11.576344
2.1247025 1.3874816 4.602138 11.327416
2.6225593 1.4456824 4.6656737 8.8842993
3.04916 1.3427937 4.7006965 8.9902143
3.4039578 1.4454777 4.5711823 9.4987497
3.7580557 1.4547637 4.4781809 9.0892506
-3.6625276 1.6807961 4.7451258 15.04325
-3.115736 1.704726 4.7197485 16.0445
-2.6097291 1.9215386 4.6038322 18.043751
-2.2720056 1.9732925 4.5353198 19.047874
-1.7999803 1.9319506 4.6842618 18.560501
-1.5003217 1.9559972 4.6996145 17.064251
0.28521329 1.7262144 4.5919333 17.352285
0.65775925 1.7606003 4.6745615 16.146067
0.97289443 1.818995 4.5867076 15.615501
1.40275 1.8130801 4.5565224 15.060459
1.7700926 1.7338936 4.5568595 13.569588
2.1508088 1.8198351 4.5728407 13.679225
2.5289667 1.9239713 4.5293331 13.081833
3.1403339 1.8043265 4.7819681 11.5
3.4058757 1.7411633 4.6368175 9.6059999
3.6069853 1.6204195 4.4955349 10
-2.4464428 2.1560175 4.4347382 20.0415
-2.1474907 2.038543 4.6557536 19.61857
-1.7949219 2.0873518 4.6323857 20.352774
-1.3988287 2.1301434 4.633316 20.20125
-0.99494016 2.1845005 4.6123013 19.473137
-0.61489338 2.2429011 4.6066122 19.80574
-0.16212817 2.253576 4.5696592 20.068016
0.20459704 2.2136955 4.6209331 19.479067
0.54732651 2.1856151 4.5873809 17.907433
0.97721177 2.2154148 4.6027884 17.672421
1.3875881 2.267092 4.5860443 18.160334
1.848626 2.2248955 4.6060529 16.580103
2.2015727 2.2040005 4.5722585 14.749355
2.563827 2.2682731 4.5240464 16.250586
3.0096717 2.1909323 4.5290484 14.564125
3.4071257 2.2204623 4.6464849 13.789429
3.6746912 2.3445461 4.5578618 14.089
-0.46133527 2.4071417 4.6178031 20.069
-0.19322464 2.4444847 4.6226325 20.592855
0.2205653 2.5245273 4.59237 20.101042
0.65204304 2.552309 4.6274972 19.67782
1.0004185 2.6226459 4.5744057 20.176748
1.3553535 2.591017 4.5352597 18.870605
1.7890497 2.6153371 4.5758481 18.968945
2.1588502 2.6144192 4.4917531 19.68005
2.6798365 2.6789238 4.5109653 19.083
1.5110768 2.8031213 4.6796999 21.079
1.6603584 2.8337812 4.7334418 20.57975
2.3214173 2.9137452 4.4120431 20.084
0.12914902 -0.04712522 4.9345541 4
0.20255065 0.38079786 4.9523258 8
0.71297014 0.28743392 4.9006977 3
2.2033165 0.33774972 5.1322484 3.5
2.5538623 0.23844235 4.972403 3
2.9129069 0.16451028 4.83077 2.75
-0.048162997 0.49973747 5.1607871 5
0.14688933 0.62970901 4.9607973 8.5602131
0.49846402 0.58845043 4.9505911 5.5599666
0.94883966 0.63992578 4.998806 7.6518493
1.3911196 0.77584976 4.9653544 7.7115002
1.7728826 0.73239946 5.0884929 5.3333335
2.1910887 0.5266161 5.0061016 3.4000001
2.5980005 0.67112309 5.0062757 5.1428571
2.9440799 0.6041165 4.8374262 5
-0.064121187 1.0336812 5.1440258 14.170856
0.26346949 1.0366434 4.9458771 11.699143
0.58994853 0.99405396 4.9320898 10.060801
0.99217767 1.1405478 4.8473015 11.0695
1.4183871 0.94802028 5.0356579 9.0732498
1.8194821 1.1676772 5.0104437 9.0807495
2.2281504 0.95333546 5.0156565 6.9264379
2.6073613 1.1046956 4.8979974 8.1673994
2.9993045 1.0052717 4.8532348 7.1999998
3.4838371 1.0139899 4.8881965 6.5437498
-0.50466043 1.5326406 5.1372151 15.065501
-0.17589092 1.3470995 5.1003213 12.395641
0.18368757 1.4235839 5.0501146 13.871059
0.57387972 1.3714689 4.9651685 11.507481
1.0078024 1.3782526 4.9875178 11.473049
1.3726395 1.4753239 4.932168 12.150826
1.7720805 1.4377397 4.9685607 12.573083
2.250874 1.26885 4.9179854 9.6662006
2.6811693 1.31813 5.062429 9.0978327
2.977037 1.5289824 5.0654588 9.9388752
3.3277767 1.2765241 5.0061913 8.0865002
-3.3473127 1.6800002 5.1072454 15.04525
-3.1007972 1.7962021 5.1487164 16.5425
-2.618381 1.8435822 4.9859309 17.66925
-2.2338529 1.888925 5.0618582 18.298
-1.7485594 1.95031 5.0504627 18.05905
-0.48831639 1.7393765 5.0330229 14.390834
-0.20355366 1.8020427 4.9839916 15.342499
0.20544334 1.8449076 5.0408306 16.094072
0.59802055 1.7486587 4.9088321 13.198103
0.99126977 1.7395754 4.9956808 13.6742
1.3205504 1.7407844 4.955348 12.277151
1.7916992 1.6324002 4.9888315 12.4767
2.280581 1.7504051 5.0895634 9.9363756
2.6402199 1.7710139 5.1079478 10.875375
2.9912415 1.7511735 4.9785109 11.099839
3.352108 1.7120639 4.8757935 11.087001
-2.3450692 2.0063982 4.806077 19.043501
-1.7673748 2.0574491 4.9223752 19.63376
-1.3753712 2.0944755 4.9966254 18.631618
-0.98466295 2.1602652 5.0252199 18.510035
-0.62008786 2.2444432 4.9941568 18.826929
-0.16694175 2.1978519 4.9810934 19.130573
0.15573862 2.1103804 4.8895841 16.327501
0.61674994 2.1721494 4.9797325 16.475334
1.029075 2.2164676 4.9984088 16.290627
1.4041792 2.2082052 4.9426303 15.522834
1.8113056 2.2572334 4.9916883 16.442705
2.1831918 2.290324 4.9727235 15.997999
2.5884774 2.086693 5.074544 13.500143
2.9685705 2.125576 4.9600143 13.6315
3.2766433 2.1777437 4.825212 13.587
-0.11003503 2.4438207 4.9955616 18.737665
0.21639998 2.4939408 4.9510512 19.771801
0.56860441 2.4682097 5.0116711 20.238916
0.94310331 2.6008806 5.0430017 19.741667
1.3644592 2.566916 4.9804897 20.175426
1.9020293 2.7027278 4.979537 20.077749
2.0172362 2.6470237 4.8904743 20.078501
-0.62594354 0.21641168 5.4469962 4.5
-0.15208849 0.18021591 5.4665594 3.1428571
0.041095942 0.31037006 5.3677459 3.5
1.3940408 0.16988568 5.5350933 2.2
1.7929376 0.21441986 5.3293672 2.8181818
2.0398986 0.35424981 5.2240129 3.5
-0.48014757 0.71954948 5.5708756 7
-0.20893435 0.66214806 5.3877311 7.508667
0.18244407 0.60084546 5.2634377 5.5
0.63698137 0.54993582 5.5270052 6.5317502
1.4002352 0.60381812 5.5579309 5
1.7524951 0.54917109 5.3852663 4.5714288
2.0688632 0.67592525 5.4138045 4.75
-4.9063377 1.1286833 5.4545755 12.047
-0.45353922 1.0472921 5.4696655 8.9983816
-0.18099101 1.0898306 5.3808103 9.2558994
0.11452838 1.0354787 5.3866286 9.0702496
0.60210931 1.003271 5.4431024 8.9056253
1.0050768 0.93622458 5.4126492 7.8102007
1.3817616 1.0042021 5.4036345 7.9836426
1.7539431 1.0609314 5.372159 7.0240817
2.0526094 1.0116678 5.3132148 7.2905002
-3.8897815 1.5425502 5.4476767 14.04325
-3.3791244 1.5680131 5.4815745 14.381167
-3.1067588 1.5730633 5.4871454 15.05175
-1.2956125 1.5034404 5.5376444 14.5605
-1.0479155 1.3705883 5.5506134 13.061625
-0.56470007 1.4183385 5.4223375 12.922071
-0.16480941 1.4175963 5.328393 11.711918
0.11541973 1.4546471 5.3588986 12.874458
0.59876466 1.4119117 5.5204368 11.869699
1.0270081 1.4515729 5.4975128 12.4045
1.4464164 1.3928146 5.4424543 9.9961338
1.7706686 1.4304053 5.3914037 9.4181023
2.2084215 1.3978411 5.4036279 9.7211666
2.5237346 1.2307671 5.2171974 9.08325
-3.2345476 1.6059878 5.5974045 14.047
-3.073813 1.7066858 5.3989773 15.296
-2.5928574 1.7791775 5.2880149 16.760859
-2.134784 1.8393995 5.3109202 17.922125
-1.7432982 1.8941386 5.3641558 17.675076
-1.3888717 1.9357324 5.4510098 18.168205
-1.027113 1.9095145 5.529881 17.557251
-0.54291928 1.8126285 5.2849231 14.318624
-0.21049555 1.8291289 5.3552241 14.216001
0.15752204 1.7906872 5.4254732 14.868898
0.6314435 1.7373053 5.377306 12.8729
0.98610967 1.7288252 5.3743091 14.926356
1.4533818 1.7576115 5.5227804 12.474417
1.8348607 1.7761239 5.4676108 11.636917
2.1765471 1.8013459 5.3596373 11.971624
2.4848323 1.8706828 5.236845 12.08325
-1.7508919 2.0232556 5.2499161 20.047501
-1.3733152 2.0521047 5.3778162 18.201216
-0.9887383 2.1325748 5.3809505 17.371843
-0.57716036 2.1583178 5.387876 18.862862
-0.17930895 2.2207861 5.4084725 18.220924
0.20103805 2.208719 5.3669367 16.80703
0.57410264 2.2087722 5.4278111 16.606033
0.9495455 2.168896 5.443717 15.306499
1.3823802 2.2178919 5.3680615 15.086792
1.8309275 2.2374544 5.4959445 14.480499
2.208791 2.2484593 5.36306 14.367857
2.5786481 2.3235307 5.3251219 13.416666
0.67843688 2.4700637 5.3725047 19.2719
1.0482733 2.4734502 5.2913327 19.82225
-1.3161405 -0.0055302102 5.8182344 4
-1.1175246 0.059045136 5.7066598 4.5
-0.68386281 0.10853095 5.7176862 3
-0.0026171207 0.09611252 5.9049382 3.3333333
0.38429123 0.22578081 5.8197699 2.8499999
