# .PCD v0.7 - Point Cloud Data file format
VERSION 0.7
FIELDS x y z intensity
SIZE 4 4 4 4
TYPE F F F F
COUNT 1 1 1 1
WIDTH 1197
HEIGHT 1
VIEWPOINT 0 0 0 1 0 0 0
POINTS 1197
DATA ascii
-1.7436559 2.4799237 -3.7199161 20.01
-2.057096 2.4948485 -3.5688288 20.011999
-1.966683 2.5016737 -3.4004717 21.011999
-1.5597836 2.5477238 -3.3391838 22.01
-1.3064079 2.5212572 -3.3463645 23.008499
11.430807 1.988225 -2.825289 8.1134996
9.3311844 2.0848842 -2.7120485 9.1145
8.4790649 2.1226223 -2.4886849 10.1145
9.653841 2.0679607 -2.3773129 9.1134996
8.6172085 2.1060672 -2.3066945 10.114
7.1533103 2.2102437 -2.2421553 12.115
8.8007622 2.0937641 -2.1463225 10.1135
9.7390985 2.0432625 -2.1692572 9.1129999
10.831033 2.0352845 -2.1714272 8.1125002
7.2307677 2.1714478 -2.1211755 12.1145
10.478181 2.0123322 -2.0655255 9.1125002
6.2341166 2.2211213 -1.9603554 13.115
6.6024776 2.2013369 -1.939703 13.1145
7.5814428 2.1370039 -1.8500613 11.1135
8.2922411 2.1334903 -1.8590273 10.113
5.3287039 2.2990582 -1.8130701 15.1155
0.59497547 1.2911034 -1.7483168 22.136499
7.8080382 2.1565104 -1.7485886 11.113
5.5512514 2.2733037 -1.7584758 15.115
6.3983588 2.2166045 -1.7136507 13.114
5.0204263 2.3325071 -1.7131118 16.115499
0.70305747 1.1705782 -1.603428 22.134501
0.65292799 1.242736 -1.6557359 22.385376
0.63959181 1.3212335 -1.6522139 23.1355
6.2935205 1.7316962 -1.6860266 11.114
9.3791933 2.060317 -1.6619267 9.1120005
6.8116217 2.1711929 -1.6641378 12.1135
8.4185095 2.1062841 -1.6920713 10.1125
5.4936051 2.2558434 -1.6070553 15.1145
4.8327212 2.346431 -1.6532449 17.115499
0.73318267 0.92402238 -1.5751529 18.134001
0.73772901 1.1603943 -1.5895952 22.134001
0.72426867 1.2557462 -1.5501965 23.134001
6.4295683 2.1979871 -1.5693249 13.1135
6.9528961 2.1754513 -1.5586494 12.113
7.9039106 2.1194363 -1.5866115 11.1125
8.7067051 2.1242063 -1.5498441 10.112
5.0409026 2.2767198 -1.5905249 16.115
3.9289834 2.3332818 -1.5224284 19.116501
4.9180012 2.3791828 -1.561229 17.115
0.75462294 0.85970551 -1.4432398 18.132999
0.77330792 1.177027 -1.44783 23.13275
9.4283504 2.0180514 -1.4695953 9.1114998
6.4919543 2.1921704 -1.4537446 13.113
8.0228243 2.1016612 -1.4259267 11.112
5.119329 2.2959824 -1.4909267 16.1145
5.5149269 2.2606835 -1.480564 15.114
3.8687541 2.3935382 -1.4132993 20.115999
3.9831421 2.3423345 -1.4483167 19.115999
4.0967093 2.3186696 -1.4963861 18.115999
4.14995 2.3172939 -1.4117833 18.115499
4.935102 2.3900712 -1.4432679 17.1145
3.7807381 2.4413199 -1.4708886 20.116501
-1.9982078 0.48243952 -1.3955888 9.0220003
-1.937101 0.6046114 -1.3608781 11.022
0.75516981 0.81704873 -1.3053992 19.132
0.79765713 1.166194 -1.3792739 23.132
0.81508422 1.1197444 -1.3409548 23.1315
9.92276 2.0973086 -1.3092387 9.1110001
6.5947709 2.1922114 -1.3122489 13.1125
6.9700794 2.1881332 -1.3941237 12.1125
8.8322659 2.1023281 -1.3564187 10.1115
4.1657043 2.2924945 -1.3142704 18.115
5.4745116 2.2720335 -1.3399634 15.1135
4.0310121 2.3307514 -1.3648349 19.115499
5.1806412 2.3086956 -1.3845696 16.114
3.8559473 2.4091318 -1.312254 20.115499
-1.9762201 0.092429906 -1.2555887 3.5
-1.9717367 0.17078774 -1.2313569 4.6666665
-1.95393 0.25547537 -1.2294543 6
-1.9490548 0.47332975 -1.2562978 9
-1.9537429 0.54321653 -1.2269491 10
-1.9330827 0.76096308 -1.2563965 13.02275
-1.9003829 0.88136387 -1.2108262 15.023
2.491298 2.0041423 -1.2318852 23.1185
6.7249703 2.1801207 -1.2020227 13.112
6.9551873 2.1983948 -1.2311107 12.112
8.3000956 2.1299388 -1.2857771 11.1115
4.1945882 2.2801781 -1.2212454 18.1145
5.4486742 2.2849302 -1.2058997 15.113
4.0646605 2.3228192 -1.2902485 19.115
4.1176658 2.3157184 -1.2067777 19.1145
4.6726027 2.3258533 -1.262383 17.114
5.205441 2.3075399 -1.2766289 16.113501
3.1218882 2.4360771 -1.2895373 23.117001
3.2606835 2.4488204 -1.2657423 22.116501
3.4332142 2.4373121 -1.2480135 22.115999
3.5227909 2.4464667 -1.2051142 22.115499
3.7089946 2.4608426 -1.2558018 21.115499
3.8362598 2.4185519 -1.2178191 20.115
-1.9765863 0.22112554 -1.1243027 6
1.6548269 0.35689321 -1.1078697 8.1215
-1.9737585 0.46233714 -1.1539263 8.7617502
1.7375276 0.44644874 -1.1082886 9.1210003
1.8134766 0.44909549 -1.1007324 9.1204996
-1.9512128 0.64462173 -1.18371 11.5235
0.75176775 0.76474166 -1.1768194 18.631001
-1.9453975 0.84988022 -1.1232599 14.524
0.77812886 0.87096822 -1.1694468 21.130501
-1.8280355 1.314387 -1.1091263 20.5235
10.528959 1.9460609 -1.1553304 8.1105003
10.164708 2.0192585 -1.1262108 9.1105003
8.8833618 2.1296091 -1.1720935 10.111
4.1595936 2.302465 -1.1119673 19.114
4.2359977 2.3310425 -1.1351038 18.114
5.2335711 2.3128088 -1.1607744 16.113001
3.1118066 2.4288604 -1.1370902 23.115999
3.5771685 2.4292178 -1.1355679 21.115
3.8087001 2.429939 -1.1099684 20.1145
-1.9868606 0.11077894 -1.0804238 4
-1.9525564 0.361377 -1.0175047 8.0249996
-1.9783064 0.46841815 -1.0634902 9.3579998
-1.9417635 0.5867961 -1.005653 11.025
-1.9782807 0.65785718 -1.0853741 11.51225
0.71808547 0.6370908 -1.0793245 17.130501
1.5367149 0.65105855 -1.0761795 13.122
1.6650782 0.6361413 -1.0877323 12.62125
1.7663821 0.66742814 -1.0591705 13
0.7673142 0.79367596 -1.0453261 20.129499
1.5288393 0.77993387 -1.0726773 15.122
1.6553274 0.75140685 -1.0701731 14.454501
0.78580064 0.85036999 -1.0220326 22.129
1.4597623 0.82663369 -1.0741885 16.122499
1.632764 0.88196301 -1.0643678 16.12125
-1.9273896 0.93738651 -1.0544705 16.012001
1.5601511 0.97059894 -1.0680281 18.12175
1.5532684 1.0526776 -1.0423348 19.1215
1.6183342 1.0705125 -1.0309511 19.121
1.4366424 1.1503356 -1.0323366 21.62225
1.5495996 1.1771773 -1.0121287 21.040417
1.5153143 1.2207444 -1.0159978 22.1215
-1.845287 1.3269968 -1.033378 21.02425
6.7854934 2.1913354 -1.0604563 13.1115
6.8005486 2.1834381 -1.0406404 12.1115
4.1802435 2.2968626 -1.0201813 19.113501
4.7672739 2.291966 -1.0630327 17.113001
5.4304075 2.2967865 -1.0757929 15.1125
3.0518382 2.3759646 -1.0364522 23.115499
4.2153063 2.3128366 -1.0410328 18.113501
5.2502136 2.3194821 -1.0471278 16.112499
3.3874626 2.4261029 -1.0670453 22.115
3.4496219 2.4294937 -1.002883 22.1145
3.631124 2.4647899 -1.0641806 21.1145
3.7467778 2.429882 -1.0021456 21.114
-1.9355615 0.09852238 -0.98632121 3.5
-1.959428 0.18472259 -0.99180728 5.0714288
-1.9512179 0.35207874 -0.93469375 8.0257502
0.71547145 0.36164039 -0.93342644 12.629
-1.9365151 0.49602404 -0.90350085 10.026
0.71766514 0.46284986 -0.93442762 15.129
-1.9359022 0.54727 -0.9033699 11.026
0.73066676 0.56181729 -0.94407618 16.9289
-1.947207 0.61995858 -0.99333966 11.461538
-1.9376361 0.75357223 -0.95144105 13.5255
-1.9405205 0.88774812 -0.97879219 15.11275
0.78365231 0.84625399 -0.97622377 22.1285
-1.9057335 1.0745963 -0.94128954 18.025499
-1.8322268 1.3337089 -0.95494998 21.025
1.4755918 1.3188776 -0.99020672 23.1215
10.751046 1.9302402 -0.93770331 8.1099997
8.6733036 2.1390493 -0.94880247 10.1105
4.3725467 2.2841849 -0.96868014 18.113001
4.8665442 2.2993817 -0.96408451 17.112499
5.1521659 2.296324 -0.9044559 16.112
5.3840237 2.2942708 -0.9603498 15.112
4.1296697 2.3516083 -0.92577469 19.113001
3.5458808 2.4542701 -0.95797026 22.114
3.7676544 2.4550414 -0.92485976 21.113501
0.75842482 0.19404072 -0.82705539 8.1269999
-1.9569155 0.29575098 -0.87943679 7
0.75145054 0.29446927 -0.82044804 11.127
0.75324571 0.36216259 -0.83335477 12.793834
-1.9361572 0.44828206 -0.88943321 9.5
0.71424675 0.44763681 -0.89399946 15.1285
0.74267995 0.52687997 -0.84225571 16.841715
0.84434146 0.51576108 -0.8098563 16.1255
0.75539762 0.66751897 -0.82777977 20.127001
-1.9063503 0.73403299 -0.83605057 14.0265
0.76344061 0.77818555 -0.8732031 22.127501
0.80748206 0.88410252 -0.8809644 23.127001
-1.9297032 0.90036488 -0.84397864 16.026501
-1.9245676 1.0147922 -0.84634352 17.026501
-1.8465233 1.3404847 -0.83519346 21.342169
-1.8314632 1.4279253 -0.81556785 23.01325
9.1474333 2.069984 -0.81611764 10.11
10.130463 2.0002241 -0.88967192 9.1099997
4.2662311 2.2872162 -0.84691048 18.112499
5.3198714 2.2885599 -0.82731396 16.1115
5.5547686 2.2863848 -0.86614192 15.1115
3.1696532 2.3774335 -0.85632277 23.114
4.2535214 2.3228235 -0.84570956 19.112499
4.9179416 2.3234427 -0.86915368 17.112
3.5884914 2.4409902 -0.88436317 22.113501
3.6865568 2.4605112 -0.82203966 21.113001
3.8808656 2.4274189 -0.8681519 20.113001
0.75470155 0.38186723 -0.78970701 13.1265
0.82561141 0.31590784 -0.78873229 11.1255
0.76058042 0.46473894 -0.78394359 15.792999
0.74931282 0.53053772 -0.78063315 17.126499
0.75993705 0.6932326 -0.79641581 21.126499
-1.9180154 0.90284669 -0.7919271 16.027
-1.8987882 0.97010386 -0.78156978 17.027
-1.9066259 1.0708754 -0.79077888 18.027
-1.8943173 1.0671531 -0.73676074 18.0275
-1.8453896 1.2968292 -0.71336454 21.0275
-1.8442402 1.3395067 -0.74832892 22.360498
6.5889664 2.184269 -0.71795213 13.1105
4.4470882 2.2732534 -0.79365003 18.112
5.5482807 2.2861714 -0.73054928 15.111
3.2434754 2.398561 -0.7993322 23.113501
3.9272952 2.391958 -0.74185842 20.112249
4.1895242 2.3386903 -0.74346232 19.112
4.9369521 2.323854 -0.75973278 17.1115
5.3303061 2.3099642 -0.70794564 16.111
3.1810493 2.4046485 -0.70319664 23.113001
3.7278559 2.438607 -0.73849624 21.112499
-1.9716583 0.0002650395 -0.6897555 2
-1.9584584 0.46587786 -0.65739036 10.01425
-1.849466 1.2514129 -0.64826316 21.02825
-1.8468843 1.3236078 -0.64398652 22.009417
10.283146 1.9768645 -0.67196792 9.1094999
9.2762556 2.0573175 -0.62050062 10.1095
7.6372094 2.1449232 -0.67767143 11.11
4.3233156 2.2578087 -0.66666502 18.1115
5.5189242 2.273494 -0.60249585 15.1105
7.2560935 2.2163372 -0.64143205 12.11
3.1530378 2.3852596 -0.62884957 23.112499
4.0022502 2.3874824 -0.61882377 20.1115
4.1147881 2.3436301 -0.63622534 19.1115
5.0057425 2.3387308 -0.65710086 17.111
3.3687587 2.4282525 -0.60211372 23.112
3.7579131 2.4207861 -0.6702885 21.112
-1.9572027 0.16763648 -0.59346575 5.0666666
-1.969133 0.43046916 -0.54940629 9.0297499
-1.9346652 0.51770711 -0.56255043 10.5295
-1.9336146 0.60766137 -0.57884353 12
-1.8969318 0.85427773 -0.5725494 15.8
-1.8611759 1.0582554 -0.54243916 19.029499
-1.8347462 1.1689277 -0.55431521 20.529249
-1.8316584 1.3676833 -0.57797658 23.028999
7.747335 2.1456625 -0.51387072 11.1095
4.433372 2.2638249 -0.58552933 18.111
4.5720835 2.2612493 -0.50363916 17.1105
5.2240739 2.2928476 -0.58139586 16.1105
4.0641136 2.3523216 -0.51979148 19.5
3.4025848 2.4076967 -0.59575993 22.112
3.8636143 2.4247789 -0.55679601 21.11125
3.9119518 2.4247463 -0.50668633 21
-1.9576555 0.42855057 -0.47866866 9.0305004
-1.8756788 0.93642056 -0.43711391 17.03075
-1.8553594 1.0579928 -0.453462 19.0305
-1.8311397 1.1338153 -0.45833421 20.280375
-1.7679725 1.2909671 -0.47729447 23.030001
10.444855 1.9547819 -0.44847235 8.1090002
9.341691 2.0388737 -0.41692549 9.1090002
6.4312181 2.1969883 -0.42303553 13.1095
7.1369262 2.1355653 -0.45947713 12.1095
4.4394712 2.2650492 -0.48329365 18.1105
4.5119734 2.2837436 -0.40416768 18.110001
5.3923454 2.2860138 -0.47210413 16.110001
5.5277123 2.287008 -0.47967067 15.11
4.0504613 2.3525455 -0.44958264 20.1105
3.2633164 2.405833 -0.42900619 23.111
3.5561228 2.4421613 -0.47492614 22.111
3.9144967 2.4393811 -0.46134403 21.05525
5.1674557 2.4010336 -0.45367849 17.110001
-1.9371109 0.073774636 -0.34724984 4
-1.9191822 0.56224573 -0.33828077 12.032
-1.922899 0.6290707 -0.33876199 13.032
-1.9381818 0.77837658 -0.33739394 15.032
-1.9072493 0.82323933 -0.33617726 16.032
-1.8666661 1.0168694 -0.32688797 18.532
-1.7994163 1.2646786 -0.35562244 22.0315
-1.7962606 1.324074 -0.35697535 23.0315
7.2189021 2.1331005 -0.32643759 12.109
8.7772884 2.1250186 -0.38854137 10.109
5.33845 2.2793303 -0.3477731 16.109501
5.486897 2.2723041 -0.37119177 15.1095
4.0855627 2.3507204 -0.36177203 20.110001
3.5631378 2.4080637 -0.3526544 22.11025
3.8341992 2.448719 -0.34113204 21.110001
-1.8947469 0.20830752 -0.21584105 6
-1.9267976 0.36661056 -0.2743637 8.5165005
-1.8954947 0.38812307 -0.20566118 9.0334997
-1.9168653 0.46365076 -0.20880339 10.0335
-1.918807 0.55216271 -0.24926169 11.283
-1.8966792 0.54680789 -0.28930122 12.0325
-1.9181799 0.60657418 -0.21116628 12.0335
-1.8725536 0.97836071 -0.22162312 18.159483
-1.8544251 1.0397044 -0.25718114 18.699501
-1.8143407 1.1988168 -0.23752147 21
-1.811143 1.2270238 -0.23490646 22
-1.7970922 1.2498844 -0.27227011 22.032499
-1.7720126 1.3193203 -0.2578626 23.016251
11.612273 1.889153 -0.27071103 8.1084995
10.382677 1.9753054 -0.25043881 9.1084995
4.5009322 2.2528467 -0.29507995 18.109501
4.6968679 2.2767038 -0.29877138 17.109501
4.7202382 2.2677343 -0.20977761 17.108999
5.3412032 2.2538769 -0.23034658 16.108999
5.4443965 2.2719381 -0.24717139 15.109
5.7552323 2.2045567 -0.26443318 14.109
6.3539109 2.212244 -0.27634671 13.109
4.0918779 2.3409243 -0.24395998 19.166668
3.6510251 2.4172318 -0.23886964 22.109501
3.9257431 2.4254856 -0.24298261 21
-1.88785 0.34547815 -0.14442717 8.5342503
-1.8931619 0.44944847 -0.14370593 10.03425
-1.8805968 0.50925708 -0.12062103 11.0345
-1.9025809 0.60812539 -0.18933964 12.466666
-1.8806882 0.95121914 -0.1945188 18
-1.8385041 1.0613327 -0.13926604 20.03425
-1.8216232 1.1763071 -0.15765801 21.034
-1.7864994 1.2473497 -0.15433574 22.534
-1.7673541 1.3170502 -0.17258374 23.033751
7.8011804 2.1752486 -0.16891673 11.1085
8.8194036 2.1262224 -0.19432397 10.1085
4.4076643 2.2962081 -0.10191305 18.1085
4.5482149 2.2816145 -0.19076313 18.108999
5.4402008 2.2977591 -0.12617224 16.1085
5.6604757 2.2521806 -0.13396071 15.1085
4.0154438 2.3624432 -0.19850571 20
5.1048689 2.3645537 -0.11463378 17.1085
3.3732336 2.4007699 -0.15343706 23.108999
-1.8431877 0.049032301 -0.091228701 3
-1.8552001 0.33831692 -0.041946031 8.5354996
-1.8575076 0.42585406 -0.08001551 10.035
-1.8663349 0.56062216 -0.053854451 12.035333
-1.8733535 0.73055232 -0.079248622 15.035
-1.7792021 1.2629193 -0.058315128 23.03525
9.5709734 2.0468848 -0.017270537 9.1079998
7.5010624 2.1308703 -0.0046236324 11.108
5.3399038 2.2848535 -0.0053867497 16.108
5.722909 2.2554867 -0.0080644293 15.108
6.1689219 2.2113481 -0.013579342 14.108
4.1274791 2.3118567 -0.050065227 19.10825
3.8585122 2.4710672 -0.043616235 21.10825
-1.8217046 0.0021853074 0.010231373 2
-1.7905338 0.16514768 0.098516501 5.3157897
-1.7833056 0.22721046 0.079287864 7
-1.8519059 0.35218671 0.02677582 8.3696671
-1.8480165 0.47662416 0.042106483 11.0365
-1.8658073 0.62144125 0.038980611 13.0365
-1.8651974 0.71926749 0.041584782 14.5365
-1.8553196 0.84986699 0.062143583 16.536751
-1.8376424 1.0482364 0.041704554 19.536501
-1.7760942 1.1838176 0.080237187 22.037001
-1.7914877 1.2281873 0.021166131 22.036251
10.752446 1.9234453 0.0019261373 8.1079998
8.7919502 2.1122143 0.0015602253 10.108
4.8445587 2.2828386 0.0085987719 17.108
4.1607785 2.3095036 0.088288032 19.1075
3.4141097 2.4894478 0.067028284 23.1075
3.79492 2.5132327 0.074500859 22.1075
-1.735068 0.10025188 0.15732801 4.25
-1.8124955 0.38742068 0.11989985 9.0375004
-1.77572 0.3397688 0.16539231 8.538125
-1.787147 0.45454028 0.13433176 11
-1.8094634 0.51682395 0.15170145 12
-1.7945728 0.52600074 0.19635832 12.0385
-1.8075972 0.63359094 0.15656613 13.4375
-1.7585609 0.61520553 0.17393902 13.03825
-1.7656389 0.76089227 0.19481176 16
-1.8379264 0.87736338 0.11935659 17.0375
-1.8002815 0.96707988 0.19650941 19.0385
-1.782732 1.1273823 0.17748255 21.03825
9.4789772 2.0131233 0.19326831 9.1075001
7.4245605 2.1839578 0.14572462 12.1075
7.627079 2.1219876 0.16530378 11.1075
8.7815714 2.103214 0.1966086 10.1075
4.1480107 2.2960277 0.18030411 19.107
4.9093528 2.2901943 0.1025571 17.1075
5.7077785 2.2301297 0.11898713 15.1075
6.0444574 2.2051528 0.14020693 14.1075
5.3077574 2.3199012 0.11238681 16.1075
3.9454172 2.4481139 0.17472602 21.107
3.523838 2.5085688 0.1518155 23.107
3.7358713 2.5176339 0.15645166 22.107
-1.6522549 0.27769056 0.29385856 8.04
-1.7424716 0.33012912 0.23194946 8.0389996
-1.7791088 0.4508296 0.23855954 10.039
-1.5482343 0.41237408 0.27310747 11.04
-1.7751858 0.53106427 0.23426645 12.039
-1.7925402 0.72003496 0.27844244 15.0395
-1.8016776 0.85827684 0.21937507 17.03875
-1.799423 0.96799517 0.21636441 18.368422
-1.7706889 1.117859 0.2358786 21.039
10.976595 1.9192245 0.24725743 8.1075001
4.9197903 2.273793 0.21259199 17.107
5.7250557 2.2131188 0.24687941 15.107
5.9448128 2.2022629 0.26068997 14.107
4.1868238 2.3071675 0.27532196 19.106501
5.2105975 2.3180039 0.21775435 16.107
3.6047189 2.4825311 0.23704782 22.106501
3.9506292 2.4248264 0.25047264 20.106501
3.4991884 2.5344055 0.2287727 23.106501
-1.6160172 0.34759143 0.3611536 9.0410004
-1.5436742 0.36673972 0.30808005 9.5404997
-1.627297 0.62042344 0.34341803 14.040751
-1.7519376 0.7196672 0.32962409 15.04025
-1.7904979 0.82565737 0.35725003 16.040501
-1.7695245 1.0412288 0.31133473 19.540001
-1.7484267 1.1827935 0.39055359 22.041
-1.6941614 1.2876469 0.37617874 23.041
7.7634277 2.109139 0.34147039 11.107
8.831336 2.101831 0.38003808 10.107
4.1820893 2.2919421 0.36850911 19.106001
4.9596348 2.271492 0.32523334 16.106501
5.5827394 2.2259283 0.35393593 15.1065
5.8154459 2.2292237 0.38057205 14.1065
3.1526515 2.3651006 0.34738895 23.105499
4.0565181 2.3587954 0.35284778 20.106001
4.963933 2.30512 0.31470835 17.106501
-1.6656308 0.10045118 0.46484342 4.5
-1.7070783 0.3676298 0.45664769 9.0419998
-1.4700506 0.39816928 0.4998005 11.0435
-1.7269653 0.45121408 0.44098943 10.54175
-1.7359095 0.57459372 0.42910013 13.0415
-1.752449 0.65928328 0.42898759 14.0415
-1.759028 0.7814486 0.47079489 16.042
-1.7186747 1.1866007 0.42422807 22.0415
-1.7078441 1.2381593 0.45761055 22.375334
-1.6861639 1.2702487 0.47440216 23.04225
7.861423 2.0982838 0.49638954 11.1065
7.4798422 2.1604342 0.49184215 12.1065
4.1521907 2.2719717 0.4457294 19.105499
4.8857899 2.2781405 0.41985747 17.106001
4.9850731 2.2636518 0.43871665 16.106001
5.6598978 2.2343621 0.48538384 15.106
3.1015112 2.3268867 0.41401497 23.105
4.0041385 2.3832355 0.43821153 20.105499
-1.6894515 0.33161151 0.50208098 8.5
-1.567662 0.3033326 0.53249341 8.0434999
-1.4582986 0.37454012 0.53228039 10.044
-1.4668254 0.40503046 0.53531718 11.044
-1.6410078 0.69689888 0.5163542 15.043
-1.5701405 0.65588611 0.57254994 15.044
-1.4248011 0.63208699 0.55169255 15.0445
-1.5124454 0.72836709 0.51480126 16.043501
-1.7268838 0.89940697 0.58475286 17.043501
-1.7252483 0.97856104 0.59383869 18.505085
-1.7167137 1.0786008 0.54376715 20.042999
-1.683684 1.2477579 0.55313683 22.543251
5.7950377 2.1999764 0.50895309 14.106
6.8750668 2.1898985 0.59478521 12.106
4.1770139 2.2786081 0.54253536 19.105
4.8705864 2.2444723 0.52810037 17.105499
5.2447319 2.2491751 0.58044511 16.105499
3.9855671 2.366519 0.52759427 20.105
3.8684647 2.4027791 0.59964442 21.1045
-1.6640189 0.17992061 0.60157663 5.7272725
-1.6924734 0.59208053 0.68422741 12.7725
-1.5567101 0.73916733 0.60732824 16.0445
-1.6535599 0.83368045 0.60420853 17.044001
-1.7139585 0.95085359 0.66824192 18.0445
-1.6975875 0.9696101 0.66480428 18.0445
-1.6634036 1.2696309 0.60414672 23.044001
6.0499053 2.1771672 0.65755635 14.1055
8.0189209 2.1162333 0.69515419 11.106
4.1800261 2.2670445 0.64447284 19.1045
4.3867455 2.277122 0.67612469 18.1045
4.9711523 2.272316 0.65135658 16.105
5.7047515 2.2166216 0.6328392 15.1055
4.0067296 2.3561964 0.60830414 20.1045
3.7861271 2.4205403 0.65986812 21.104
-1.6509277 0.21118867 0.7407499 6
-1.651871 0.34782225 0.7280665 8.5454998
-1.6562414 0.45633316 0.75289935 10.54575
-1.6757246 0.56871593 0.76000857 12.04575
-1.6862004 0.64736372 0.76454765 13.04575
-1.6722658 0.72133476 0.77795374 15.046
-1.7014744 0.83115101 0.74946535 16.0455
-1.6918982 0.91241938 0.74347383 17.0455
-1.629632 1.1573673 0.76217222 21.046
-1.6155112 1.2320125 0.72606695 22.272999
-1.5838119 1.297385 0.76274377 23
-1.6043156 1.3041232 0.70698744 23.0455
-1.591677 1.3070012 0.74470156 23.046
6.71525 2.1905775 0.73163408 13.1055
4.1721768 2.262619 0.73701644 18.604
4.9971113 2.2631438 0.76835871 16.1045
5.646143 2.2193916 0.7354337 15.105
3.2158732 2.3932931 0.78909999 23.102501
3.8823183 2.3923914 0.77615541 20.1035
4.0229716 2.333226 0.74906397 19.60375
3.7204928 2.4383445 0.74017978 21.1035
-1.656829 0.37048298 0.83816588 8.6900826
-1.6540949 0.52699471 0.86434048 11.547
-1.6427121 0.6693666 0.88068575 14.04725
-1.6544443 0.74642211 0.86111325 15.047
-1.6213125 1.0382141 0.89086908 19.047501
6.1339512 2.190912 0.80515718 14.105
4.1602912 2.2355161 0.81845003 18.1035
5.1447291 2.2688687 0.89474273 16.104
5.3483787 2.2513046 0.82010895 15.1045
3.5466416 2.4317925 0.8652035 22.102501
3.6328557 2.4364572 0.80107534 21.103001
-1.6222216 0.21544304 0.96263927 6
-1.6240817 0.32586786 0.98578978 8.0485001
-1.6327319 0.43363255 0.92341465 9.5477505
-1.635569 0.52971125 0.92181385 11.04775
-1.6326963 0.60315955 0.95064694 12.533334
-1.6331784 0.96800518 0.91229784 18.223751
-1.5697781 1.2673873 0.90293992 22.048
5.8767486 2.1852105 0.90483445 14.1045
6.892354 2.1826663 0.91746008 12.105
4.2068338 2.2457252 0.93216449 18.103001
5.3881388 2.246335 0.94886637 15.104
4.0810347 2.3183208 0.99783063 19.102501
4.1813307 2.3162231 0.93153334 19.103001
3.2066269 2.4133959 0.93414837 23.1015
3.3960228 2.435261 0.98452687 22.1015
3.4861834 2.4432409 0.92713583 22.101999
3.7462025 2.4238441 0.91043335 21.102501
-1.6138549 0.28116587 1.0222378 7
-1.6189193 0.66614079 1.0314177 13.049
-1.5635034 1.0227618 1.0234402 18.916666
-1.5107729 1.2663852 1.012346 22.62475
-1.4794499 1.2865366 1.0368037 23.049999
-1.4732013 1.345477 1.0802013 23.050501
4.2218223 2.2439423 1.0344234 18.102501
5.1743073 2.2668953 1.0192335 16.1035
5.4058347 2.2274969 1.06458 15.1035
5.9699464 2.2005148 1.0556697 14.104
6.2138157 2.2062871 1.0987921 13.104
6.4986625 2.2232287 1.001941 13.1045
3.9809091 2.3165052 1.0674485 19.101999
3.2594106 2.44295 1.0659565 23.10075
-1.5945289 0.0018063858 1.1273621 2
-1.5859933 0.15396698 1.1200389 5
-1.5953243 0.31856894 1.1164836 8.0500002
-1.5607578 0.44030875 1.1978858 10.051
-1.5828507 0.61952657 1.1353949 12.428572
-1.4441435 1.259286 1.1074033 22.051001
-1.4357138 1.3141868 1.143172 23.025501
6.0001955 2.1939681 1.1992793 14.1035
4.0435209 2.2818387 1.173663 19.1015
4.2161999 2.2325795 1.1329337 18.101999
5.1613703 2.2526104 1.1367842 16.103001
3.9086809 2.333225 1.1348614 20.1015
3.2063427 2.4622166 1.1593531 23.1
3.3267145 2.4229436 1.1244409 22.1005
-1.5496562 0.067396611 1.2768245 3.5
-1.5588474 0.23915714 1.2671477 6
-1.5796926 0.32273906 1.2135804 8.0509996
-1.5274589 0.53184813 1.2837042 11.052
-1.4159958 1.1632752 1.2370763 21.0525
-1.4078488 1.2145972 1.2403545 21.5
4.0375023 2.2716734 1.262861 19.101
4.2094131 2.215539 1.2175394 18.1015
5.1896081 2.251986 1.2649517 16.102501
5.4384251 2.226927 1.2083795 15.103
3.767813 2.3669999 1.2776743 20.1005
3.8525782 2.3605843 1.2118402 20.101
4.8204012 2.3070316 1.2836645 17.101999
3.1335852 2.4289036 1.2181447 23.099501
-1.5231782 0.35283136 1.3666714 8.0527496
-1.5156231 0.41030857 1.3938006 9.0530005
-1.5166688 0.50174248 1.3223839 10.02625
-1.411126 0.99825186 1.3919768 17.727272
-1.387436 1.2609121 1.3853608 21.054001
5.6038132 1.3309324 1.3699162 10.1025
5.5529671 1.9541073 1.388392 13
5.5540524 2.043108 1.3682986 13.55125
5.4768357 2.1408057 1.3944516 14.5
4.0148096 2.2586818 1.3544707 19.1005
4.2097459 2.2091856 1.3196948 18.101
5.1555004 2.2601788 1.3846061 16.101999
5.258009 2.2632694 1.3975599 15.102
5.4544086 2.2173233 1.3396077 15.05125
3.0065508 2.3723927 1.3281648 23.098499
3.7161541 2.3979561 1.3527691 20.1
3.6871715 2.411932 1.3401939 21.1
-1.4640464 0.23454484 1.4687898 5.8000002
-1.482003 0.33356601 1.4195067 8.0535002
-1.4554617 0.56178212 1.4570341 11.554
-1.4611988 0.6247139 1.4171052 12.210526
-1.3540123 0.9506923 1.4729818 17.055
5.3450208 0.97531003 1.4199662 8.1020002
-1.3681278 1.082016 1.4747009 18.527374
-1.3463789 1.2838564 1.4949695 21.251667
5.1134934 1.2772377 1.4928228 10.1015
5.354166 1.2106538 1.4379605 9.1020002
-1.352308 1.3240284 1.4805229 22.055
5.4910135 1.9477868 1.4054098 13
4.0142617 2.2588987 1.4544723 18.1
4.1101871 2.2210388 1.4012051 18.1005
4.2799144 2.2234025 1.4544816 17.1005
4.9386892 2.2224946 1.4419943 16.1015
2.95977 2.3835289 1.4533921 23.0975
3.0032241 2.3961651 1.4043931 23.098
3.5639055 2.4148078 1.4662275 21.099001
3.6517007 2.4174352 1.4217944 21.099501
-1.4095211 0.00056347996 1.5954108 2
4.533268 0.13260287 1.5392315 3.5
4.4625401 0.20637995 1.569044 4
4.4814997 0.34486002 1.5441352 5
4.4567518 0.66311973 1.5933322 7
-1.3333405 0.81212604 1.5847754 15
-1.3738731 1.1921089 1.5030029 20.055
4.3900938 1.2076179 1.5908558 11.1
4.577301 1.2207209 1.5605406 11.1005
-1.2844768 1.4304808 1.5986838 22.056499
3.9889407 2.2508833 1.5464704 18.099501
5.1912904 2.2268298 1.522459 15.1015
2.9188528 2.4047804 1.5979835 23.0965
3.3587556 2.4152496 1.5656432 21.598
3.4686742 2.4153545 1.5243989 21.098499
4.2498279 0.21024333 1.6967373 4
4.4206653 0.23288703 1.6061473 4
-1.3305537 0.51259851 1.6669503 10
-1.3320487 0.68305343 1.6270086 12.77825
4.4053469 0.64883715 1.614715 7
-1.3153692 0.75069839 1.6376131 14.0565
-1.3326181 0.93061125 1.6284226 16.05625
-1.3275979 1.0252199 1.6255708 17.194668
4.4233437 1.023589 1.6118668 9.6000004
-1.2544729 1.4484684 1.6684077 22.611916
4.2082148 1.4384522 1.6735756 13
4.4182043 1.5337064 1.6041352 13.1
4.1875262 1.7241466 1.6668099 14
4.2040138 1.8331552 1.6406716 15
4.1745906 1.953867 1.687672 16
3.9568403 2.2684798 1.6324322 18.599001
2.7819972 2.3530879 1.6878549 23.095501
2.8556838 2.3829546 1.6468965 23.096001
3.2462413 2.4091606 1.6466976 22.09725
-1.2939919 0.046307068 1.7664336 3
3.3298526 0.059844844 1.7932423 3
-1.3236114 0.1723341 1.7665292 4.8888888
4.1742058 0.15673275 1.7395686 3.5
-1.3240182 0.2866787 1.7138153 7
-1.3075544 0.36444956 1.7053523 8.0570002
-1.2938467 0.3632952 1.7675147 8.0574999
4.1808772 0.31879929 1.7470108 5
-1.3147494 0.42459589 1.7215649 9.0570002
-1.3083597 0.59854251 1.7034804 11.057
4.0963702 0.58784157 1.7767544 7
-1.2977802 0.62273258 1.7732087 11.363636
4.1962943 0.68735957 1.7354854 7.5
-1.3253839 0.87576091 1.7242571 15
-1.2770283 0.96660537 1.7800145 15.921608
4.1710267 0.98549116 1.7408936 9.3999996
-1.2799313 1.0022151 1.743228 17.057501
4.0761275 1.1044565 1.7940192 10
-1.2657814 1.2846066 1.7274373 20.057501
4.2364326 1.2309695 1.7052771 11
-1.2337672 1.3320508 1.7425667 20.963614
4.0957632 1.3865179 1.7641289 12.142858
4.1102157 1.3907952 1.7569222 12
4.1241188 1.7441951 1.7098187 14.75
3.9419582 1.9926136 1.7740113 17
3.8163948 2.2328575 1.7899485 18.333334
3.9743552 2.2494466 1.7254682 18
3.1890438 2.3910499 1.7474475 22.0965
3.6559856 2.3561604 1.7986369 20.0975
3.7015598 2.350975 1.7848754 19.5
2.9492195 2.4107471 1.7852554 22.095501
3.0257332 2.4128194 1.7406875 22.096001
3.0235283 0.083718888 1.8764052 3.5
-1.1474708 0.22401008 1.8942235 6
3.3427835 0.25679889 1.8135533 4.25
-1.2770085 0.35991824 1.8284615 8.0579996
-1.2716153 0.47287565 1.8593291 9.0582504
-1.2887881 0.5025869 1.8453273 10.058
3.2966111 0.5106709 1.8380374 7
-1.2949271 0.65250635 1.8637546 12
3.1222274 0.68222219 1.8945569 8.0955
3.2642763 0.6762476 1.8564539 8.1986666
3.1170821 0.7236771 1.8832847 9.0955
3.229954 0.7338528 1.8684366 9.0959997
3.3022244 0.73131442 1.8135217 9.0965004
3.9352701 0.75955653 1.8243108 8.0979996
4.0334167 0.70031053 1.8159083 8
4.0095582 0.89847791 1.8162467 9
3.1678441 1.0541949 1.8876894 11.25
-1.1914316 1.1499071 1.8920016 18
3.8820591 1.122867 1.8659267 11
3.9344604 1.1136926 1.8370463 11
-1.1977545 1.2493054 1.8510165 19.26475
3.1484854 1.2663822 1.8878403 13.5
3.8489575 1.2785265 1.8782039 12.04875
-1.1811923 1.3211139 1.8630284 20.059
3.8706198 1.474476 1.8713405 13.125
3.840672 1.8410631 1.8511994 15.888889
2.7975585 2.37852 1.8727965 23.0945
2.8542621 2.3935585 1.8158525 23.094999
3.576252 2.3806422 1.8592861 20.097
2.8791456 0.012569491 1.9580648 1
2.9853702 0.15392293 1.9080453 3.5999999
-1.2700351 0.26900217 1.942944 6
-1.2632408 0.47051778 1.9249587 9
2.9896603 0.48665047 1.9039928 6.5
2.921514 0.54427898 1.9441148 7.4000001
2.7929697 0.67762256 1.9921304 9
2.9378045 0.67135412 1.9240217 8.5
-1.1911511 0.74013543 1.9771292 12.52975
2.9980173 0.71304995 1.9035525 9.0950003
-1.1861961 0.86745846 1.9607922 14.5595
-1.1892707 0.97644997 1.9241685 15.8
2.8073359 0.93547082 1.9644828 11
2.9203622 0.9643603 1.9413959 11.0945
-1.2010993 1.0773317 1.9036516 17
-1.1896353 1.0191609 1.9606816 16.0595
2.7600915 1.0419928 1.986331 12
3.1405513 1.0309129 1.905532 11.0955
-1.168788 1.148226 1.9278096 18.0595
2.7845697 1.1177732 1.9680245 12.5
2.8366029 1.1206641 1.9776342 13.094
3.0078659 1.1277311 1.9123603 12.595
-1.1671125 1.270835 1.9310789 19.0595
2.6766775 1.2784669 1.996106 14.5
2.737865 1.298764 1.9748158 14.5
2.8237586 1.2623165 1.9707247 14.094
2.9182618 1.2775537 1.9410468 14.0945
3.0254788 1.2795013 1.9340018 14.095
2.8587739 1.3684559 1.9987401 15.094
3.1441431 1.3753181 1.9089725 14.0955
2.9162812 1.4469705 1.9506073 15.0945
3.0415962 1.4790685 1.9380039 15.095
3.5032487 1.4195105 1.922984 14.0965
2.9200816 1.5917895 1.9443524 16.0945
3.6801264 1.5811611 1.9329323 14
3.6687119 1.688682 1.9249309 15
2.8328805 1.7736413 1.9852909 18.094
2.7255836 1.8953172 1.998235 19.0935
3.4387717 1.8619784 1.9868032 17.096001
3.5614049 1.8505355 1.9533545 16.0965
3.5748577 1.9361346 1.9607328 17.0965
3.6451914 1.9055984 1.950281 16.5
3.6283381 2.0858128 1.945495 18
2.5743873 2.3693719 1.9673299 23.093
2.6671557 2.3765066 1.9492022 23.0935
2.7128706 2.3692079 1.9045665 23.094
3.2848771 2.421062 1.9965965 21.095501
3.4521532 2.4163568 1.9433149 20.596251
-1.2121623 0.26653668 2.0300758 6
2.815798 0.2299953 2.0125101 4.5
-1.2126322 0.46398902 2.0223606 8.5
2.8080192 0.54649478 2.0072827 7.5
-1.1691917 0.73673511 2.0255923 12.56
2.6987433 0.74589044 2.0520771 10
-1.1171032 0.89970887 2.0962112 14.5
-1.1611325 0.98237318 2.0258989 15.5
-1.1310518 1.0584407 2.0451033 16.530251
-1.1581769 1.2575998 2.0163448 19.059999
2.5431738 1.3533393 2.0656874 15.5
2.7335212 1.3314768 2.0030587 15.0935
2.5606167 1.4904451 2.0454767 16.5
2.7551 1.6518046 2.0168636 17.0935
2.4462655 1.7994679 2.048074 19.091999
2.4630766 1.8899378 2.0656619 20.091999
2.6418066 1.9054322 2.0285716 19.093
3.012886 1.9461721 2.0163033 19.0945
2.3865185 2.3518541 2.0924134 23.091499
2.4687636 2.3748007 2.0695078 23.091999
2.5349355 2.3751593 2.0309782 23.092501
2.7538362 2.3638601 2.0619967 22.09325
3.1039078 2.3298106 2.0745544 21.0945
3.2229095 2.448657 2.0440471 21.094999
-0.96254712 0.074605137 2.1996369 3
2.4949663 0.010166086 2.1885617 1
-0.99014127 0.20046593 2.184974 5.0769229
2.5744669 0.20729886 2.1505418 4.2142859
-1.1538285 0.3255851 2.1193717 7
-1.1334856 0.45809841 2.1415963 9.0305004
2.5804253 0.59476352 2.1478271 8.1333332
-1.1491044 0.62735862 2.105211 10.6
-1.1118208 0.72288394 2.1795247 12
2.552947 1.0176059 2.1185918 12.166667
2.290226 1.4570681 2.1930964 17.0905
2.3713546 1.4851949 2.1511374 17.0455
-0.76871252 1.5986091 2.1002927 23.063999
2.1755764 1.7384671 2.1772287 19.09
2.252774 1.7742233 2.1353035 19
-1.3063684 1.8575587 2.1583779 23.0595
2.1576571 1.8567336 2.1562738 20.545
2.2443731 1.8820399 2.1099699 20.5
2.3285983 1.8161649 2.1237674 20.091
2.0880599 1.9824092 2.1841881 22
2.2202375 1.9630044 2.1258919 21.0905
2.0302839 2.0719769 2.1547399 22.5
2.4158475 2.2344072 2.1201155 22.091499
1.9331545 0.082485497 2.2402334 3
-0.85776228 0.16243416 2.2447021 4.5
1.722219 0.11327776 2.2633696 3.6666667
2.0579724 0.15398219 2.295423 4
2.3781028 0.10875277 2.2280989 3
1.6610476 0.27346435 2.2721241 5.5
1.7895478 0.2119616 2.259531 4.8000002
2.2182727 0.22285323 2.2675352 4.5
-0.85470843 0.30888006 2.2308111 6.5
1.8896457 0.30546236 2.284205 6
-1.0986042 0.4956581 2.2242484 9.0614996
1.6434509 0.42705077 2.2735703 7.5
-1.0981071 0.56220007 2.2334678 10.0615
2.265085 0.58025926 2.274147 8
2.2005727 0.63850665 2.2985029 8.7777777
2.2146182 1.0097845 2.2903361 12.545455
2.2497401 1.3286891 2.2419984 15.333333
2.0595961 1.6906232 2.2544827 19.0445
2.1216154 1.7110518 2.2062786 19.0895
2.0227737 1.8478301 2.2356021 20
1.8516592 2.0543468 2.2460234 22.25
1.6885788 2.1005805 2.2984061 23.0865
1.7626513 2.1420302 2.2684181 23
2.0665495 0.38619968 2.3106411 6
-1.0518391 0.46150282 2.3973093 8.0625
2.0879345 0.45087686 2.3141479 7
1.839646 0.59664929 2.3264561 9
1.7114613 0.67862839 2.3295527 10.0865
1.8980254 0.67478049 2.3423464 9.5
1.9443254 0.67858893 2.3219337 10.088
2.0542381 0.68408209 2.3118463 10
2.1150548 0.68427783 2.3090975 9.0889997
1.6583679 0.70078647 2.361836 10.086
1.6871588 0.80607307 2.3992705 11.086
1.8140844 0.81352955 2.3546958 11.087
1.911348 0.81184226 2.3703568 11
1.7621095 0.93549585 2.3972178 12.5865
1.9176114 1.0118787 2.380302 13
1.8654962 1.3500522 2.3889594 16.25
1.8328894 1.4214013 2.3842511 17
1.8824818 1.6322713 2.3454485 19.0875
1.8482397 1.8482082 2.3099303 20.6
-1.2898942 1.9711924 2.3479726 23.060499
1.7029166 1.9517646 2.3450327 21.5
1.5883315 2.0550745 2.3749423 23.085501
1.6310414 2.0143986 2.3252113 23.086
1.7088093 2.0126603 2.3243823 22.0865
0.00056978001 0.019889582 2.464525 3
1.6826918 0.89858747 2.4064136 12.086
1.819625 0.95749056 2.4106343 12.5
1.6870105 1.1021652 2.4131439 14.086
1.7269871 1.1624389 2.4244397 14.793
1.8122241 1.1219058 2.4177215 14.2
1.7787845 1.2672061 2.427748 16
1.8045183 1.3879257 2.4149117 16.799999
1.6568285 1.4132642 2.4733691 17.085501
1.7088592 1.4112077 2.432143 17.086
-1.2359897 1.5911852 2.4965425 19.061501
1.6608279 1.5808828 2.488981 18.085501
1.7253358 1.544908 2.4352784 18.042999
1.7675411 1.6672834 2.4118242 19.333334
1.645388 1.7509073 2.4523232 20.085501
1.7025987 1.7719632 2.4193516 20
1.6250896 1.8857391 2.4239178 21.085501
-1.2425623 2.0218606 2.4560962 23.061251
1.6608881 1.4597396 2.5938315 17.084999
-1.244261 1.7959093 2.5382137 21
-1.2247809 1.8493198 2.551976 21.333334
-1.1987511 1.8381927 2.5766311 21.062
-1.2050741 1.932157 2.5821528 22.062
-1.2131135 2.0218682 2.5097704 23
-1.1797165 2.0608985 2.5452545 23.062
1.7043562 0.83798277 2.6769106 11.085
1.6778539 1.2682482 2.6429455 15.085
-1.2071087 1.5769079 2.6984048 19
-1.2245942 1.6648873 2.6166456 20.062
-1.2104754 1.7110139 2.6566458 20
-1.159838 1.8499134 2.6916723 21
-1.1362642 2.0748684 2.6330011 22.666666
-1.1492637 2.1203899 2.6202345 23.0625
1.5520823 2.30352 2.6738122 23.084
1.6292014 2.3147852 2.6873662 23.084499
-1.1417105 1.4169846 2.7848911 17
-1.1370376 1.5955687 2.7499576 19.063
-1.0728288 1.9989815 2.7765851 22.063499
-1.0587765 2.0518019 2.7303653 23.063499
1.4588931 2.2869391 2.7306933 23.08325
-1.1562552 1.0122584 2.80512 13.063
-1.1570319 1.1659588 2.8633966 14
-1.1580989 1.2855918 2.8565977 15.5
-1.1020643 1.6478783 2.8427796 19.063499
-1.0892286 1.8169322 2.8057723 20.063499
-1.0237235 2.0589411 2.823236 22.063999
-0.99582201 2.0886729 2.8593328 22
1.7137697 0.8856023 2.9550302 11.084
-1.1294125 1.059021 2.9230492 13.0635
-1.0094886 1.7259917 2.9925163 19
-1.021982 1.8473817 2.9213693 20
-0.96897471 1.8496197 2.9854684 20
-0.94378877 2.035301 2.9568753 21.666666
1.4614801 2.29529 2.9638956 22.0825
1.6829127 2.3183322 2.9223082 22.084
-1.1139135 0.6549527 3.0626647 9.0640001
-1.1007237 0.77253467 3.0197871 10.064
-1.0901539 0.90706462 3.0445538 11.5
-1.0631793 1.0209744 3.063401 12.555555
-1.0265894 1.349443 3.0424893 15.538462
-0.9589963 1.7585635 3.0491762 19.065001
-0.95613718 2.0614707 3.0488102 21.065001
-0.74479574 2.2570622 3.0584483 23.0665
-0.64144337 2.2740388 3.0619905 23.067249
-0.4308736 2.2596109 3.0073769 23.06875
0.13134441 2.2672122 3.0385401 23.073
0.20443475 2.2800875 3.0573225 23.0735
0.60546881 2.2758822 3.0231447 23.0765
0.67059398 2.3204517 3.0471978 23.077
1.6406003 2.3164048 3.0011387 22.0835
-1.0725696 0.65270466 3.1377931 8.5322495
-1.0773389 0.76033616 3.109832 9.7822495
-1.0070322 0.80603999 3.1747806 10.065
-0.93521631 1.3775711 3.135983 16
-0.92475438 1.5166732 3.1254613 17
-0.91664493 1.6134831 3.1412618 17.0655
-0.84033519 1.854158 3.1387601 19.5
-0.85278451 2.0075839 3.1376653 21
-0.82325816 2.2812872 3.1014905 23.066
0.075052507 2.2865264 3.1274831 23.0725
-1.0149673 0.63287848 3.2340825 8.0649996
-0.91849834 1.0154601 3.285013 12
-0.91117036 1.1778392 3.2309258 13
-0.89226407 1.3349801 3.2663496 14.75
1.8507588 1.4181895 3.2137659 14.084
-0.8854537 1.6557391 3.2587531 17.5
-0.21555932 2.3106625 3.2336943 23.070499
-0.14525925 2.3065114 3.274471 23.070999
-0.93621844 0.29023558 3.3733101 4.875
-0.93113387 0.67840099 3.3148003 8.75
-0.87786406 0.94088793 3.3502383 11.5
1.8523231 1.3305256 3.3630288 13.0835
-0.28910986 2.3216605 3.3648388 22.07
-0.1437078 2.3382988 3.3654294 22.070999
0.00075866835 2.3296204 3.311559 23.072001
-0.86354733 0.33198291 3.4633946 5
-0.87132174 0.5377261 3.446975 7
-0.85218531 0.67559469 3.4250267 9
-0.45502162 2.3437412 3.4730756 22.069
1.1694328 2.3430023 3.4216385 21.0795
1.8433151 0.69020784 3.5502329 8.0830002
1.8496811 0.88224077 3.5402038 10.083
1.8524845 1.0572551 3.5245199 10.7915
1.8582652 1.1075937 3.5043604 11
1.8588786 1.3072674 3.5290253 12.5
-0.86437941 2.3717408 3.5581834 21.0665
-0.54812825 2.3636105 3.5513797 22.068501
0.039690048 2.334331 3.5262198 22.07225
0.23996155 2.3883002 3.5814362 22.0735
1.3873904 2.3662577 3.5591426 21.0805
1.7625951 2.347877 3.553354 20.0825
1.8222793 2.3666317 3.5044048 20.083
1.9017862 2.2906995 3.6454024 19.083
-0.8174364 2.3830309 3.6659 21.066999
-0.72430992 2.3751338 3.6268604 21.067499
0.044361662 2.3748171 3.659765 21.07225
0.3207643 2.3920584 3.6549125 21.073999
1.055649 2.3678422 3.6056943 21.078501
1.3215791 2.3620493 3.6264808 20.08
1.659532 2.342062 3.6617501 20.081749
1.6706812 2.2914262 3.7999585 19.081499
1.7572869 2.2990785 3.7511458 19.082001
-0.16039675 2.3547444 3.7580938 21.070999
-0.076111257 2.3696358 3.7270007 21.071501
0.49776855 2.3992138 3.7956071 21.075001
1.1877681 2.3615713 3.7725666 20.079
1.2604052 2.3701286 3.7131131 20.0795
1.569141 2.3480263 3.776305 20.080999
1.8326646 2.3090823 3.7101486 19.0825
1.5945946 2.2917325 3.8581009 19.080999
-0.33581921 2.3756721 3.8480592 20.57
-0.24810103 2.3619354 3.818027 21.070499
0.83693546 2.3599644 3.8060868 20.077
1.0462976 2.3503439 3.8746693 20.077999
1.122571 2.351299 3.8179033 20.078501
1.3531187 2.3048975 3.8663542 19.07975
1.4857929 2.3289402 3.8126378 19.0805
0.59843111 2.4115338 3.8904746 20.0755
1.9561186 2.0783155 3.9980354 17
1.9523118 2.1750269 3.9350133 18.0825
1.4524584 2.2572112 3.9943967 18.08
2.146487 2.2494969 3.9094813 18.0835
-0.79799169 2.3716052 3.9937136 20.067499
-0.60958493 2.361948 3.9730036 20.068501
-0.52398783 2.3755 3.9587471 20.069
-0.42930353 2.3651299 3.9098902 20.0695
0.42530367 2.380754 3.9162872 20.074499
0.52400267 2.3760588 3.9956551 20.075001
0.69508368 2.3932726 3.9347742 20.076
0.79417026 2.3745501 3.9775462 20.0765
0.96723014 2.3431153 3.9265814 20.077499
1.2497231 2.3068569 3.948523 19.079
1.9923427 1.582242 4.0616412 13
2.0030379 1.5844411 4.0508518 13
2.0195827 1.7026774 4.0843101 14
1.9756044 1.8302083 4.04882 15
1.9806892 1.9021732 4.056675 15.5
1.8932551 2.1873128 4.0406251 17.082001
1.0917181 2.2994266 4.0685239 19.077999
1.1935245 2.2674015 4.0831604 19.078501
2.0868294 2.258074 4.0110297 18.083
-0.71459746 2.3620813 4.0486317 19.568001
0.44968036 2.3328066 4.0741768 19.074499
0.59536499 2.3166883 4.0862732 19
0.89283687 2.3480587 4.0059004 19.077
0.99353319 2.3176484 4.0333629 19.077499
-0.73390669 0.69330835 4.125145 8.0679998
1.8446118 1.6668043 4.1894026 14.0815
1.9468768 1.6890131 4.1506476 14.082
-0.68737227 2.2676997 4.1870441 18.5
0.1808155 2.2923512 4.1873965 19.073
0.58587283 2.289124 4.1223497 18.75
0.73634529 2.27352 4.1694293 19.076
0.82642752 2.2837164 4.1401796 19.0765
0.93682891 2.2338674 4.1901336 18.077
1.0232313 2.2649624 4.1825066 18.077499
1.1082057 2.2557054 4.1168652 18.077999
1.3104635 2.2581704 4.1393213 18.079
1.4203616 2.2277091 4.1626205 18.0795
-0.65360844 2.3469667 4.1608815 19.03425
0.27272436 2.3151901 4.1633739 19.0735
0.36857283 2.3195558 4.1182275 19.073999
0.54494452 2.3187695 4.1047926 19.075001
1.5715319 1.6763406 4.2923584 14.08
1.6553547 1.6303182 4.2642064 14.0805
1.7478141 1.6481791 4.2216606 14.081
-0.37326485 1.7966483 4.2667975 15.07
-0.28440869 1.7742809 4.2653513 15.0705
-0.74129939 1.8493896 4.2349634 16.068001
-0.46848223 1.8084724 4.2677794 16.0695
-0.36323065 1.844027 4.2155557 16.07
-0.28201276 1.8071653 4.2154036 16.070499
-0.71488208 1.9396994 4.286901 16.5
-0.70375621 2.1204481 4.2588005 17.5
1.7451917 2.1832662 4.2046561 17.080999
-0.65859967 2.2139306 4.2946596 18.068501
-0.18898135 2.2669835 4.2691655 18.570999
-0.093517601 2.271585 4.249125 18.571501
0.00095961284 2.2624402 4.2126589 19.072001
0.10142461 2.2873971 4.2119207 19.0725
0.37704936 2.2358027 4.2973685 18.073999
0.47063804 2.2482648 4.2716622 18.074499
0.56737924 2.2547932 4.2236891 18.0375
0.65339059 2.2678604 4.2044415 19.0755
0.75422925 2.2223382 4.2962074 18.076
0.8412149 2.2212164 4.2350831 18.0765
1.2493103 2.2206807 4.2740102 18.078501
1.6805034 2.2220888 4.2909417 17.0805
-0.54853791 2.314393 4.2370219 19.069
-0.65726751 1.7930216 4.3307405 15.0685
-0.57138205 1.8733758 4.3101602 16.069
-0.70036846 1.94568 4.3416066 16
-0.56504482 2.2383852 4.3238878 18.069
-0.46637022 2.2436922 4.3127422 18.0695
-0.3708351 2.2628531 4.3269367 18.07
-0.27342907 2.2702742 4.3158107 18.070499
0.19514774 2.2182896 4.3662314 18.073
0.28988385 2.2268085 4.3276768 18.0735
1.3822904 2.2216332 4.3662004 17.079
1.9273957 2.2333708 4.3900976 17.081499
0.0010105539 2.1923664 4.4376154 17.072001
1.5225217 2.1801834 4.4524231 17.0795
0.05014753 2.2100143 4.4302258 18.07225
-0.29713711 2.1704416 4.5795593 17.070499
0.39081466 2.1981659 4.5220208 17.073999
1.4244064 2.1738851 4.5416646 16.079
-0.20091894 2.2285633 4.5266871 17.070999
-0.099403687 2.2039142 4.5229239 17.071501
0.90041286 2.2380717 4.5354733 17.0765
0.20021693 2.1780932 4.6297369 17.073
1.6754042 2.1270671 4.6113214 16.08
1.3773295 2.124747 4.7031856 16.078501
0.74733627 2.2733362 4.7954206 17.0755
0.87731057 2.1808138 4.9574037 16.076
0.11031318 2.2381659 4.9039779 16.0725
0.22160786 2.2231688 4.9483232 16.073
1.2030315 2.2196019 4.9164333 16.077499
0.11969846 2.3037581 4.9796615 17.0725
-0.55586416 2.0064971 5.0521317 15.0695
0.77333301 2.198987 5.0185437 16.0755
1.0082278 2.1991713 5.0561428 16.0765
1.945837 2.164788 5.0222349 15.0805
0.33844033 2.2300656 5.0424147 16.0735
0.66213989 2.2013071 5.0400019 16.075001
1.1159977 2.2218003 5.0093832 16.077
-0.5691123 1.2214247 5.1791468 10.0695
0.79617417 2.1840851 5.1951289 15.0755
0.90758681 2.1966953 5.1497445 15.076
1.8670443 2.1798289 5.1064091 15.08
0.45699564 2.2328296 5.1049647 16.073999
0.55510283 2.2312248 5.1024604 16.074499
1.6598556 2.0447299 5.2550039 14.079
1.7896272 2.0592351 5.2550187 14.0795
1.0483127 2.1908088 5.2517824 15.0765
-0.11496475 2.2224555 5.2107959 16.071501
0.0011908127 2.2088208 5.2473831 15.572001
1.5536373 2.0592351 5.3295584 14.0785
0.2393097 2.1967609 5.3530574 15.073
1.3078855 2.1868227 5.3474593 15.0775
1.4479511 2.184478 5.397543 15.078
-0.47219399 0.99680614 5.4058709 8.0699997
0.34487671 2.1906698 5.404633 15.0735
0.49075466 2.1950009 5.4918313 15.074
-0.11284728 2.2090111 5.4985518 15.0715
-0.35255677 1.618377 5.5576072 12.0705
-0.37165931 2.0788002 5.5936556 14.0705
0.60831809 2.1809695 5.5199313 15.0745
0.73844421 2.163626 5.5623698 14.075
1.2447506 2.1142199 5.5673866 14.077
1.3633449 2.1064613 5.5172386 14.0775
0.12745814 2.1864963 5.6577692 15.0725
0.87973583 2.1720512 5.6595116 14.0755
1.014237 2.1606352 5.6887627 14.076
-0.3615196 1.1263864 5.7221179 9.0705004
0.37846178 2.1616557 5.7688866 14.0735
0.50987786 2.1636236 5.7922001 14.074
0.63469338 2.1449642 5.7417035 14.0745
1.1562496 2.144048 5.7435255 14.0765
-0.5198341 2.1970384 5.8560538 14.07
-0.24797772 2.1561201 5.802434 14.071
-0.12927485 2.1385157 5.8847303 14.0715
-0.62718767 2.2040906 5.8087063 14.0695
0.0013476885 2.1414771 5.9529152 14.072
0.14295305 2.1222224 5.9546928 14.0725
0.25784975 2.120157 5.9896317 14.073
0.39037922 2.1031389 5.9776802 13.0735
0.92396325 2.0994079 6.0160875 13.0755
1.4908662 2.0968039 6.0908093 13.0775
1.0657374 2.1105163 6.0423603 13.076
1.2085115 2.1152349 6.0621867 13.0765
1.3453366 2.1139395 6.0456042 13.077
1.6210401 2.14485 6.0411768 13.078
1.7801099 2.1234188 6.0639257 13.0785
1.9200753 2.118948 6.0413465 13.079
2.0608954 2.1290874 6.0812349 13.0795
2.1893272 2.1018128 6.0175257 13.08
2.3485615 2.1083877 6.0349202 13.0805
1.7060496 2.0738795 6.3145585 12.078
2.3264256 2.0576768 6.3524814 12.08
0.56938386 2.0533483 6.4846454 12.074
0.84831601 2.0950992 6.4654002 13.075
1.8923484 2.1036751 6.4394002 12.0785
1.3104485 2.0131965 6.5991836 12.0765
1.4508443 2.0507972 6.5061598 12.077
2.0530252 2.0910065 6.5243073 12.079
1.6241679 2.1153023 6.5710254 12.0775
0.7260977 2.0070918 6.6674814 12.0745
1.0253948 2.0126414 6.6474962 12.0755
2.2784166 2.0969889 6.6809449 12.0795
0.16323254 2.0757046 6.7859459 12.0725
0.29044583 2.0839279 6.7333026 12.073
1.1840984 2.0356936 6.7622743 12.076
0.0015422329 2.0583229 6.825315 12.072
0.0015822409 0.38996643 7.0047307 4
0.94123822 2.0399222 7.0863414 12.075
1.8923168 2.0219545 7.0521588 11.078
0.0016144873 1.1672242 7.1493268 8.0719995
2.5938501 2.0690362 7.1629443 11.08
0.0016463761 1.8525603 7.2923265 11.072
0.0016485498 1.421181 7.3020744 9.0719995
0.65118909 2.0357904 7.4163437 11.074
1.6555823 2.0109522 7.4281664 11.077
1.5146365 1.9924258 7.5860124 11.0765
0.34414288 2.0280273 7.6943517 11.073
2.6365013 1.9582363 7.7802377 10.0795
2.5455291 1.9726505 8.0633574 10.079
1.0680923 1.9647624 8.1446037 10.075
2.3954329 1.9507753 8.1666327 10.0785
0.37118751 2.0327673 8.296958 10.073
0.93111384 1.9690454 8.3276491 10.0745
2.2570336 1.9395733 8.3824558 10.078
2.0617745 1.9617189 8.4055357 10.0775
1.8903846 1.9572191 8.5232706 10.077
0.5688929 1.9542611 8.6981182 10.0735
1.714578 1.9521717 8.63657 10.0765
2.9573848 1.9005936 8.6930599 9.0795002
1.9473121 1.8986801 8.7074823 9.0769997
1.5483243 1.953602 8.7423792 10.076
2.7985559 1.8847282 8.8172503 9.0790005
2.6072752 1.9282463 8.910264 9.0784998
1.7771932 1.8954968 9.0201426 9.0764999
0.98459315 1.9344186 9.0435047 9.0745001
2.4733965 1.85302 9.1862354 9.0780001
2.2870407 1.8791301 9.2943172 9.0775003
0.59031326 1.9207882 9.227766 9.0734997
1.4454615 1.8687578 9.3659563 9.0754995
1.6582932 1.8800997 9.3108511 9.0760002
1.2399826 1.8504074 9.5414648 9.0749998
0.85820746 1.8604226 9.7642145 9.0740004
1.3074657 1.8800861 9.9546804 8.0749998
1.999629 1.8519627 9.9995384 8.0764999
1.7744889 1.8740321 10.029743 8.0760002
2.2326798 1.853807 10.153535 8.0769997
2.5389907 1.8552805 10.291166 8.0775003
2.7663715 1.8315496 10.293191 8.0780001
1.5803453 1.7927409 10.303139 8.0754995
0.90924871 1.8117664 10.350193 8.0740004
3.0461011 1.8361176 10.404384 8.0784998
3.3174422 1.8147727 10.461834 8.0790005
1.1825787 1.7739856 10.760967 8.0745001
2.1667554 1.7112253 10.937336 7
2.6525385 1.6817708 13.271931 6
