# .PCD v0.7 - Point Cloud Data file format
VERSION 0.7
FIELDS x y z intensity
SIZE 4 4 4 4
TYPE F F F F
COUNT 1 1 1 1
WIDTH 417
HEIGHT 1
VIEWPOINT 0 0 0 1 0 0 0
POINTS 417
DATA ascii
19.191683 0.69810146 -2.6203825 4
3.6644092 0.19871546 -2.4428554 4
3.5719848 1.1968856 -2.4226258 11
3.6428902 1.0691267 -2.4299288 10
3.8390889 0.64427632 -2.3824682 7
3.8021655 0.88995492 -2.2696509 8.5
3.7151072 1.0810528 -2.2060771 10
3.5324004 1.5011061 -2.3562996 12.666667
3.3539054 1.7438575 -2.3675976 14.5
3.5881705 1.6532636 -2.3416276 14
3.3840601 1.9442514 -2.3186605 16
3.5213943 1.86499 -2.3525074 15
2.272897 0.33336425 -2.1476383 5
2.1951554 0.40315545 -2.1376164 6
2.2202041 0.49945897 -2.1689537 7
2.4618993 0.48035476 -2.1070468 6.5
2.3450251 0.71091968 -2.0087588 9
1.8216549 1.1186889 -2.1052949 13.5
2.1409452 1.1565505 -2.0986137 13
1.7900953 1.3182809 -2.0792925 15
2.131197 1.3227268 -2.0027301 14.5
19.304781 1.2749965 -2.1688268 5
0.89444935 1.8086045 -2.0430093 20
2.7003357 0.50583112 -1.8966686 7
2.6602254 0.70272523 -1.8619984 8.5
19.359144 0.98831666 -1.9477473 4
2.321527 1.066413 -1.9657809 12.5
2.3152134 1.2547401 -1.9178044 14
2.2556133 1.4176062 -1.8797342 16
2.0038898 1.7785511 -1.8632919 20
2.2244349 1.719746 -1.847633 18.5
0.90055841 1.931249 -1.9480225 21.5
1.9408258 1.9270048 -1.8314639 21
1.0930066 0.34764129 -1.6474209 6.75
1.3048241 0.27329853 -1.6353414 5.5
0.76263738 0.48217547 -1.686662 10
1.2601639 0.50398844 -1.6050845 8.5
2.1676223 1.9216005 -1.7906209 20
0.85187405 0.29570842 -1.4285818 8
0.79697382 0.42843583 -1.4886968 10
1.1062518 0.50946981 -1.5947901 9
19.380785 1.0623164 -1.439775 4
-1.9734979 0.10216375 -1.247775 4
0.896846 0.13294885 -1.2936578 5.75
-1.9654925 0.32092968 -1.2470405 7
-1.9452877 0.56916541 -1.2236191 10.5
0.89376724 0.55875242 -1.3684598 12
-1.936653 0.69629765 -1.2237221 12.5
0.88649505 0.93154097 -1.2402858 18
19.53224 1.6280736 -1.3895473 5
-1.9626914 0.075838521 -1.1006502 3.2
-1.9935484 0.22752579 -1.130483 6
0.99000776 0.28918457 -1.1521856 8.75
-1.9771284 0.47288373 -1.0959331 9
-1.9557467 0.72241092 -1.0536731 12.5
0.94501221 0.72116125 -1.178936 15.5
-1.9313688 0.9142552 -1.1405168 15
1.7034017 0.80115217 -1.0744036 15
-1.9062246 1.0373116 -1.0957619 17
1.5356474 1.1417533 -1.0304002 21
-1.9397838 0.14277196 -0.99668193 5
-1.8597586 0.36776024 -0.89923477 7
1.1553851 0.34792981 -0.93755054 7.75
-1.8812556 0.57839501 -0.85075003 10.5
-1.9122622 0.66338223 -0.83884919 12.5
-1.7753341 0.75148028 -0.89688385 12
1.1769091 0.77627093 -0.86897063 15
-1.8721223 0.90319848 -0.87789905 14.75
-1.7474991 0.95175231 -0.95779872 15
1.1539606 0.8733992 -0.83647823 16.5
-1.9069313 1.1000785 -0.8798663 18
-1.853348 1.3516388 -0.90926307 21
3.9880776 2.3488998 -0.86892641 19
3.8047707 2.4783387 -0.85818923 20.5
-1.9635346 0.0041582314 -0.7269696 2
-1.791303 0.15749633 -0.68181765 4
-1.9452541 0.51710242 -0.65726143 10.5
-1.7413536 0.45784768 -0.60558343 9
-1.8508532 0.78364068 -0.77506381 13.5
-1.7859501 0.78410244 -0.77982211 13
-1.8714253 0.91583371 -0.65686893 17
-1.7771392 0.93314242 -0.72364283 15
1.1241928 0.9987551 -0.76590455 21
-1.8920566 1.1684376 -0.74620873 19.5
-1.7187568 1.1761321 -0.67287761 18.75
-1.8577822 1.3226455 -0.72491431 21.5
-1.6563723 1.2740484 -0.67907488 20
-1.9532108 0.032055918 -0.49770507 2.5
-1.8184382 0.24127899 -0.5800088 5.5
-1.8106195 0.41493425 -0.49313435 8
-1.7149713 0.56436914 -0.58557117 10
-1.7499111 0.76113141 -0.56923842 13.5
1.238093 0.76935017 -0.59188628 15.5
-1.8061093 0.95997131 -0.52121782 15.666667
-1.6764048 0.91572845 -0.48816106 16
-1.8411493 1.0889101 -0.54474014 19.5
-1.7802966 1.1712322 -0.47111094 19.75
1.2188493 1.1666526 -0.57957959 21
1.1972046 1.2466236 -0.55088627 22.5
-1.9108796 0.11859369 -0.29998231 4
-1.9273767 0.29235801 -0.2501516 7
-1.7762873 0.71708655 -0.20562789 13.25
-1.8658559 0.83356738 -0.37345439 16
-1.7349296 0.89123446 -0.28950742 16
-1.6964314 1.098524 -0.22111997 19.25
-1.8009177 1.2246121 -0.29311228 22
-1.7734553 1.2953472 -0.28405443 23
-1.6530402 1.4325335 -0.35120955 23
-1.8061687 0.20326899 -0.1227065 5
-1.8557098 0.54498088 -0.17511761 10.75
-1.7730972 0.59714717 -0.11926892 11.5
-1.8424648 0.92091739 -0.079979718 18
-1.7604256 0.90082091 -0.12204847 16.166666
-1.6636791 1.1643244 -0.17332759 20.75
-1.6655946 1.2598848 -0.14991625 21.666666
4.1258497 2.3382387 -0.18643162 19.5
3.9524405 2.4335573 -0.17348203 21
-1.8470054 0.15153866 0.0010791295 5
-1.7344681 0.057295118 0.14220691 3.5
-1.7977856 0.59664321 0.12075244 13
-1.7258368 0.76599276 0.020627409 15
-1.7239084 0.91325939 0.104352 17
-1.7048495 1.0348637 0.17292058 19
-1.6458644 1.2802672 0.15384495 23
-1.7021576 0.1044362 0.30989587 4.3333335
-1.5942651 0.14815146 0.31012699 4.5
-1.6213193 0.5942927 0.36963001 13
1.2317646 0.54123253 0.34881046 16
-1.6713009 0.68282604 0.30933404 14.541667
-1.7144444 1.1487616 0.20063198 20.5
-1.5005649 0.13803431 0.51382369 4.5
-1.6561933 0.22375406 0.58996189 7
-1.4678329 0.35118318 0.51961237 9.5
-1.7184966 0.47449204 0.49204442 11
-1.5693041 0.68389559 0.52749217 15
-1.5880203 0.99595642 0.54376006 19.5
4.161962 2.2757933 0.55053365 19
1.290316 0.081036016 0.71196878 4
-1.537362 0.48074171 0.61072302 11
-1.6269898 0.84347099 0.69764733 16.75
-1.615894 1.1354988 0.71880448 21.5
-1.532493 1.0525415 0.79033065 20.5
4.0367107 2.3569438 0.60911191 20
-1.659411 0.34740937 0.82663304 8.5
-1.6567187 0.4715099 0.84547949 10.5
-1.5658553 0.96076554 0.90219307 19
-1.5432442 1.0680091 0.9482969 21
3.3293064 1.0348548 0.96482646 13
3.2906253 1.2804757 0.97314215 14.5
-1.6027588 0.050281264 1.0187018 3
-1.4743341 1.1339456 1.1546669 20.5
3.1502564 1.0990373 1.0911992 13.5
-1.4521643 1.2822301 1.1181035 22.666666
3.0809927 1.3986827 1.0978688 17
3.2236969 1.3830624 1.0134023 16
2.1970067 0.13389583 1.3280296 4.5
2.2201765 0.24889268 1.3318995 6
-1.4600043 0.70050079 1.3024237 14.75
-1.3996785 0.7110467 1.2834417 15
2.1022315 0.74877632 1.383876 13.5
-1.5199925 0.9279303 1.3090419 18
1.8066385 0.8410297 1.3672919 16
2.0672874 0.90216225 1.3187379 15.333333
-1.5112748 1.0737115 1.3035051 19.833334
3.1292486 1.1090537 1.3137059 13.5
3.1165416 1.3266933 1.2746652 15.5
2.9839101 1.4316578 1.2958171 17
5.4866123 1.9288155 1.3914998 13
5.5196638 2.0779495 1.3592134 14
5.4117241 2.2454681 1.3049164 15
-1.4165187 0.0032478222 1.5439081 2
1.8490926 0.19352113 1.4816068 6
4.5068302 0.13221978 1.5382854 3.5
1.5991811 0.27532527 1.5741215 7.5
1.8740759 0.29690856 1.4893552 7
4.4821754 0.34486032 1.5364077 5
-1.383085 0.46891555 1.5381858 10.5
1.5507358 0.52092952 1.550428 11.833333
1.7503892 0.54048914 1.5477253 11
1.9138179 0.51666266 1.4321386 11
-1.4150516 0.7550391 1.4837891 15
1.5809681 0.67646617 1.5790714 14
1.6753844 0.63235122 1.5498333 13
1.8984227 0.65970129 1.4444414 12.5
-1.3435514 0.97130871 1.547994 17
1.5291774 0.91123664 1.4990209 18.5
1.646682 0.9608444 1.4724627 18.75
-1.4791104 1.0495164 1.4680086 19
-1.3731275 1.097352 1.4864116 19.333332
1.5922778 1.145093 1.5809293 21.5
1.6574343 1.0612235 1.4467924 19.5
-1.322456 1.2056829 1.5869113 20
1.5627674 1.2467294 1.5707191 23
-1.4295437 0.15783551 1.662678 4.5
-1.3394703 0.06780079 1.6863302 3.5
3.3835585 0.077311777 1.7498327 3
4.1749654 0.15673307 1.7318621 3.5
-1.4064418 0.30714747 1.6496741 7.25
-1.3283637 0.3284328 1.709975 7.75
1.4885796 0.28333804 1.636281 8.5
1.644876 0.38774216 1.7649523 9
3.4047799 0.23925062 1.7572945 4
4.1816397 0.31879959 1.7393003 5
-1.3324528 0.5149473 1.7377138 10
1.5297186 0.43443418 1.6701653 10.125
-1.4183757 0.77816725 1.7663718 15
-1.3017139 0.65965235 1.6621583 12.5
1.6513306 0.74401402 1.675845 15.5
4.0873556 0.75058216 1.7721908 8
-1.4667842 0.88191104 1.6306336 16
-1.3031993 0.88127834 1.7613806 14.5
1.504082 0.86120307 1.6454024 16.5
1.6362776 0.83433974 1.6214218 17
4.1637988 0.8939929 1.7801766 9
-1.3128752 1.148885 1.6532024 19.75
1.482989 1.0488217 1.7114058 19
1.6150521 1.0128673 1.7490052 19
1.4908981 1.2018303 1.6573788 21
4.3077569 1.4678926 1.6275655 12.5
4.2681785 1.6137148 1.6313789 14
4.1135283 1.9337341 1.6787688 16
4.2047315 1.8331554 1.6329882 15
4.0816922 2.1301198 1.700246 17.5
3.7300415 2.3553267 1.7018944 20
-1.2526581 0.13293265 1.9327762 4
1.6888633 0.18586971 1.9119012 5.5
2.7601857 0.011020589 1.9409143 1
3.0225854 0.09038052 1.8403598 3
-1.2764072 0.3359822 1.9521596 7.5
1.5100722 0.36844683 1.8800831 9.25
1.6705472 0.30704162 1.8313135 7.5
3.0555892 0.26931524 1.8585331 5
-1.2945555 0.49504247 1.9257492 9.666667
1.6671745 0.47505462 1.8071995 10.5
2.9347203 0.46185306 1.9379945 7
-1.2640705 0.70767492 1.9088745 13.666667
1.4959145 0.71609849 1.9015621 14.166667
2.9249165 0.63699615 1.9112226 8
3.039422 0.76561266 1.875988 9
-1.2817749 0.93740523 1.8810506 19
-1.1603335 0.97518623 1.9730383 16
1.4457388 0.86630464 1.8845847 16.5
1.6375962 0.94688839 1.8032964 18
2.8900609 0.89584005 1.931013 10.5
-1.2467518 1.1258508 1.8891598 20.6
-1.1716464 1.0667177 1.9460081 17
2.8034475 1.0790869 1.9439985 12
-1.1995083 1.2801235 1.8371123 22
2.6660569 1.2886966 1.9996732 15
2.8390162 1.2130829 1.9624985 13.5
3.7992992 1.2630527 1.8771447 12
4.0169139 1.2515782 1.80524 11
2.747889 1.4681195 1.9586796 16
2.8225536 1.4117451 1.950076 15
3.7472422 1.5409173 1.90468 14
3.8015938 1.4592204 1.8769522 13
3.7500081 1.7679156 1.8908637 15.5
3.558121 1.9348863 1.9792649 17
3.5250688 2.1393721 1.9604248 18
3.5042593 2.2742767 1.952997 19
3.4398637 2.4185326 1.9033151 20.5
-1.3273412 0.17985313 2.0420134 5
-1.1782256 0.18654424 2.1793845 5
-0.96428847 0.080118828 2.1875172 3
1.6473597 0.074155457 2.0933075 3
2.1016686 0.00021024287 2.1828241 1
2.3717468 0.011482482 2.1424878 1
2.705791 0.00059793412 2.0081124 1
-1.3181442 0.2832709 2.0553 6.5
-1.1615787 0.28099114 2.1430869 7.25
-0.98749471 0.22101872 2.1614106 5.5
-1.2178282 0.51750433 2.1201701 12
1.5380918 0.45571199 2.1642947 9.5
1.6406068 0.52907091 2.1569545 11
-1.2473353 0.68887591 2.0527549 13.5
-1.1254566 0.71578538 2.1718144 12.5
1.5274526 0.61718738 2.1372221 12
1.611836 0.70541936 2.1478887 13
-1.2472363 0.86301959 2.0456266 16.25
-1.1274351 0.91834193 2.0699019 14.5
1.5968975 0.80601114 2.1675262 15
-1.1578454 1.086673 2.1454732 21
1.5647038 1.1651919 2.1861482 19
-1.1292236 1.3040416 2.0893779 22
2.343286 1.5147346 2.1216798 17.5
2.3229697 1.6743698 2.0994198 19
2.0967779 1.9357224 2.1544757 21.5
2.3090205 1.8020455 2.084228 20
-1.160081 0.06716691 2.301753 4.5
-0.97196084 0.10633705 2.2177289 4
1.8260833 0.085671581 2.2261405 3.5
2.1715066 0.049557142 2.2545993 3
-1.1660045 0.31541228 2.2791483 7.0833335
1.6178479 0.29931194 2.2824297 7
1.8698678 0.32111531 2.262135 5.5
2.1532745 0.25298953 2.3004384 5
-1.1451662 0.51319933 2.25349 9.9375
1.6678817 0.4854098 2.2952304 9
2.1321905 0.5076201 2.2872226 7.5
-1.1047908 0.63060451 2.2150025 11
1.7256533 0.66531682 2.3158348 10
1.8835982 0.77095097 2.3510306 11
-1.066992 0.98594046 2.3388667 16
1.6059169 0.95166659 2.2819762 16
1.8705589 0.88170433 2.3614845 12
-1.0563717 1.0870221 2.312197 18.125
1.5839547 1.0285323 2.2474782 17.5
1.7107353 1.7735006 2.3973243 20
1.8029525 1.8145405 2.3323789 21
2.0238056 1.8478305 2.228126 20
1.5971999 2.0870912 2.3276219 23
-1.0705007 -0.0060157171 2.5071006 3
1.6506227 0.1906939 2.5865955 5
-1.0831832 0.33916017 2.486496 9
1.6344637 0.32093915 2.573283 7
-1.0555778 0.49777603 2.5348489 11
1.6372771 0.50852537 2.5121653 9.5
-1.0318096 0.68602538 2.4976864 13.5
1.6214947 0.73045117 2.4263699 13
-1.0401073 0.92608184 2.44576 16.333334
1.6847792 0.99926978 2.4175813 13
1.6911877 1.1087823 2.4265194 14
-1.0141685 1.2204441 2.5078793 20.5
-0.98378807 1.2220163 2.5575521 20
1.6873355 1.3086361 2.4493768 16
1.7111776 1.5013549 2.430397 18
1.586729 1.9976929 2.4045455 22
1.6198825 1.8158296 2.4714007 21
-0.97578305 0.055039994 2.6392133 4
1.6701254 0.08418221 2.6246839 4
-0.98853058 0.24440514 2.6361756 7
-0.9558093 1.0598501 2.6965168 18
-1.1903894 1.2750697 2.7190614 15.5
1.6831133 1.2176356 2.6640246 15
-1.1411283 1.4332633 2.782846 17
1.6363107 1.4946091 2.6037481 17.5
-0.90378934 -0.014971022 2.864255 2.5
-0.91579568 0.059718601 2.8997459 4
-0.92491084 0.44707066 2.8846047 9.333334
-0.94093102 0.65626699 2.8212199 12
-0.91610765 0.90340245 2.8308961 15.25
-1.0946804 1.1155849 2.973218 13.5
-0.86262876 0.25022969 3.0313878 6.5
-1.0809431 0.69191629 3.1054821 9
-1.0612241 0.94764173 3.0769224 11.5
1.8267721 1.1086094 3.1493349 13.75
-1.001848 1.3530239 3.0961614 15
-0.96828461 1.4683552 3.0987597 16.5
1.7813458 1.4733077 3.0533545 17
1.819459 1.7283902 3.1460066 20
-0.89488357 0.1981355 3.3910091 4
-0.9536981 0.28452531 3.3447316 5
1.8447877 0.49424139 3.3887 7
1.8293469 0.72228378 3.2997272 9.75
-0.85911137 0.94627792 3.3765743 11
1.7888333 0.99899614 3.238622 13
-0.89839596 1.0673347 3.2694893 12.5
-0.90473652 1.2574114 3.2265146 14.5
1.8677756 1.2819701 3.2788725 15.5
1.8424057 1.4259295 3.2308116 17
1.7195885 1.7255933 3.3458922 18.5
1.7595595 1.9582658 3.2501302 21
1.7411331 2.0075994 3.2153854 22
-0.86150938 0.23865895 3.4587698 5
1.8848631 0.32192269 3.4649148 5.75
-0.87597692 0.4618479 3.4117227 6.5
1.8725991 0.52564371 3.4808815 7.5
-0.85420603 0.70475757 3.4321992 8.5
1.9085267 0.65347034 3.5409122 8.5
-0.85493934 0.83291006 3.4028604 10
1.870483 1.0482838 3.4788349 12.166666
1.8678112 1.2608616 3.5261567 12
-0.88843167 1.5554187 3.586061 16.5
1.8130586 1.4593194 3.4339848 17
-0.88734847 1.8668214 3.4260883 20
1.9145137 0.14212468 3.6484051 3.3333333
1.8743807 0.3607505 3.7498989 6
1.8669192 0.51061082 3.7152252 7
-0.87911898 0.74028772 3.7869933 8.5
1.8666135 0.69274652 3.7371597 9
1.8473579 0.88900715 3.6693897 10.5
-0.9084813 1.0683497 3.7131245 12.333333
-0.87457734 1.3154293 3.7130089 15.166667
-0.8292439 1.8241203 3.6914558 21
-0.82729489 2.0036421 3.6363678 22
-0.80930501 0.17666836 3.9826186 4
-0.86568105 0.38727975 3.8700726 5.5
-0.83239281 0.93820554 3.9225545 12
-0.83074582 1.181455 3.8707337 14.5
-0.79196006 1.7113874 3.8503628 19.25
-0.79011786 0.017830858 4.0718656 3.5
-0.75590229 0.27299821 4.1322975 5.75
-0.81473011 0.48653015 4.0361118 7.5
-0.77566886 0.63661003 4.0408988 9
-0.75436729 0.80683768 4.0501552 11
2.004914 1.5844415 4.0430112 13
1.9879853 1.7106884 4.0328445 14
1.9872122 1.8929194 4.0327306 15
-0.68059653 2.3524003 4.1239862 19
0.10057045 2.3526256 4.0814848 20
-0.66685325 0.070030138 4.2564354 3.5
-0.66308355 0.38800222 4.2475357 7
-0.66114753 0.5714106 4.2451868 8
-0.68743169 2.155462 4.2722859 17.5
0.17581235 2.2727778 4.246069 18.5
2.0888481 1.3617243 4.5127287 12
0.40759429 2.3056469 4.6988926 19
0.37102541 2.204772 4.8618169 17
0.42305192 2.2215223 4.8029389 18
4.1330099 0.43311882 18.783037 3
3.7868228 1.0470456 18.768257 4
4.6743336 1.1461219 18.634912 4
4.7112422 0.60687065 21.644764 3
2.8856103 0.15683508 21.997267 3
4.766314 0.76229674 21.868484 4
2.8137414 -0.10961568 22.185553 2
2.9267793 1.0190095 22.131426 4
