# .PCD v0.7 - Point Cloud Data file format
VERSION 0.7
FIELDS x y z intensity
SIZE 4 4 4 4
TYPE F F F F
COUNT 1 1 1 1
WIDTH 1191
HEIGHT 1
VIEWPOINT 0 0 0 1 0 0 0
POINTS 1191
DATA ascii
11.312154 2.0197937 -3.6132584 8.1120005
9.3990459 2.1666479 -3.6151729 9.1134996
20.588663 1.5294102 -3.5124311 5
9.8185549 2.0425911 -3.553164 9.1129999
-1.9681711 2.5016742 -3.4070573 21.011999
8.3549385 2.1621168 -3.3716588 10.114
-1.3078706 2.5212576 -3.3532612 23.008499
9.7485495 2.0886006 -3.2592359 9.1125002
8.5452404 2.147336 -3.2330456 10.1135
11.549048 1.9244951 -3.120394 8.1140003
9.9581032 2.0532088 -3.1029205 9.1120005
11.006542 2.0275679 -3.1889033 8.1114998
6.0622582 1.8103892 -2.9655278 11.116
14.115407 1.8032441 -2.9209867 7
9.002059 2.1276605 -2.9842811 10.1125
0.32579109 2.457269 -2.9467509 23.134501
0.4010286 2.4364812 -2.948416 23.134001
0.47333494 2.5359993 -2.9617791 22.135
6.1544771 1.7784927 -2.8408785 11.1155
11.429588 1.9882249 -2.8381901 8.1134996
9.7383919 2.0817463 -2.8009717 9.1114998
0.54126376 2.5585771 -2.8140497 22.634501
9.33002 2.0848844 -2.7239599 9.1145
10.173354 2.0027332 -2.7453046 9.1140003
6.0222707 2.2808468 -2.7590847 13.1155
0.69572598 2.3275068 -2.7598767 21.133499
5.6171246 2.3322177 -2.7127063 14.116
0.37922022 2.5433657 -2.7912302 23.1355
0.45619187 2.5425758 -2.739532 23.135
0.61180425 2.5477664 -2.7920599 22.134001
19.191683 0.69810146 -2.6203825 4
6.0983882 2.2668023 -2.6534569 13.115
19.327631 0.67762321 -2.5328078 4
19.267717 1.303681 -2.5057049 5
0.59913146 1.5037286 -2.5760982 18.132
11.564842 1.962494 -2.5726333 8.1129999
9.6952896 2.0693541 -2.5313797 9.1110001
8.6012945 2.1451595 -2.5354357 10.1145
6.1901846 2.296025 -2.5336115 13.1145
6.9595056 2.2384009 -2.5455928 12.1135
4.8371458 2.3541503 -2.5391572 15.617001
5.6234674 2.3097537 -2.5536799 14.1155
0.72623545 2.4355576 -2.514667 23.132999
4.1801786 2.4676754 -2.5157502 17.1185
0.57922614 2.5065894 -2.5243869 23.134001
3.6644092 0.19871546 -2.4428554 4
3.7192578 0.19355468 -2.4390683 4
3.8390479 0.64218354 -2.4013886 7
3.5767846 0.75373077 -2.4787517 8.1199999
3.7268546 0.85509205 -2.4587111 8.1195002
3.3520894 1.0444701 -2.4144504 10.1205
3.6656587 1.0710239 -2.430984 10.05975
3.5831742 1.1677411 -2.4215224 10.75
0.66581643 1.6200902 -2.4579043 19.631374
0.65222228 1.7557724 -2.4323924 21.1315
7.1160827 2.2158871 -2.4036379 12.113
4.9224539 2.3208451 -2.4456487 15.1165
3.8390889 0.64427632 -2.3824682 7
3.6628766 0.85845309 -2.3023648 8.1190004
3.6098511 0.92850256 -2.3702559 9.1195002
3.6910098 1.0175356 -2.3564262 9.5
19.336647 1.2957776 -2.3288603 5
3.5599089 1.452641 -2.3769176 12.25
3.425719 1.5135759 -2.3551526 13
3.584378 1.5703086 -2.3369856 13
0.69242221 1.6324553 -2.3747334 20.131001
0.77357948 1.6932397 -2.3067102 18.1325
3.3160634 1.6571664 -2.364048 14.1205
3.5881705 1.6532636 -2.3416276 14
0.69468677 1.7569593 -2.3647528 21.131001
3.3539054 1.7438575 -2.3675976 14.5
3.4352596 1.8001155 -2.3513324 14.875
3.5213943 1.86499 -2.3525074 15
0.7078405 1.9500072 -2.3745604 22.131001
3.3840601 1.9442514 -2.3186605 16
9.6528339 2.067961 -2.3893764 9.1134996
0.69888067 2.1889431 -2.3270597 23.135
7.2498856 2.1989565 -2.3002963 12.1125
8.6906528 2.1027129 -2.3524642 10.114
9.0806475 2.1083732 -2.3224368 10.111
5.6032958 2.2892332 -2.3843918 14.115
6.53473 2.2527874 -2.3510084 13.1135
4.9891086 2.3145127 -2.3379426 15.116
-1.9235803 2.6184804 -2.3589952 23.01
3.6385531 0.89958513 -2.2823417 9.1190004
3.8021655 0.88995492 -2.2696509 8.5
19.284941 0.89648235 -2.2191393 4
3.7151072 1.0810528 -2.2060771 10
3.6030903 1.4431639 -2.2307787 13.119
3.7657912 1.4873997 -2.225373 13.1185
3.5675242 1.5784336 -2.2009485 14.119
0.73449892 1.6185769 -2.2777593 20.130501
3.453315 1.7792032 -2.2333579 15.1195
0.67032707 1.9981096 -2.236115 22.135
0.7197665 1.975516 -2.2889433 23.130751
9.6928444 2.0916808 -2.2955651 9.1105003
0.6246531 2.1455259 -2.2809544 23.1355
4.5977507 2.2797704 -2.2458098 16.116501
5.9944324 2.2601817 -2.266191 13.114
2.9740293 2.3206754 -2.271477 19.1215
3.0975068 2.3521125 -2.2800505 19.121
3.2432985 2.3827627 -2.2855024 19.120501
3.4422472 2.3825133 -2.2042482 19.119499
5.0882115 2.3206575 -2.2578924 15.1155
5.3152585 2.3118205 -2.2239063 15.115
5.6817837 2.3035922 -2.2676911 14.1145
3.3700738 2.4017825 -2.2687325 19.120001
4.2600017 2.4244246 -2.2905693 17.1175
4.7788038 2.445519 -2.2122092 16.615999
-2.587307 2.9466364 -2.257956 23.01
2.4927106 0.27766228 -2.1018534 5
2.2776117 0.35503933 -2.1359785 5.333333
2.1951554 0.40315545 -2.1376164 6
2.2202041 0.49945897 -2.1689537 7
2.440444 0.46239054 -2.1107411 6.25
1.8958691 0.73809803 -2.1485107 9.1260004
1.9828392 0.74110013 -2.1590481 9.1254997
2.0695949 0.73415756 -2.1577301 9.125
1.9836211 0.92090559 -2.1511452 11.1255
2.0479381 0.91335303 -2.1241617 11.125
2.1424549 0.91056103 -2.1250348 11.1245
3.8343501 0.98605531 -2.1763217 9.118
1.9635302 1.0975311 -2.117969 13.1255
1.8216549 1.1186889 -2.1052949 13.5
1.9405922 1.1549418 -2.1118805 13.5
3.8527131 1.13419 -2.1815679 10.118
1.9567957 1.2437052 -2.1157503 14.1255
19.304781 1.2749965 -2.1688268 5
3.7810092 1.5473557 -2.1205385 13.118
0.86989701 1.6582469 -2.15137 19.1315
3.4613051 1.8715018 -2.1218705 16.118999
-1.743642 2.0134134 -2.1056981 20.01
0.78361851 2.0437112 -2.1466057 22.632999
0.82671392 2.0166843 -2.1215069 23.133499
8.8692503 2.0884459 -2.1896765 10.1135
9.7381897 2.0432627 -2.1813607 9.1129999
10.830122 2.0352848 -2.1840458 8.1125002
3.3810949 2.1402464 -2.1667166 18.119499
7.2298808 2.171448 -2.1320968 12.1145
5.3626175 2.2877805 -2.1224709 15.1145
4.2867918 2.3947532 -2.1943152 17.117001
4.8144798 2.483006 -2.1128998 17.115499
2.5132372 0.50880367 -2.0992136 7
2.0449169 0.65754288 -2.0138488 9.1245003
2.1446254 0.67628509 -2.0219464 9.1239996
2.2296581 0.66777366 -2.0113709 8.6234999
2.3358853 0.61574215 -2.0563715 8
1.5744585 0.7150383 -2.0230105 10.1275
2.3483748 0.75293946 -2.0233665 9.5615005
2.5350749 0.7856245 -2.0067499 9.1219997
1.7379611 0.83141696 -2.048183 11.1265
1.855521 0.87907231 -2.0965769 11.126
1.90688 0.8014586 -2.0453806 10.1255
2.095762 0.80662596 -2.0736985 10.1245
2.1835036 0.80129158 -2.0569251 10.124
2.2676866 0.80113661 -2.0570798 10.1235
2.1229746 0.99167305 -2.099154 12.1245
2.3013046 0.90281785 -2.0967898 11.1235
2.2883565 1.0577303 -2.0624342 12.1235
2.3657396 1.0886353 -2.0504732 12.123
2.1409452 1.1565505 -2.0986137 13
2.6271088 1.1969178 -2.0849843 13.122
1.6732587 1.3135505 -2.0610909 16.127001
1.7900953 1.3182809 -2.0792925 15
1.8522915 1.3257452 -2.0834713 15.126
1.9807731 1.3769699 -2.0125089 15.5
2.131197 1.3227268 -2.0027301 14.5
2.2786028 1.3368649 -2.0429738 15.1235
0.91666311 1.7769482 -2.0066113 20
3.4436965 1.7342499 -2.0969748 15.119
3.5678988 1.7916039 -2.0862207 15.1185
0.86693692 1.819699 -2.0610228 20.06575
3.5813668 1.8771954 -2.0863457 16.1185
0.66691744 1.9935989 -2.0155458 22.13275
0.83113617 1.9647995 -2.0546842 22.1315
0.56900114 2.0039327 -2.0105124 23.133499
0.82404137 2.0625691 -2.0329356 23.1315
9.0869074 2.090502 -2.0446305 10.113
9.690321 2.0931606 -2.0961521 9.1099997
10.47732 2.0123324 -2.0779777 9.1125002
7.5811071 2.1826558 -2.0513194 11.1115
-1.983493 2.2188272 -2.0302072 21.007999
3.3720989 2.2034814 -2.0486133 18.118999
4.7083659 2.2765074 -2.0577581 16.115499
6.2170649 2.2490695 -2.0547998 13.113
3.3532901 2.3115351 -2.0306175 19.118999
3.5967977 2.3681138 -2.0880017 19.1185
3.656589 2.3885825 -2.0075579 19.118
5.5225224 2.30655 -2.0521536 14.114
3.1953917 2.4986451 -2.007031 21.119499
2.3201897 2.5164089 -2.0692577 23.123501
0.66782433 0.5085007 -1.9123865 10.13
1.5255941 0.65347856 -1.950471 9.1274996
2.4545114 0.6293869 -1.950987 8
2.560715 0.74462533 -1.9331909 9.1215
2.698595 0.77040696 -1.954125 9.1210003
19.34869 0.98784876 -1.946382 4
1.8967737 1.0197035 -1.9321028 13.125
2.0021176 1.0698435 -1.9543513 13.1245
2.321527 1.066413 -1.9657809 12.5
2.4079177 1.0862274 -1.9417559 12.455667
1.739799 1.1443255 -1.9183189 14.126
1.9298847 1.194113 -1.9583565 14.125
2.2405584 1.1178932 -1.9729849 13
1.8292171 1.2294707 -1.9435371 15.1255
1.9264631 1.2447481 -1.9604002 15.125
2.0201807 1.2323043 -1.9645339 14.6245
2.3328681 1.2566833 -1.9138964 14.061251
19.315601 1.2361035 -1.9733521 5
-2.1349099 1.3082621 -1.9163915 14.013
2.1264772 1.3666009 -1.9473685 15.25
2.2448862 1.3683674 -1.9067918 15.25
2.6863306 1.3040358 -1.9165641 14.121
1.804987 1.4682729 -1.9988617 17.125999
1.6558015 1.5152203 -1.9070135 18.126499
0.92362225 1.8474362 -1.9108638 21.130501
0.91162366 1.9346167 -1.9321442 21.710167
1.2720922 1.946224 -1.9560951 22.129499
1.4167031 1.9559213 -1.9669555 22.1285
1.5565107 1.9587288 -1.9653746 22.127501
1.7400424 1.9521384 -1.9504703 21.126249
11.275065 1.9709433 -1.9861574 8.1120005
10.094974 2.0531931 -1.9483742 9.1094999
7.385437 2.1455665 -1.9881994 11.114
-1.8713359 2.2816546 -1.9047571 23.007999
1.9135613 2.2845101 -1.9118136 23.125
4.7369161 2.2580628 -1.9216977 16.115
6.2690163 2.2369003 -1.9536726 13.11375
3.7282987 2.3627815 -1.9445971 18.6175
3.8260598 2.3599398 -1.904956 18.117001
4.1227512 2.3874393 -1.9602493 18.116501
5.3979435 2.3782403 -1.9844414 15.114
2.3848991 2.490814 -1.9221982 23.122499
4.8410101 2.4637096 -1.9817485 17.115
2.3261027 2.5025287 -1.9602076 23.122999
2.5067363 2.5165062 -1.940926 23.122
2.6308284 2.5194104 -1.9454757 23.1215
3.2018545 2.5047922 -1.9078959 21.118999
0.69674116 0.48625746 -1.8202657 10.1295
2.7003357 0.50583112 -1.8966686 7
2.5862401 0.67193276 -1.859212 8.1210003
2.6196637 0.64975291 -1.8792952 8
2.6996801 0.73527348 -1.8639866 9
1.3292685 0.95159906 -1.8535184 13.1285
2.4234428 1.259819 -1.8938004 14.122
2.5068793 1.302303 -1.8575174 14.1215
2.657387 1.3953432 -1.8954502 15.121
1.5500454 1.4815569 -1.8605942 18.127001
2.2556133 1.4176062 -1.8797342 16
2.3237927 1.4476105 -1.8767241 16.122499
2.4015219 1.4776883 -1.8657953 16.122
-2.0249467 1.5343919 -1.8940173 17.012501
2.0558944 1.5747044 -1.8895458 17.5
2.2857091 1.5529801 -1.8438264 17.122499
1.3925264 1.6061366 -1.8209401 20.128
2.6477473 1.6295041 -1.8905252 16.121
1.3410614 1.742254 -1.8346933 21.1285
1.5769298 1.770069 -1.8838772 21.127001
1.654477 1.7725831 -1.8875533 20.126499
1.7332969 1.7777814 -1.8893887 20.125999
1.9018432 1.7496285 -1.8892282 19.666666
2.0038898 1.7785511 -1.8632919 20
2.1467335 1.7862706 -1.8230768 19
2.2395484 1.7392132 -1.8254775 18.811249
0.9626255 1.8088741 -1.8332995 21.629999
1.9514078 1.8464538 -1.8455251 20.25
2.3657548 1.8433942 -1.8127474 19.122
1.3461956 1.922379 -1.8469054 23.1285
1.4238726 1.9326462 -1.8624524 22.128
1.5715945 1.9369779 -1.8690189 22.127001
1.641572 1.9324136 -1.8616761 22.126499
1.710632 1.9362816 -1.8581446 22.125999
1.9408258 1.9270048 -1.8314639 21
2.0369351 1.9174889 -1.8050772 21.123751
0.90994501 2.0841234 -1.8698252 23.130501
10.495287 2.0425496 -1.8751203 9.1120005
5.4097867 2.1520391 -1.8647836 14.1135
7.5806837 2.1370041 -1.861148 11.1135
7.6288819 2.1387458 -1.8824235 11.111
9.0763226 2.1302702 -1.8203359 10.1125
1.8104348 2.2332315 -1.8869179 23.1255
4.8406587 2.2811732 -1.8514944 16.1145
5.4828587 2.2564747 -1.8749756 15.1155
5.7147737 2.2838955 -1.8536865 14.113
6.2617698 2.2004859 -1.8350446 13.1145
6.3854747 2.2306349 -1.8009747 13.112
3.7473617 2.3454878 -1.8519326 19.117001
5.4137592 2.3615787 -1.8590838 15.1135
2.6504984 2.4979432 -1.8647116 23.121
4.8858237 2.4570963 -1.8707296 17.1145
2.7499044 2.5162857 -1.8449856 22.620501
2.842212 2.5194707 -1.8338064 22.120001
0.67598939 0.31855321 -1.7826146 8.1295004
0.72346479 0.34510911 -1.7592019 8.1289997
0.75725025 0.43014595 -1.7064196 9
0.68944663 0.57508504 -1.7910353 11.1295
1.1927851 0.57942599 -1.7161015 9.1289997
0.73374778 0.67278671 -1.7455269 13.129
0.59426576 1.2911037 -1.7561101 22.136499
0.82247579 1.7863145 -1.7425596 23.1325
0.887887 1.8121697 -1.7789084 23.132
1.1596836 1.8839768 -1.7921816 23.129749
2.1676223 1.9216005 -1.7906209 20
0.95004946 2.0351779 -1.7945193 23.129999
10.038941 2.0303335 -1.7341999 9.1090002
5.4704056 2.1202781 -1.7316537 14.115
6.3368945 2.1959496 -1.7047205 13.114
7.8237133 2.1444154 -1.7600882 11.11175
4.8595033 2.2645967 -1.7304696 16.114
5.5473509 2.2570827 -1.7705954 15.115
5.8155599 2.279345 -1.7474619 14.1125
7.324976 2.213732 -1.7914902 12.111
3.8958592 2.3382537 -1.7216264 18.115999
5.0197325 2.3325074 -1.7229913 16.115499
5.4034224 2.3335927 -1.7147442 15.113
4.1583533 2.4016275 -1.7520028 18.115499
2.9098315 2.5040274 -1.7851239 22.119499
3.0610032 2.5269713 -1.7382617 22.11875
0.74202144 0.28874919 -1.6759151 8.1285
1.3026061 0.21010478 -1.6479946 5
0.74099129 0.37124199 -1.6474115 9.1285
1.0769596 0.39413574 -1.6260558 7.5
1.1090537 0.30114681 -1.6687859 6
1.2146785 0.33894575 -1.6513613 6.5
1.3070422 0.3364923 -1.6226882 6
1.1507105 0.44285157 -1.6444691 8.1289997
1.2091646 0.45677754 -1.6404222 8.1285
0.77802086 0.53592128 -1.6468233 11.064
1.030452 0.59962606 -1.6292361 10.13
1.156441 0.55573416 -1.6528982 9.1289997
1.2497025 0.53475761 -1.6211241 9.0427504
1.0780073 0.64745009 -1.6156665 11.1295
1.1648201 0.68168586 -1.6161495 11.12875
1.46881 0.66230476 -1.648167 10.1265
1.2629894 0.72406226 -1.6310865 11.128
0.70720363 0.80061221 -1.659067 15.129
1.1545569 0.85634094 -1.611096 13.628875
0.71780193 0.9332267 -1.6778995 16.129
0.65403783 1.23993 -1.6662501 22.385374
0.63852131 1.3000433 -1.6525496 23.1355
0.93500769 1.602764 -1.6069635 22.131001
-1.9014045 2.1546462 -1.6632441 23.013
-1.8809835 2.1179245 -1.6603011 23.009251
5.5347595 2.1323957 -1.6367667 14.1145
7.3956184 2.1730011 -1.6368331 12.1105
8.7337656 2.1454015 -1.6191393 10.1095
4.9145064 2.2688498 -1.6448137 16.113501
5.5825849 2.2439451 -1.6275538 15.1145
5.9224224 2.2774327 -1.6407892 14.112
6.5019784 2.2332029 -1.6823045 13.1115
4.5788393 2.3650582 -1.6029481 17.114
5.0655665 2.3065128 -1.6048439 16.115
4.9509459 2.4283211 -1.6827542 17.115499
3.2243519 2.5170262 -1.6607466 21.61775
0.7789613 0.26646265 -1.5465851 7.5640001
1.401214 0.48757663 -1.5539154 8.1265001
1.1062518 0.50946981 -1.5947901 9
1.3451341 0.5508464 -1.5713435 9.1269999
1.3126198 0.61355257 -1.5150238 10.127
0.75457597 0.74010569 -1.5169672 14.128
1.0765816 0.79786372 -1.5937074 13.1295
0.76347721 0.88445216 -1.5370423 16.128
0.81791323 0.88512832 -1.5279353 16.127501
0.75457865 0.99644989 -1.5409852 20.133499
0.7557323 1.0448238 -1.5657636 19.130083
1.0634831 1.0406455 -1.5663213 16.129499
0.62574613 1.1334486 -1.5572325 18.133751
0.74738884 1.1841421 -1.5641427 20.633125
0.87737823 1.1995767 -1.571236 18.13125
0.73438662 1.2627729 -1.5389793 23.133751
0.87407851 1.265726 -1.5486966 19.13125
0.96292734 1.2858137 -1.5784839 19.130501
1.0232117 1.2127854 -1.5930508 18.129999
0.82128876 1.3061931 -1.5069394 21.127501
0.73520648 1.4442457 -1.5142491 22.1325
0.94273478 1.4287723 -1.5294642 21.130501
0.28321859 1.5952048 -1.5257705 22.1355
-1.8912849 2.0818768 -1.5290633 23.01
9.4358807 2.0887134 -1.5840062 10.109
10.166186 2.06357 -1.5843453 9.1114998
6.4296646 2.1932149 -1.5877677 13.1135
7.566535 2.1606205 -1.5072385 11.11
7.903276 2.1194365 -1.5978503 11.1125
8.9219618 2.137888 -1.5837743 10.112
4.3768792 2.295352 -1.5040102 18.115499
5.6229634 2.2429805 -1.5242543 14.114
6.024951 2.279634 -1.5295746 14.1115
6.2409167 2.2723112 -1.5306804 14.1135
6.5889769 2.2264981 -1.5511812 13.111
3.7791729 2.3807487 -1.5412189 19.115499
4.0751677 2.3417475 -1.5848767 18.115
4.6864662 2.3706622 -1.5296446 17.113501
4.9583378 2.3614798 -1.5545352 16.614
5.1388493 2.3063843 -1.5208242 16.1145
5.426805 2.3211918 -1.5862805 15.1125
3.3472042 2.484848 -1.5437082 21.116751
3.1913929 2.5327597 -1.584792 22.1175
0.85187405 0.29570842 -1.4285818 8
0.79697382 0.42843583 -1.4886968 10
0.84561604 0.49077472 -1.4058952 11.1265
0.85767192 0.53650105 -1.4190575 9.6298752
0.77945352 0.6802035 -1.4589261 13.6275
0.76086998 0.96693432 -1.4964592 18.630501
19.380785 1.0623164 -1.439775 4
0.77707928 1.1738223 -1.4202952 23.1325
0.76575422 1.2322105 -1.4864371 22.130501
0.7787233 1.4187731 -1.4880208 22.132
-1.9674023 1.9580441 -1.4556072 22.260876
9.9776049 2.0297771 -1.4896648 9.1084995
6.5428424 2.1910334 -1.4618186 13.113
8.0222654 2.1016614 -1.4372215 11.112
8.143548 2.1216972 -1.4913164 11.1095
5.0486746 2.2839463 -1.4444858 16.112499
5.2116141 2.299561 -1.4170257 16.114
6.5931239 2.2018991 -1.4169227 13.1105
3.8712018 2.3786383 -1.4658711 19.616249
4.0688167 2.325227 -1.498453 19.115999
4.2611961 2.3508937 -1.4656671 18.114
4.7581811 2.3496163 -1.4387413 17.113001
4.9345355 2.3900714 -1.4531074 17.1145
5.4717278 2.3189213 -1.4666045 15.112
3.4555407 2.4661379 -1.4546095 21.115999
3.5371118 2.4584436 -1.4002607 21.115499
3.7141733 2.4355421 -1.4573901 20.616501
3.1827204 2.534106 -1.4806987 22.117001
0.89663166 0.10197732 -1.3134646 5
0.85555559 0.2065036 -1.3894615 6.7272725
-1.9551984 0.56752735 -1.3181945 10.0225
0.87001896 0.56167072 -1.3723389 12.324218
0.93362302 0.54260689 -1.3059148 10.12875
-1.9455807 0.6507557 -1.3018432 11.0225
0.82928091 0.64684898 -1.3626099 12.62825
0.87265474 0.70853698 -1.3530215 12.1295
0.7764315 0.85394681 -1.3463744 18.129501
0.87682039 0.80098969 -1.3398569 16.125999
0.7851997 0.96799177 -1.3030115 21.1315
19.512777 1.0688438 -1.3869925 4
0.81026244 1.1597999 -1.3737409 23.13175
0.79672754 1.2124897 -1.3427007 22.127001
0.84025079 1.3626077 -1.3302864 23.126499
-1.8288947 1.5464231 -1.3279933 19.0105
19.53224 1.6280736 -1.3895473 5
19.634565 1.6662823 -1.3341885 5
10.611346 1.962577 -1.3781325 9.1079998
9.9222565 2.0973089 -1.321429 9.1110001
6.570951 2.1562948 -1.3151624 13.1125
7.6334004 2.1898112 -1.3438898 12.1095
8.7156534 2.1325347 -1.3479259 10.1115
5.4484248 2.2900164 -1.3243128 15.1115
6.0558691 2.2565024 -1.3934182 14.111
6.1290393 2.2648222 -1.359695 14.113
3.9532089 2.3702061 -1.314413 19.114
4.1528525 2.3022394 -1.3164835 18.115
4.2570462 2.3069682 -1.3521065 18.113501
4.4339681 2.3524678 -1.306066 18.113001
4.8445926 2.3437438 -1.3691216 17.112499
5.3083735 2.3034163 -1.3171709 16.113501
2.7733967 2.464592 -1.3986686 23.118
2.8642838 2.4797666 -1.3643812 23.1175
3.0230992 2.4786119 -1.3883181 23.117001
3.2118802 2.4892025 -1.3100289 22.115999
3.5972953 2.4468474 -1.339746 21.115
3.6614051 2.453609 -1.3524046 20.615499
3.8554425 2.4091322 -1.3215845 20.115499
-1.9745849 0.14698711 -1.2379813 4.5
0.89706033 0.16392036 -1.2738508 6.5
-1.9654925 0.32092968 -1.2470405 7
0.97583705 0.3074491 -1.235791 9.1242504
-1.9513767 0.57884622 -1.2205207 10.625
-1.6931036 0.59497833 -1.2101251 9.0144997
0.95570993 0.55392307 -1.2427932 12.791249
-1.936653 0.69629765 -1.2237221 12.5
0.88625699 0.64433491 -1.2634351 14.1255
0.92026067 0.65078086 -1.2703444 11.62875
-1.8747423 0.78670418 -1.2563455 13.0225
0.95430374 0.77811468 -1.2145002 16.6245
-1.8957739 0.88794762 -1.2090669 15.023
0.78136897 0.84248292 -1.2371718 20.131001
0.85888898 0.85052329 -1.2949209 17.125999
0.90755951 0.84761584 -1.2268903 17
0.87134504 0.9393357 -1.2619921 18.063
0.88765317 1.1178908 -1.24025 21.1255
0.96336001 1.1032257 -1.2240735 18.128
0.84691513 1.2112337 -1.248228 22.125999
0.88975602 1.3394257 -1.2400388 23.1255
0.9508329 1.4299594 -1.2062062 21.128
2.4908316 2.0041428 -1.2405726 23.1185
6.7245173 2.1801209 -1.2127057 13.112
7.8413129 2.1168535 -1.228442 11.109
8.2996025 2.1299391 -1.2972026 11.1115
4.1954837 2.2952158 -1.2428378 18.1145
5.176302 2.2997818 -1.2370247 16.1115
5.3366156 2.2938051 -1.252166 15.11325
5.6763964 2.268254 -1.2804788 15.111
6.0742364 2.2631848 -1.2266649 14.1125
6.1819344 2.268322 -1.2848126 14.1105
6.7394404 2.2144978 -1.2878225 13.11
4.4400663 2.3192136 -1.2123482 18.112499
4.6721215 2.3258536 -1.2720985 17.114
4.886447 2.3144867 -1.2639872 16.112
3.1213944 2.4360776 -1.2985219 23.117001
3.260201 2.4488208 -1.2747923 22.116501
3.3209364 2.4599097 -1.226073 22.115999
3.670989 2.4343295 -1.2776319 20.1145
3.7270427 2.4150622 -1.2055495 20.114
3.8357997 2.4185524 -1.2271405 20.115
5.0332084 2.4238081 -1.2522206 17.113501
-1.9626914 0.075838521 -1.1006502 3.2
-1.9935484 0.22752579 -1.130483 6
0.98792601 0.23556535 -1.1606356 8
-1.9638557 0.38033316 -1.1354114 8.0240002
0.99595839 0.3431049 -1.1442776 9.25
-1.8201035 0.4637295 -1.1739811 8.0155001
-1.7527437 0.4419015 -1.166151 8.0109997
0.95201474 0.47372913 -1.1549412 9.1280003
1.7313768 0.45361778 -1.115594 10.121
1.8047025 0.46731451 -1.1027321 10.1205
-1.9488187 0.54906023 -1.1309034 10.024
-1.7590647 0.54341251 -1.1480706 9.5112495
0.98984379 0.57977927 -1.134151 12.458833
-1.7321849 0.60426873 -1.1012522 10.0155
0.94816941 0.65466064 -1.1926913 13.9175
0.75132734 0.76474196 -1.1846867 18.631001
0.96364993 0.78626716 -1.1508276 16.395168
0.77769196 0.87096852 -1.1773266 21.130501
-1.9313688 0.9142552 -1.1405168 15
0.78689808 0.90584773 -1.1306878 22.129999
0.94268876 0.90402919 -1.189366 18.1245
-1.9184344 1.0635364 -1.1421044 17.02375
0.93485361 1.0675696 -1.1666545 20.1245
-1.8685017 1.1842803 -1.1691941 19.023251
0.875745 1.1772064 -1.1741775 22.12525
0.93316871 1.1096338 -1.1166219 21.12425
0.87294537 1.2378064 -1.1199341 23.125
-1.8250668 1.3265589 -1.1143794 21.0235
10.528527 1.946061 -1.1678067 8.1105003
10.16429 2.0192587 -1.1385154 9.1105003
8.6095505 2.1436086 -1.1499159 10.111
4.2267561 2.2851443 -1.1509188 18.114
5.2145452 2.28562 -1.1668051 16.113001
5.5864019 2.2558966 -1.1082584 15.1105
6.2621837 2.2643297 -1.1601003 14.11
7.5819778 2.2031705 -1.1799116 12.1115
3.7951872 2.3999169 -1.1376858 20.113501
3.9070823 2.3730147 -1.190195 19.113501
4.5599217 2.3366156 -1.1445166 17.112
4.9938912 2.3716679 -1.1732179 17.1115
3.0242043 2.4068818 -1.1847599 23.116501
3.1360929 2.4516237 -1.1476055 22.782166
3.2993026 2.4648962 -1.1356932 23.115499
3.3597898 2.4491065 -1.156239 22.115499
3.4580882 2.4832582 -1.1742483 21.1145
3.5144975 2.4632099 -1.1079899 21.114
3.8082907 2.4299395 -1.1192769 20.1145
-1.9628327 0.20906483 -1.0292509 5.5
0.68800801 0.20839891 -1.0431801 8.1304998
0.99714118 0.26219922 -1.0701505 8.1230001
-1.986057 0.3610788 -1.0413452 8.0249996
1.0079882 0.33991835 -1.0879464 10.123
1.1094629 0.35342512 -1.0706488 8.1260004
-1.9771284 0.47288373 -1.0959331 9
-1.839022 0.47158462 -1.0877788 8.0162506
-1.7758502 0.48385265 -1.0883942 8.5117502
1.0822558 0.44347301 -1.0255457 9.1260004
-1.9497381 0.58947688 -1.0297402 11
-1.7498609 0.53309584 -1.0485086 9.0160007
1.0256845 0.53196794 -1.0586674 10.62675
1.7871832 0.54775286 -1.0973499 11.1205
-1.9621153 0.68426126 -1.0224211 12.025
-1.7980703 0.60677522 -1.0849055 10.016
0.717691 0.6370911 -1.0871758 17.130501
1.0096842 0.67674541 -1.0008188 15.622499
-1.9557467 0.72241092 -1.0536731 12.5
-1.7134984 0.78120792 -1.0456197 12.26375
0.76693577 0.79367626 -1.0532007 20.129499
1.0450757 0.74520206 -1.0201423 15.290958
1.7357608 0.79289055 -1.0646356 14.6205
-1.7295843 0.80233556 -1.0971931 12.0155
0.89203459 0.85962111 -1.0362556 16.128
1.0209039 0.85851181 -1.0501007 16.62475
1.6932062 0.82790256 -1.0578631 15
1.7062736 0.82850051 -1.0626036 15.56025
-1.7296377 0.96437806 -1.0259556 15.016
-1.6203562 0.91895401 -1.0001098 15.0115
0.80617738 0.94122332 -1.0609657 23.129
1.5318216 0.99074423 -1.0794964 18.122
1.6384076 0.93967128 -1.0526464 17.121
-1.9062246 1.0373116 -1.0957619 17
0.99195558 1.0237232 -1.0986807 20.123501
1.0124927 1.0449779 -1.0218929 21.122749
1.5008786 1.0594069 -1.0579867 20.122
1.6179625 1.0705129 -1.0392269 19.121
-1.888779 1.1627394 -1.0417333 18.5245
1.4196177 1.1338267 -1.0489153 21.122499
1.5603362 1.15057 -1.0247283 21.060501
-1.8530235 1.2552058 -1.0565054 19.690834
0.91437453 1.2007414 -1.0743985 23.12425
1.3790622 1.2260469 -1.0205632 23.122499
1.4272618 1.2941535 -1.0061769 23.122
-1.8386543 1.3376485 -1.0097898 21.0245
0.9810077 1.3469837 -1.0936693 21.127251
0.9866665 1.4735862 -1.0098861 23.126751
9.8782339 2.0427742 -1.0023407 9.1075001
6.8206811 2.1848309 -1.0139064 13.109
8.0627384 2.1217637 -1.0919453 11.1085
8.7483587 2.1195848 -1.0494449 10.108
4.2862639 2.2865045 -1.0656887 18.113501
4.7668867 2.2919662 -1.072793 17.113001
5.2090211 2.2729769 -1.045212 16.112499
5.4235578 2.2799585 -1.0921417 15.1125
6.0307298 2.2754192 -1.0789973 14.112
6.2529087 2.2247531 -1.0121697 14.1095
7.4369373 2.2058616 -1.0012889 12.111
3.1452968 2.3968747 -1.0070065 23.115
3.9497223 2.3626442 -1.0625882 19.363377
4.224709 2.3355756 -1.0098091 18.112
5.1028357 2.317724 -1.0938169 16.111
5.2033024 2.3158238 -1.0012287 16.1105
3.3541963 2.4525385 -1.0673988 22.114624
3.4492631 2.4294941 -1.0120221 22.1145
3.5717852 2.4462168 -1.0475811 21.113501
3.7972448 2.4464135 -1.031509 21.114
-1.9397838 0.14277196 -0.99668193 5
0.96077055 0.16137823 -0.98697603 6.5
0.69496387 0.2026799 -0.95568633 8.1295004
0.99479467 0.24822156 -0.92890203 8.1219997
-1.8516606 0.36915922 -0.91626489 7
0.71970314 0.33578157 -0.93892086 11.5289
0.95429808 0.38323632 -0.99903619 11.123
1.14916 0.3288129 -0.95324767 7.458333
0.71890134 0.47078362 -0.92554128 15.12875
-1.9263293 0.59477162 -0.95481855 11.0255
-1.7774132 0.52061868 -0.97033799 9.5126247
-0.32861191 0.54446799 -0.97310358 19.0075
0.72488034 0.55294895 -0.96785176 16.4625
0.96586138 0.53253222 -0.96634609 13.789333
1.0327575 0.55035371 -0.97294271 13.622
-1.7614205 0.60685062 -0.99407732 10.0165
-1.9333084 0.79983968 -0.96105587 14.0255
-1.7270705 0.79960275 -0.95996571 13.0165
0.75745314 0.75109398 -0.91471416 21.128
1.0356613 0.76818168 -0.90358531 17.6215
-1.9483002 0.89910102 -0.96516818 15.0255
-1.8121998 0.89400005 -0.96161699 14.017
0.76050937 0.82924116 -0.98637438 19.129
-1.9123225 0.97523814 -0.94926983 16.262749
-1.7504965 0.95485067 -0.95253581 15.009167
1.0618488 0.9415077 -0.95264637 17.12575
-1.7121167 1.0208812 -0.94256353 16.0165
-1.690986 1.04854 -0.93589878 17.012501
1.0327884 1.0617938 -0.93169171 21.7885
-1.7433965 1.1112704 -0.9044584 17.017
0.98320168 1.1775814 -0.99259901 22.872875
1.0311047 1.177189 -0.91340625 23.12175
-1.8429551 1.342674 -0.93543112 21.012501
-1.8331281 1.4407011 -0.93386602 22.525249
-1.6113343 1.4809802 -0.95505142 22.011999
1.0169153 1.4364314 -0.92720664 23.125999
10.750717 1.9302403 -0.95028418 8.1099997
10.928659 1.9363765 -0.9214536 8.1070004
10.091033 2.0170186 -0.90344357 9.1099997
8.2590885 2.1192024 -0.94259238 11.108
8.5670223 2.1278169 -0.95148766 10.1105
4.3405161 2.2815752 -0.97758824 18.113001
4.8662038 2.299382 -0.9738915 17.112499
5.2605844 2.2967958 -0.90298021 16.110001
5.4775534 2.2679129 -0.9767189 15.112
5.6211114 2.2840917 -0.98438871 15.11
5.9441886 2.2566226 -0.92775673 14.1115
7.4969511 2.2034223 -0.99105835 12.1085
3.9601104 2.3565419 -0.91127288 19
4.0729771 2.3352027 -0.95761758 19.113251
4.7218108 2.3330977 -0.97242701 17.111
3.0446346 2.4761961 -0.96591461 23.1145
3.202024 2.4036841 -0.94716513 23.1145
3.545543 2.4542706 -0.96715474 22.114
3.6796954 2.4511943 -0.99306881 21.113001
3.7588215 2.451066 -0.93398392 21.112999
3.8776715 2.4179554 -0.97839224 20.112499
0.72865015 0.26226407 -0.86149508 10.12775
-1.8597586 0.36776024 -0.89923477 7
0.70475525 0.37338275 -0.88821298 13.1285
0.95499963 0.35443076 -0.86717618 11.122
1.1886655 0.3614268 -0.82668239 8.6237497
-1.8516016 0.47953793 -0.86418092 8.0179996
-1.6104856 0.42872429 -0.81922221 9.0124998
0.82705003 0.42620182 -0.80229473 14.1255
-1.9113686 0.57708341 -0.84353566 11
-1.8304391 0.5603258 -0.8679722 9.8378334
-1.7590008 0.59918135 -0.86390221 10.0175
-1.6110475 0.54478693 -0.88813841 10.512
0.74753129 0.53734595 -0.84960067 17.127335
0.84407401 0.51576144 -0.8177672 16.1255
1.0529163 0.5864197 -0.83361155 13.622875
-1.922629 0.67326212 -0.84691763 12.76325
0.75512171 0.66751933 -0.83564878 20.127001
1.1312037 0.68315136 -0.89498234 13.12475
-1.7750504 0.7716949 -0.88093346 12.5
0.7659539 0.74738443 -0.8576023 21.793833
0.82218695 0.7497552 -0.83001912 21.125999
1.0593216 0.74995798 -0.83165359 17.620625
1.1741729 0.78894949 -0.85922176 15.041333
-1.805434 0.87994927 -0.86234808 14
-1.7633022 0.84347337 -0.86452264 13.675667
1.0956012 0.89592546 -0.8588084 19.120501
1.1558077 0.86564535 -0.8421995 16.374666
-1.9343984 0.91340649 -0.87201595 15.76325
-1.7363831 0.94989443 -0.83355397 15.343666
1.076946 0.94692403 -0.8594023 20.12075
-1.9248519 1.0147926 -0.85294932 17.026501
-1.7182416 1.0593562 -0.84244716 17.0135
1.0942147 1.062891 -0.83271801 22.370377
-1.9069313 1.1000785 -0.8798663 18
-1.8868824 1.1010574 -0.83760738 19.026501
-1.712973 1.1961474 -0.84396839 19.0135
-1.6872597 1.1876334 -0.86685646 18.017
1.0756166 1.143235 -0.85514039 21.323299
-1.8807859 1.2508261 -0.84574199 20.26325
-1.623225 1.3647517 -0.86739016 21.012751
1.025153 1.3884679 -0.85923433 23.1255
-1.8270351 1.4046119 -0.857274 22.025999
8.8290815 2.0982957 -0.84983265 10.1075
5.5512805 2.2692866 -0.85873711 15.1105
5.9561329 2.2595241 -0.80000031 14.111
6.3275175 2.2205715 -0.88404822 14.109
3.9880776 2.3488998 -0.86892641 19
4.0009475 2.3357964 -0.83334911 19.1115
4.1426368 2.3231647 -0.84261286 19.112499
4.7665305 2.3103211 -0.87271106 17.1105
4.9683266 2.3268347 -0.85169756 16.861
3.0369415 2.4248736 -0.80869019 23.113501
3.2882979 2.4636824 -0.8956455 23.114
3.3627884 2.4435573 -0.82820922 23.113501
3.5881884 2.4409907 -0.89356774 22.113501
3.6744442 2.4777029 -0.81809956 21.112499
3.8146424 2.4571629 -0.86755896 20.5
-1.9635346 0.0041582314 -0.7269696 2
0.75444567 0.22279316 -0.78206253 9.1262503
0.7508831 0.37347838 -0.79088759 13.793167
1.2035698 0.3111276 -0.73270273 8.1230001
-1.8591028 0.4824039 -0.75530756 8.0190001
-1.7014756 0.41069612 -0.70667398 8.0185003
-1.6657981 0.46788311 -0.70971489 9.0182495
0.74729568 0.45711431 -0.79093552 15.626499
1.0071105 0.4531405 -0.79332733 13.12075
-1.9244026 0.53949398 -0.75408536 11.0275
-1.8336138 0.57621801 -0.79473817 10.0185
-1.7645264 0.51234704 -0.79092145 9.0139999
-1.5916795 0.525572 -0.7341398 10.013
0.77201629 0.51272893 -0.7974509 16.626249
1.0923158 0.59583575 -0.75958359 12.62425
0.75557977 0.64503634 -0.79995692 20.126499
1.1601144 0.62811422 -0.75694633 13.1235
-1.8508532 0.78364068 -0.77506381 13.5
-1.7862334 0.77735913 -0.76823419 13.00725
-1.610718 0.79015851 -0.7438215 14.013
-1.5802852 0.78684539 -0.78429639 14.0125
1.1940553 0.78044051 -0.75301623 15.4565
-1.8507215 0.86475253 -0.716672 15.009501
-1.7658185 0.87848413 -0.75287074 14.636875
1.0872259 0.84496427 -0.71285135 19.619249
1.1785424 0.83159786 -0.78235948 16.123501
-1.9147108 0.94317549 -0.77315879 16.52725
-1.8990419 0.97010428 -0.78818768 17.027
-1.7492666 0.97494525 -0.73999339 16.017166
1.1272482 0.99879813 -0.76542819 21
-1.9132377 1.081157 -0.79511994 18.027
-1.8981314 1.0809447 -0.74616283 18.0275
-1.5729402 1.0789661 -0.76652014 17.012501
1.1333016 1.0621996 -0.74583423 20.996374
-1.9102778 1.11505 -0.79323995 19.027
-1.8942842 1.1723002 -0.76821899 19.7635
-1.716843 1.1842874 -0.7222054 19
-1.8671443 1.274403 -0.72007608 21
1.0857186 1.2812982 -0.7243762 22.457335
1.1239086 1.2546356 -0.71276152 22.123501
-1.8577822 1.3226455 -0.72491431 21.5
-1.7287306 1.3983487 -0.71305668 21.018499
-1.6457753 1.3484249 -0.73322105 20.515999
1.0589931 1.32017 -0.72465622 23.12425
-1.8258878 1.4293487 -0.7188434 23.0275
-1.6159878 1.477162 -0.70117462 22.51425
-1.567099 1.5214452 -0.71009421 23.0175
6.91887 2.1447313 -0.71904433 12.108
7.996295 2.1689675 -0.71765602 11.1075
8.6778193 2.128675 -0.76908922 10.11
4.3834376 2.2545762 -0.79226011 18.112
4.4712014 2.2728512 -0.70611769 18.1115
5.2651701 2.2740078 -0.74843204 16.11025
5.6094961 2.2554429 -0.74444783 15.111
6.3682899 2.2011321 -0.75785494 13.1085
3.9186389 2.3933227 -0.71087277 20.111
4.0732775 2.3405504 -0.77309096 19.111
4.2224841 2.3307412 -0.75194424 19.112
4.936708 2.3238542 -0.76957303 17.1115
5.0441866 2.3078141 -0.79436994 16.1115
3.1451945 2.4217818 -0.73650861 23.113001
3.4249449 2.4490623 -0.77451217 22.113001
3.7276216 2.4386075 -0.74776649 21.112499
3.8445995 2.4332533 -0.78452313 20.6115
-1.8088144 0.19026013 -0.64589262 4.5999999
-1.791303 0.15749633 -0.68181765 4
0.89955431 0.18912002 -0.64045238 8.1204996
0.99060744 0.26790485 -0.69404912 10.12
-1.7633135 0.3934693 -0.62338895 8
-1.7358068 0.48030639 -0.64646584 9.1780005
-1.5877732 0.49692991 -0.66272008 10.5135
-1.9452541 0.51710242 -0.65726143 10.5
-1.7842284 0.50873846 -0.62266397 9.6823339
1.0449344 0.58875644 -0.69578767 15.619499
-1.9324114 0.61533886 -0.60130399 12.066667
0.50634646 0.68227237 -0.63444054 17.131001
0.97506267 0.60047358 -0.69370651 16.120251
1.1831549 0.62752557 -0.67819631 13.12275
-1.7661346 0.75895518 -0.64577985 13.238945
-1.6455681 0.78272903 -0.68580943 13.516001
-1.5984401 0.77020216 -0.60953438 14.014
1.0835392 0.76181924 -0.63834643 19.1185
1.2199157 0.76625729 -0.66548169 15.62225
-1.8064032 0.86319929 -0.65174645 14.511833
1.110159 0.84223223 -0.68766797 17.123501
-1.875237 0.97731858 -0.64769751 17.514
-1.765323 0.96166402 -0.68058223 15.339667
-1.5792527 0.98613226 -0.64303911 17.0135
0.79213136 0.93698066 -0.65090609 20.127001
1.121933 0.94573212 -0.62121367 21.618
-1.8786402 1.0354534 -0.66633242 18.52825
-1.6995916 1.0464886 -0.68440616 17.01475
1.153411 1.0687385 -0.67615372 21.453999
-1.7185183 1.1819198 -0.65226674 18.509375
1.1818677 1.1943536 -0.62343252 22.12225
-1.8546637 1.2354244 -0.6317777 20.5285
-1.6634022 1.2560778 -0.64771712 20.262249
1.1465213 1.2505184 -0.64284766 22.622749
-1.6450512 1.3503188 -0.68080634 21.50725
1.1234993 1.3008182 -0.64517069 23.122999
-1.8213151 1.4253268 -0.62173891 23.0285
8.8995657 2.0767641 -0.67502916 10.107
10.084451 2.020431 -0.67698234 9.1094999
8.9334431 2.1207244 -0.60308641 10.1095
5.4212952 2.2755876 -0.6771208 15.109
5.6662941 2.2523704 -0.642232 15.1105
5.9342103 2.2300398 -0.66381109 14.1105
6.4795151 2.2048683 -0.63260901 13.108
3.1528554 2.3852601 -0.63784885 23.112499
3.4135594 2.3974528 -0.68134153 22.112499
3.9719789 2.3896883 -0.64618599 20.1105
4.1250606 2.3299289 -0.66513407 19.111
4.9432659 2.3202739 -0.67504036 17.11025
5.2861686 2.308805 -0.66683376 16.108999
3.4962206 2.4217217 -0.62866467 22.112
3.7566118 2.4292169 -0.67377406 21.1115
3.3784118 2.5040565 -0.6258105 23.1115
-1.9580288 0.18434907 -0.59646577 5.3125
0.90354627 0.19039886 -0.50790274 9.1190004
-1.8184382 0.24127899 -0.5800088 5.5
0.96564722 0.26899704 -0.5701822 10.118999
-1.9443262 0.37431353 -0.57021689 8.0295
-1.5848986 0.39858988 -0.57618272 9.0142498
0.9588393 0.36217961 -0.51569641 12.1185
1.2135321 0.36161157 -0.5335573 9.1212502
-1.9593786 0.45588467 -0.53190452 9.5299997
-1.8259227 0.41894349 -0.51937675 8.0085001
-1.7577248 0.46351308 -0.55356359 9.0202503
-1.7322342 0.55254507 -0.56705165 9.8851252
0.92685455 0.50358242 -0.51768339 16.118999
-1.5668819 0.66147929 -0.5833925 13.014
-1.7682041 0.74830055 -0.56411886 13.180167
-1.6293012 0.74306118 -0.50358307 14.02
1.0829984 0.74373126 -0.54369974 19.1175
1.2352235 0.76992619 -0.59504193 15.5
-1.6314455 0.80075079 -0.5500015 14.0195
1.1188887 0.84419888 -0.52973402 21.117001
-1.8384427 0.96939135 -0.53652978 16.679487
-1.7617737 0.94322634 -0.5541544 16.02025
-1.6997613 0.98092711 -0.55419731 17.016001
1.1124732 0.98583448 -0.52000415 23.117001
1.2174339 0.99213755 -0.54782009 19.12125
-1.8517575 1.0730889 -0.56738466 19.2645
-1.7771813 1.0465068 -0.57538497 16.90909
1.2319039 1.0628564 -0.5430119 20
-1.7342745 1.1565046 -0.56661838 18.685335
-1.6703652 1.1978965 -0.56881404 19.515751
1.2188493 1.1666526 -0.57957959 21
-1.8590969 1.2844536 -0.59055465 22.028999
-1.7515326 1.2606716 -0.54120278 19.52025
-1.6803622 1.2665161 -0.55081385 20.265999
1.1761699 1.2580144 -0.55761802 22.811001
1.209934 1.2381147 -0.531883 22.5
-1.8318161 1.3676836 -0.5846262 23.028999
-1.6334774 1.3695916 -0.59999835 22.015249
-1.5013987 1.3928579 -0.56515443 22.0135
-1.6441174 1.4631231 -0.545057 22.644627
11.296485 1.9033346 -0.52832311 8.1090002
7.0526471 2.1678801 -0.57139885 12.1075
4.4958034 2.2554767 -0.59377545 18.111
4.6157908 2.29074 -0.51308745 17.1105
5.2239132 2.2928479 -0.59137148 16.1105
5.5071225 2.2704039 -0.58811033 15.1085
5.7037425 2.2313998 -0.50907546 15.11
5.9569039 2.2179837 -0.53319216 14.11
6.0625186 2.2399795 -0.55893743 14.108
4.0493908 2.3551526 -0.55873007 19.6105
4.1737289 2.3024375 -0.55820298 19.109751
5.0006976 2.306706 -0.5980165 17.108999
5.2711773 2.3333127 -0.54247713 16.1085
3.2477682 2.4147308 -0.58482146 23.112
3.4193738 2.4872115 -0.55796003 23.111
3.560462 2.4283607 -0.55870044 22.1115
3.8706033 2.4237633 -0.54249847 21.110626
3.5492828 2.5331936 -0.51394629 23.1105
3.8245704 2.5120718 -0.59089792 21.1105
-1.9532108 0.032055918 -0.49770507 2.5
0.93991667 0.15428056 -0.42442974 8.1175003
0.96837538 0.27288106 -0.44368753 11.1175
0.90720701 0.38475317 -0.46368644 13.1185
1.2323257 0.31698307 -0.46819484 8.1204996
-1.9438714 0.45428815 -0.43869606 10.031
-1.8106195 0.41493425 -0.49313435 8
0.96639532 0.48236638 -0.48278111 15.451375
1.2233007 0.47259876 -0.41112924 11.12
-1.8183132 0.57747072 -0.40343913 10.518
-1.7387586 0.52587885 -0.4535034 10.242
0.56591487 0.57968992 -0.43929696 16.129
0.96119016 0.55016375 -0.44304824 17.117626
1.214677 0.56712884 -0.40452492 13.12
-1.5710691 0.63217622 -0.44273418 12.765249
1.0076233 0.60608202 -0.43399438 18.117001
1.2280508 0.68936592 -0.4431417 15.12025
-1.7274113 0.70244354 -0.40736476 13.0215
-1.6188699 0.73387152 -0.44869676 14.0205
1.2440976 0.73710293 -0.46326327 16.120251
-1.7549771 0.95046091 -0.47281623 16.269001
-1.6783713 0.94380033 -0.48837849 16.508251
1.2543414 0.9643544 -0.47476959 19.120251
-1.769424 1.0542271 -0.47514603 17.021
-1.6483849 1.0800307 -0.45465741 19.01675
-1.5624791 1.0123819 -0.40480161 18.015499
1.2550726 1.0798501 -0.44743252 21.120001
-1.7726833 1.151142 -0.46982312 19.173666
-1.6950879 1.1328865 -0.42368394 19.019249
1.2399189 1.1894779 -0.47129977 22.453667
-1.7126046 1.2914035 -0.46314231 20.354166
-1.5453926 1.2883695 -0.43318319 22.014999
1.2517738 1.2233777 -0.45212734 23.120001
-1.8168586 1.3685966 -0.49531013 23.030001
-1.6835583 1.370097 -0.47745302 21.5205
-1.6410741 1.4004203 -0.45850822 23.01675
9.067729 2.0760989 -0.47985139 10.1065
9.9670582 2.0111063 -0.43072069 9.1090002
6.5066667 2.187181 -0.49094865 13.1075
7.2463198 2.1254504 -0.49760816 12.1095
8.6493168 2.1307847 -0.4376528 11.1065
8.7772179 2.1250188 -0.40019196 10.109
4.3044577 2.2988508 -0.48879394 18.1105
5.5580778 2.2549579 -0.47251484 15.108
3.1458385 2.3696945 -0.49459803 23.1115
3.923882 2.3979418 -0.44197181 20.1105
4.0553088 2.3539479 -0.48051128 20.109501
4.2641916 2.306354 -0.44033173 19.108999
5.0395164 2.3483515 -0.46040934 17.110001
5.1895871 2.3250523 -0.40870658 16.108
5.2107725 2.3155215 -0.47345161 16.110001
3.290426 2.4027336 -0.44518983 23.111
3.5560129 2.4421618 -0.48411554 22.111
3.8693864 2.4261277 -0.43180934 21.1105
0.94671816 0.25877911 -0.32102376 10.866062
-1.9474087 0.39960212 -0.3903397 9.0314999
-1.8212038 0.37476173 -0.34625843 8.0185003
-1.941638 0.4377898 -0.39012662 10.0315
-1.7735782 0.48877755 -0.35260549 9.5182495
-1.6055105 0.42065689 -0.36335635 10.016251
0.95146739 0.49063727 -0.37127647 15.916799
-1.7688985 0.55338174 -0.36997136 10.522125
-1.6000395 0.56561011 -0.37949586 12.016
0.94227892 0.55623066 -0.33784375 18.116501
-1.7783407 0.67789876 -0.39759669 12.555555
-1.5880653 0.66896588 -0.34530288 13.516251
1.0460041 0.63529301 -0.31981191 19.115
1.2120231 0.64096832 -0.32597029 15.11925
-1.7685238 0.76077741 -0.38366407 14.019
-1.6451464 0.78618431 -0.39172575 14.52125
1.0701381 0.75063795 -0.39016125 20.115749
1.24835 0.73091543 -0.36235565 16.619249
-1.8658559 0.83356738 -0.37345439 16
-1.7499901 0.80129951 -0.34599814 14.5
-1.6918569 0.8429929 -0.35677963 15.521875
1.0817811 0.8048858 -0.30435333 21.6145
1.2586896 0.88838589 -0.34824884 18.785666
-1.7202911 0.9393701 -0.3278546 16.839417
1.2781718 0.99930525 -0.31978893 20.1185
-1.8530376 1.0155821 -0.33401856 18.532
-1.738106 1.0664266 -0.34042332 18.022249
-1.6871811 1.013364 -0.36462137 17.767876
1.2842728 1.0899092 -0.32895494 21.6185
-1.823131 1.169233 -0.34543753 20.53175
-1.6857901 1.136307 -0.36780807 19.517876
1.2640896 1.1761385 -0.38355958 22.619249
-1.7603805 1.269279 -0.36006531 21.276749
-1.6889298 1.2819928 -0.36390969 21.021749
-1.5342387 1.234145 -0.35047686 21.515751
-1.6589047 1.3023835 -0.3493776 22.018
-1.5026902 1.3375763 -0.30622816 23.016001
-1.4970381 1.3765889 -0.37062091 23.015249
-1.7302659 1.4013253 -0.35549805 22.021999
-1.6646208 1.4300346 -0.36844778 23.008875
9.0471802 2.0289471 -0.30570391 10.106
6.5672088 2.1756761 -0.353273 13.107
4.316555 2.2875104 -0.39294788 18.110001
4.6947107 2.2762797 -0.32700342 17.109501
5.2746406 2.2240663 -0.31279734 16.1075
5.6009908 2.2371852 -0.35436884 15.1075
5.7378416 2.2204752 -0.38363758 15.1095
6.7336569 2.2143512 -0.30541429 13.109
3.2345135 2.3573093 -0.37010115 23.1105
3.9803152 2.3932731 -0.35883865 20.110001
4.3507972 2.3091712 -0.33293724 18.608376
5.0756202 2.3496108 -0.38413832 17.108
5.1411376 2.3239357 -0.35278389 16.109501
3.486984 2.4315033 -0.35155806 22.11025
3.6965258 2.4940631 -0.39387617 22.109501
3.8960102 2.4007318 -0.35339135 21.110001
4.0222864 2.4086497 -0.38288584 20.108999
3.6837761 2.5244756 -0.30559662 22.108999
-1.9108796 0.11859369 -0.29998231 4
0.92970651 0.1299531 -0.20804188 8.1145
-1.9273767 0.29235801 -0.2501516 7
-1.8961599 0.22057275 -0.21839073 6.2142859
0.95841211 0.28081673 -0.23980209 12.11475
1.1849976 0.26641041 -0.22851497 8.1184998
-1.5973572 0.34731054 -0.23660386 9.0174999
1.1890012 0.3213113 -0.28097236 9.1190004
-1.9225452 0.43329638 -0.23115818 9.3666658
-1.8264107 0.48365411 -0.2667788 9.0235004
-1.7382419 0.45329189 -0.25037402 9.2712498
-1.6044534 0.40795538 -0.28661954 10.017
0.96502382 0.43683305 -0.24793057 15.448166
-1.9057231 0.58997089 -0.22170272 12.071428
-1.8286549 0.53018171 -0.21566346 10.02
-1.6802018 0.55108851 -0.29537281 11.0225
-1.8167276 0.61485386 -0.2572718 11.0235
-1.7870362 0.60185176 -0.29346749 11.023
1.0769295 0.69071901 -0.26836869 20.114
1.2119834 0.62849057 -0.23570633 15.11825
-1.8019973 0.74613327 -0.25140128 13.0235
-1.7649568 0.74318367 -0.23011772 13.812451
1.0627868 0.71305525 -0.22902706 21.113501
-1.8002074 0.82056111 -0.20270833 15.024
-1.7260112 0.89807391 -0.2195895 16.5
1.0848116 0.80592155 -0.22344455 22.113251
1.2541323 0.84798133 -0.25485548 18.868
-1.6879253 0.99313521 -0.2666392 17.518999
1.1677562 0.94600296 -0.29470834 23.113501
1.2687818 0.94096369 -0.24556303 20.11775
-1.8667808 1.0461648 -0.22889218 19.2665
-1.7184453 1.0705931 -0.24059305 19.011501
1.2930291 1.0505843 -0.23890099 21.95075
-1.8143617 1.1988171 -0.24385925 21.033001
-1.6831721 1.1416295 -0.25520942 19.641125
-1.5275383 1.1532642 -0.27595341 21.0165
1.2905877 1.1884367 -0.26481867 23.11775
-1.8074665 1.243983 -0.2671544 22.0165
-1.7734553 1.2953472 -0.28405443 23
-1.6644961 1.2575214 -0.24582021 21.3214
-1.5409275 1.2265106 -0.2785002 22.0165
-1.7098026 1.3898522 -0.23208904 22.523251
-1.6098334 1.3602194 -0.28093895 23.018499
11.612259 1.889153 -0.28369805 8.1084995
10.382671 1.9753056 -0.2628462 9.1084995
7.1491508 2.1210823 -0.28849241 12.1065
8.1923018 2.155575 -0.2198486 11.106
8.8194256 2.1262226 -0.20599447 10.1085
4.3582239 2.2727702 -0.20146511 18.108999
5.341208 2.2538772 -0.24037747 16.108999
5.4098854 2.2675126 -0.24803603 15.109
5.6717024 2.2258632 -0.23863468 15.107
5.7552214 2.2045569 -0.27465925 14.109
4.014205 2.384331 -0.27204043 20.109501
5.0180006 2.31791 -0.2331447 17.108999
3.3893943 2.4686413 -0.2417129 23.108999
3.773025 2.4106181 -0.25771207 21.109501
3.9769838 2.4100995 -0.27564231 20.1085
0.92124629 0.13294674 -0.17114434 8.1140003
-1.8061687 0.20326899 -0.1227065 5
0.95187491 0.25394458 -0.12964667 10.1165
-1.8782934 0.30480728 -0.1698795 8.0340004
-1.6082439 0.38687882 -0.16649532 10.01825
-1.5885469 0.34768796 -0.13313299 9.0185003
0.94972301 0.38094455 -0.15585148 15.113501
1.0039891 0.39661443 -0.13832256 14.912601
1.1591666 0.37850997 -0.11337477 11.117333
-1.8865395 0.42044133 -0.17218591 10.034
0.95099735 0.46203434 -0.18715557 17.114
1.0083491 0.49168977 -0.16364756 17.112999
1.1728396 0.49166384 -0.10110426 13.117
-1.9110934 0.5458172 -0.19595231 11
-1.8385994 0.57168365 -0.14187977 11.76725
-1.7693932 0.56883252 -0.15021129 11.01795
1.0356915 0.57668358 -0.19496295 18.113251
1.1809304 0.57579172 -0.1083408 15.117
-1.7509158 0.68250787 -0.17713487 12.966545
1.04064 0.6867553 -0.16597769 21.112751
1.2048887 0.63438499 -0.14840734 15.61725
-1.7518725 0.73687184 -0.12415236 13.89775
1.2374092 0.78707671 -0.12562668 18.450001
-1.7386512 0.85862207 -0.13665143 15.951279
1.046679 0.80535668 -0.12088141 23.112
1.1277461 0.81609613 -0.10721639 23.111
-1.7288951 0.9395318 -0.1433917 17.272499
1.2770491 0.94960958 -0.17396694 20.783501
-1.7410814 1.0347755 -0.18172613 18
-1.533373 1.071596 -0.14698537 20.351166
-1.8389925 1.1379486 -0.16953105 20.534
-1.668263 1.149135 -0.1675663 20.508001
1.2952979 1.1412284 -0.16203344 23.116501
-1.7571521 1.2344438 -0.13768601 21.71225
-1.6632373 1.2612125 -0.14221962 21.788645
-1.5230979 1.2424467 -0.14892906 22.01775
-1.7725232 1.3156384 -0.18012115 23.033751
-1.6487679 1.3697182 -0.15618113 23.021999
9.2383776 2.0339887 -0.11752126 10.1055
7.6922007 2.171258 -0.19027129 11.1085
4.3870816 2.2804415 -0.14126757 18.108
4.7656021 2.2515962 -0.10507832 17.1085
5.2482467 2.2848356 -0.19403234 16.107
5.3188429 2.2671156 -0.13221499 16.1085
5.413434 2.2626071 -0.14023101 15.1085
5.7236786 2.2184656 -0.12741634 15.1065
6.0031524 2.2193398 -0.16288981 14.1065
6.5910158 2.2121069 -0.16333653 13.1085
3.9918542 2.3729358 -0.18970667 20.108999
4.0925221 2.3653603 -0.16874614 20.10775
4.1459355 2.3303602 -0.18523853 19.369249
3.3732753 2.4007704 -0.1625403 23.108999
3.7292728 2.4297807 -0.14682952 22.108
3.9451351 2.4392548 -0.13808438 21.053749
-1.7859108 0.18409872 -0.08761546 5
0.93450624 0.14782393 -0.0801557 9.1122503
-1.1508466 0.24696411 -0.051463246 9.0165005
0.9827044 0.2561779 -0.076485574 11.36175
-1.8650022 0.34819382 -0.024150928 8.5357494
-1.5814471 0.34834453 -0.082157969 9.0190001
0.97081369 0.34960678 -0.028785855 14.111
1.0037081 0.39193606 -0.065650612 15.111333
1.1636521 0.38368386 -0.03572011 11.61625
-1.8612692 0.46907192 -0.016190229 10.535875
-1.5757345 0.41396517 -0.054764271 10.01925
0.99378079 0.45184711 -0.069491595 17.1115
1.1765072 0.4688893 -0.011616707 13.11575
-1.8821005 0.59227085 -0.087787196 12.035
-1.7632976 0.54624867 -0.044450015 11.521749
-1.8813995 0.65976131 -0.026297579 13.535749
0.9835164 0.63030159 -0.088943452 21.112
1.0496956 0.675852 -0.037672967 21.1105
1.1924585 0.6587972 -0.022906363 17.115749
-1.8693601 0.7352922 -0.046544831 15.0355
-1.7394078 0.75652558 -0.052948952 14.606536
1.0532533 0.76043338 -0.041289777 23.1105
1.2110751 0.73727417 -0.051112413 18.115999
-1.8610919 0.84381175 -0.043645427 16.0355
-1.7634678 0.8444345 -0.022780597 15.773999
-1.6818939 0.89622968 -0.025005162 17.521749
1.2562703 0.83708978 -0.050064802 20.115499
-1.8478305 0.95580757 -0.084109284 18.5175
-1.7817236 0.99902219 -0.097787589 17
-1.6896627 0.98219472 -0.040005773 18.271626
-1.5635425 0.95775408 -0.068060845 18.518875
1.2621903 0.94389313 -0.093786359 21.115999
-1.7423615 1.0584433 -0.060512632 18.525375
-1.6932999 1.0092869 -0.050828904 18.583334
-1.5412202 1.038507 -0.047087371 20.019001
1.2992413 1.0722998 -0.041941762 23.115
-1.8305399 1.11848 -0.082594022 20.035
-1.7123432 1.1672518 -0.087693423 20.025
-1.6706005 1.1474299 -0.057234019 20.771416
-1.8100514 1.2012131 -0.085454218 22.035
-1.7831267 1.2758718 -0.082106009 23.035
-1.6758701 1.2839926 -0.071516961 22.025
-1.5157399 1.2321348 -0.074550986 23.018499
-1.6389356 1.3423598 -0.051030889 23.023249
9.718894 1.9920443 -0.018091751 9.1079998
7.6675043 2.1134377 -0.012803379 11.108
8.3239145 2.155376 -0.043635756 11.1055
8.7920647 2.1122146 -0.010097349 10.108
4.3934088 2.2656875 -0.079368681 18.107
4.4027205 2.2550447 -0.014041021 18.108
4.8924198 2.2865324 -0.020650832 17.108
5.0914984 2.200109 -0.011014517 16.108
5.3467541 2.2366028 -0.076366395 16.106501
5.4910145 2.2640035 -0.020012733 15.108
5.8017907 2.2108393 -0.007728368 15.106
