# .PCD v0.7 - Point Cloud Data file format
VERSION 0.7
FIELDS x y z intensity
SIZE 4 4 4 4
TYPE F F F F
COUNT 1 1 1 1
WIDTH 856
HEIGHT 1
VIEWPOINT 0 0 0 1 0 0 0
POINTS 856
DATA ascii
11.200464 1.9847054 -4.117991 8.1129999
18.606838 1.7279522 -4.0154066 6
0.827043 2.6230555 -4.0698085 18.134001
9.3990459 2.1666479 -3.6151729 9.1134996
11.312154 2.0197937 -3.6132584 8.1120005
-1.7452948 2.479924 -3.7266066 20.01
0.89190942 2.5774662 -3.834909 19.133499
20.588663 1.5294102 -3.5124311 5
8.3549385 2.1621168 -3.3716588 10.114
8.5452404 2.147336 -3.2330456 10.1135
9.7835522 2.0655959 -3.4061999 9.1127501
-1.9681711 2.5016742 -3.4070573 21.011999
-1.3078706 2.5212576 -3.3532612 23.008499
6.1083679 1.794441 -2.903203 11.11575
11.489319 1.95636 -2.9792919 8.1137505
14.115407 1.8032441 -2.9209867 7
9.002059 2.1276605 -2.9842811 10.1125
9.8482475 2.0674777 -2.9519463 9.1117496
11.006542 2.0275679 -3.1889033 8.1114998
0.32579109 2.457269 -2.9467509 23.134501
0.47187576 2.5103526 -2.9080818 22.634501
3.7192578 0.19355468 -2.4390683 4
3.5767846 0.75373077 -2.4787517 8.1199999
3.8390479 0.64218354 -2.4013886 7
19.327631 0.67762321 -2.5328078 4
3.4732265 1.0915333 -2.4174347 10.310249
3.7076409 0.96400654 -2.4453752 9.1195002
0.59913146 1.5037286 -2.5760982 18.132
19.267717 1.303681 -2.5057049 5
0.66128498 1.6653175 -2.4494002 20.131416
11.564842 1.962494 -2.5726333 8.1129999
0.69572598 2.3275068 -2.7598767 21.133499
4.865582 2.3430486 -2.5079877 15.450168
5.620296 2.3209858 -2.633193 14.11575
6.1036148 2.2812247 -2.6487176 13.115001
7.0377941 2.227144 -2.4746153 12.11325
8.6012945 2.1451595 -2.5354357 10.1145
9.33002 2.0848844 -2.7239599 9.1145
9.6952896 2.0693541 -2.5313797 9.1110001
10.173354 2.0027332 -2.7453046 9.1140003
0.37922022 2.5433657 -2.7912302 23.1355
0.59336442 2.5081224 -2.6426616 22.883999
4.1801786 2.4676754 -2.5157502 17.1185
2.2823265 0.37671441 -2.1243186 5.6666665
2.4927106 0.27766228 -2.1018534 5
1.5744585 0.7150383 -2.0230105 10.1275
1.9393542 0.73959911 -2.1537795 9.1257496
2.1960676 0.69107676 -2.0498736 9.0200005
2.5027008 0.62924987 -2.0566761 7.8109999
1.8980175 0.94755441 -2.0951893 11.688167
2.2017467 0.91931385 -2.0828614 11.123999
2.6271088 1.1969178 -2.0849843 13.122
3.7148924 0.97072029 -2.278213 9.18225
19.284941 0.89648235 -2.2191393 4
1.8657798 1.3149927 -2.0682054 15.219625
2.2786028 1.3368649 -2.0429738 15.1235
3.5501189 1.5321411 -2.2890115 13.3095
3.7166302 1.4926397 -2.1922302 13.1185
19.336647 1.2957776 -2.3288603 5
0.70750487 1.8273079 -2.2798901 21.131813
0.86428022 1.8076971 -2.0729256 20.348625
3.4655578 1.7872909 -2.1914501 15.227142
-1.8635675 2.1161203 -2.0679526 20.508999
0.69195437 2.0851648 -2.1823475 22.934
0.82537764 2.0396266 -2.0772214 23.1325
3.035768 2.3363938 -2.2757638 19.12125
3.398138 2.2981088 -2.1372833 18.785999
3.656589 2.3885825 -2.0075579 19.118
4.2867918 2.3947532 -2.1943152 17.117001
4.6530581 2.2781389 -2.1517839 16.116001
5.03866 2.317585 -2.2979174 15.11575
5.4001327 2.3020504 -2.1328437 14.781166
5.7598376 2.2843356 -2.3060913 13.781166
6.2170649 2.2490695 -2.0547998 13.113
6.53473 2.2527874 -2.3510084 13.1135
7.3536248 2.1843534 -2.1612375 11.7795
8.6906528 2.1027129 -2.3524642 10.114
9.0122681 2.0957737 -2.1855814 10.1125
9.6935472 2.0740161 -2.2406135 9.1117496
10.47732 2.0123324 -2.0779777 9.1125002
10.830122 2.0352848 -2.1840458 8.1125002
-1.9235803 2.6184804 -2.3589952 23.01
2.3201897 2.5164089 -2.0692577 23.123501
3.1953917 2.4986451 -2.007031 21.119499
3.3700738 2.4017825 -2.2687325 19.120001
4.2600017 2.4244246 -2.2905693 17.1175
4.7788038 2.445519 -2.2122092 16.615999
4.8144798 2.483006 -2.1128998 17.115499
-2.587307 2.9466364 -2.257956 23.01
0.72061676 0.33091336 -1.7162858 8.3788748
1.2146785 0.33894575 -1.6513613 6.5
0.71515542 0.55605352 -1.7791914 11.129201
1.1328081 0.58035833 -1.6467743 9.7006073
1.3259169 0.59948462 -1.6880723 9.5231247
2.5837235 0.68913615 -1.919219 8.4727001
0.71250278 0.86691946 -1.6684833 15.629
1.1545569 0.85634094 -1.611096 13.628875
1.3292685 0.95159906 -1.8535184 13.1285
1.8554858 1.1193806 -1.9362594 13.792
2.1213379 1.0938684 -1.9636681 13.06225
2.4079177 1.0862274 -1.9417559 12.455667
19.338238 0.98738086 -1.9450167 4
-2.0799284 1.421327 -1.9052044 15.512751
0.62894166 1.2770257 -1.6916366 22.552458
1.5500454 1.4815569 -1.8605942 18.127001
1.8041172 1.364428 -1.9524531 16.37575
2.1784554 1.3791873 -1.9129142 15.577062
2.5351124 1.3478378 -1.8858255 14.721501
19.315601 1.2361035 -1.9733521 5
0.94070178 1.826767 -1.8141484 22.239529
1.433054 1.863482 -1.8895904 21.794724
1.7591643 1.8649274 -1.8915572 20.83427
2.2010214 1.8264586 -1.8110558 19.592062
2.6477473 1.6295041 -1.8905252 16.121
11.275065 1.9709433 -1.9861574 8.1120005
-1.8845745 2.1847417 -1.7427675 23.010084
0.92999721 2.0596507 -1.8321723 23.130249
1.8619981 2.2588708 -1.8993658 23.12525
3.7851758 2.3538489 -1.8735418 18.517
4.1227512 2.3874393 -1.9602493 18.116501
4.6578779 2.3115606 -1.7623229 16.6145
4.9399939 2.2907281 -1.7109226 16.1145
5.4714298 2.2484028 -1.7849554 14.780945
5.817585 2.2802246 -1.7473125 14.1125
6.3044348 2.2201743 -1.849617 13.1136
6.5019784 2.2332029 -1.6823045 13.1115
7.4216785 2.167326 -1.8194177 11.61225
7.7587695 2.1425254 -1.8008666 11.1115
8.7337656 2.1454015 -1.6191393 10.1095
9.0763226 2.1302702 -1.8203359 10.1125
10.066957 2.0417633 -1.841287 9.1092501
10.495287 2.0425496 -1.8751203 9.1120005
2.3555009 2.4966712 -1.9412029 23.122749
2.6344919 2.5125363 -1.8990247 22.99625
2.9685123 2.5193601 -1.7738634 22.119249
3.2168529 2.5129483 -1.7431297 21.4515
4.1583533 2.4016275 -1.7520028 18.115499
4.8925929 2.4497089 -1.8450774 17.115
-1.975672 0.19181046 -1.2281878 5
0.7789613 0.26646265 -1.5465851 7.5640001
0.91569632 0.25697637 -1.3126262 7.9257612
-1.885218 0.63769853 -1.2607861 10.766399
0.76701474 0.71015459 -1.4879466 13.87775
0.90291387 0.61048383 -1.3404431 12.297231
1.3529893 0.55065852 -1.5467609 9.1268339
-1.8957739 0.88794762 -1.2090669 15.023
0.74686086 1.0172883 -1.4790134 19.318781
0.89195144 0.99525261 -1.3648922 18.11515
19.512777 1.0688438 -1.3869925 4
-1.8288947 1.5464231 -1.3279933 19.0105
0.28321859 1.5952048 -1.5257705 22.1355
0.76275873 1.3004504 -1.4761373 22.297709
0.90577728 1.3158354 -1.420155 20.906193
-1.9674023 1.9580441 -1.4556072 22.260876
10.611346 1.962577 -1.3781325 9.1079998
19.634565 1.6662823 -1.3341885 5
-1.8912849 2.0818768 -1.5290633 23.01
2.4908316 2.0041428 -1.2405726 23.1185
3.867861 2.3765309 -1.4405009 19.281916
4.1982064 2.3168063 -1.4234908 18.257643
4.5981607 2.3435626 -1.3517797 17.513201
4.9932594 2.3326716 -1.4247026 16.488188
5.3628821 2.3029594 -1.3736752 15.39857
5.6496801 2.2556171 -1.4023666 14.6125
6.1178246 2.2674627 -1.3874744 14.112
6.5985026 2.1947942 -1.4047687 13.111786
7.566535 2.1606205 -1.5072385 11.11
7.7926631 2.1420338 -1.3900608 11.443667
8.155139 2.1177661 -1.4085802 11.111
8.7156534 2.1325347 -1.3479259 10.1115
8.9219618 2.137888 -1.5837743 10.112
9.4358807 2.0887134 -1.5840062 10.109
9.9499302 2.0635428 -1.4055469 9.1097498
10.166186 2.06357 -1.5843453 9.1114998
2.7733967 2.464592 -1.3986686 23.118
3.0765779 2.4922643 -1.4233425 22.717203
3.3846717 2.467382 -1.386616 21.49106
3.7323227 2.4314053 -1.3134435 20.329498
5.0332084 2.4238081 -1.2522206 17.113501
-1.9411016 0.329909 -1.0305681 7.1372499
0.70721608 0.27650148 -0.93749905 10.20903
1.0454135 0.31625137 -0.97981495 8.7866526
-1.7905856 0.58753294 -0.99900073 10.264608
-0.32861191 0.54446799 -0.97310358 19.0075
0.74246967 0.63933694 -0.96015632 18.278717
1.0128107 0.62723726 -0.9709264 14.160116
1.7647557 0.56539392 -1.0950779 11.495625
-1.7867223 0.98791015 -0.93435311 15.882167
0.77140224 0.85882467 -1.0701908 20.379625
1.0250909 1.0200198 -0.96240515 20.065563
1.5093358 1.0858412 -1.0513637 20.121876
1.6646804 0.92348385 -1.050135 16.840626
-1.7844386 1.3464156 -0.93770272 21.079916
0.96617705 1.3473362 -1.0140549 22.792458
1.403162 1.2601001 -1.01337 23.12225
10.639622 1.9381506 -1.0590454 8.1102505
10.928659 1.9363765 -0.9214536 8.1070004
3.1452968 2.3968747 -1.0070065 23.115
3.912365 2.3709521 -1.0728661 19.390751
4.1849723 2.311852 -0.97679776 18.541393
4.7037873 2.3180001 -1.0156119 17.111626
4.979917 2.3284888 -0.98886424 16.811399
5.3863921 2.279284 -1.0012022 15.555778
5.8404775 2.2667463 -0.90404862 14.444167
6.2183352 2.2462685 -1.033829 14.110126
6.8206811 2.1848309 -1.0139064 13.109
7.5052886 2.2041514 -1.0574197 12.110333
8.1609135 2.1204829 -1.0172689 11.10825
8.6416435 2.1303368 -1.0502828 10.109834
8.8290815 2.0982957 -0.84983265 10.1075
9.8782339 2.0427742 -1.0023407 9.1075001
10.127662 2.0181386 -1.0209794 9.1102505
3.0856764 2.4438038 -1.0670302 22.9485
3.4113817 2.4498034 -1.023101 22.191252
3.7615497 2.448781 -0.94481587 20.822777
-1.8475593 0.30717224 -0.61187065 6.7884002
-1.5848986 0.39858988 -0.57618272 9.0142498
0.75266439 0.29813576 -0.78647506 11.459709
0.94171166 0.26131439 -0.53251076 10.243813
1.2164758 0.32990742 -0.57815164 8.454917
-1.7647938 0.5896697 -0.59784222 10.876588
-1.5810283 0.64362586 -0.60850745 12.4425
0.66943061 0.57536834 -0.69241619 17.12785
1.0408623 0.59697074 -0.60772979 15.786501
1.227066 0.66715932 -0.49762306 14.433792
-1.7780862 1.0084358 -0.62905037 16.923288
-1.5715574 1.0258268 -0.60478693 17.347166
0.79213136 0.93698066 -0.65090609 20.127001
1.1306612 0.97904527 -0.68199527 20.623203
1.2397342 1.0577352 -0.49686679 20.363033
-1.7111202 1.3481027 -0.6028704 21.477087
-1.5379634 1.4008908 -0.56947726 22.348665
1.1156293 1.2794744 -0.66902703 22.76214
1.2308539 1.2307463 -0.49200517 22.810001
11.296485 1.9033346 -0.52832311 8.1090002
3.1493468 2.3774772 -0.56622344 23.112
3.4135594 2.3974528 -0.68134153 22.112499
3.9381666 2.393651 -0.59967685 20.110666
4.1666265 2.3216712 -0.60758883 19.110542
4.5275989 2.2730227 -0.6043269 17.777666
5.0138898 2.3217607 -0.62587941 16.824358
5.3343182 2.2888279 -0.61208266 15.776001
5.7741289 2.2374473 -0.61855173 14.710401
6.2154045 2.2205558 -0.65839618 13.60825
6.4930906 2.1960247 -0.56177884 13.10775
6.9857588 2.1563058 -0.64522159 12.10775
7.2463198 2.1254504 -0.49760816 12.1095
7.996295 2.1689675 -0.71765602 11.1075
8.7014513 2.1281595 -0.53564471 10.441833
8.9669123 2.0911958 -0.585989 10.107667
9.9670582 2.0111063 -0.43072069 9.1090002
10.084451 2.020431 -0.67698234 9.1094999
3.1451945 2.4217818 -0.73650861 23.113001
3.4358783 2.4536924 -0.57485795 22.667057
3.8150759 2.4395027 -0.62344271 21.048656
-1.8334031 0.32088861 -0.17841011 7.9235044
-1.5891171 0.34778103 -0.15063161 9.0183334
-1.1508466 0.24696411 -0.051463246 9.0165005
1.0007874 0.28135648 -0.15183279 11.27947
-1.7800514 0.61423695 -0.21177185 12.094688
-1.5839549 0.5839656 -0.24845667 12.350583
1.0420637 0.57513386 -0.18349479 17.866625
1.2248685 0.69857508 -0.2302192 16.522749
-1.7422128 1.0230883 -0.1979551 18.35323
-1.5421479 1.0450718 -0.11840075 19.893219
1.1017548 0.83565265 -0.2101208 22.61285
1.2753758 0.99837506 -0.22338794 21.065306
-1.6934205 1.3014838 -0.19828586 22.146734
-1.5167335 1.2835548 -0.25610703 22.454094
9.718894 1.9920443 -0.018091751 9.1079998
10.382671 1.9753056 -0.2628462 9.1084995
11.612259 1.889153 -0.28369805 8.1084995
3.2345135 2.3573093 -0.37010115 23.1105
3.9381371 2.3877611 -0.16455524 20.358875
4.2477903 2.3143549 -0.19535682 18.907612
4.6210113 2.2609737 -0.14870758 17.441999
5.043735 2.2956195 -0.20034644 16.7085
5.351356 2.2731717 -0.16118322 15.885612
5.7746491 2.2175453 -0.1780013 14.732437
6.0031524 2.2193398 -0.16288981 14.1065
6.6657324 2.2043481 -0.22947288 13.107626
7.1491508 2.1210823 -0.28849241 12.1065
7.6798525 2.1423478 -0.10153733 11.10825
8.2581081 2.1554756 -0.13174218 11.10575
8.7920647 2.1122146 -0.010097349 10.108
8.9333029 2.0775847 -0.25584918 10.10725
9.2383776 2.0339887 -0.11752126 10.1055
3.4422154 2.4475527 -0.15456614 22.708851
3.8168144 2.4504125 -0.23111618 21.358749
4.0222864 2.4086497 -0.38288584 20.108999
-1.6886461 0.30750886 0.16793774 7.6782761
-1.5242511 0.3085866 0.18904096 8.7838049
1.0822724 0.25611353 0.17510179 10.883927
1.2138945 0.32708994 0.34523728 11.109668
-1.7170696 0.61719304 0.17883402 12.870128
-1.5340986 0.58662862 0.32031286 13.678209
-0.96811366 0.48436892 0.21817809 15.768845
-0.60433048 0.4829281 0.1383732 19.013
0.6580987 0.51874626 0.096072853 20.1215
1.0909454 0.52130961 0.152224 17.521629
1.2307565 0.64511657 0.27558258 18.050356
-1.7160697 1.0186784 0.1821474 19.104162
-1.5430568 1.0011802 0.20092078 20.135876
1.2955533 0.95490623 0.16115022 22.393343
-1.6854242 1.2718849 0.20174882 22.560989
-1.5145613 1.2186991 0.036147952 23.019751
10.565003 1.9332464 0.20401488 8.1075001
3.3076644 2.3942647 0.21904975 23.106001
3.9516089 2.3762181 0.076106578 20.1075
4.1482563 2.3297994 0.22098599 19.49077
4.4859104 2.2684286 0.1967473 18.106062
5.0122275 2.2754924 0.20541948 16.607
5.4240937 2.2884314 0.22615832 16.105627
5.8437467 2.2125542 0.22268391 14.355751
6.1965785 2.2021048 0.3263936 13.60675
6.409462 2.1737647 0.35455671 13.1045
6.929142 2.1568768 0.15362421 12.771832
7.4734025 2.144901 0.008741647 12.1055
7.7798123 2.1379476 0.23710528 11.10725
8.7817783 2.1032143 0.18495588 10.1075
8.8316288 2.1018312 0.36836192 10.107
9.3444891 2.021059 0.082045943 10.105
9.7348576 2.0033946 0.19865438 9.1075001
3.4596779 2.4708769 0.24465157 22.939543
3.7654896 2.4515827 0.20109639 21.820465
-1.6775095 0.29894197 0.58294106 7.8467064
-1.4457046 0.30613267 0.56414807 8.4993172
-1.1085634 0.23772512 0.61377549 9.2989016
1.1234063 0.23346421 0.61250305 10.685141
1.2597984 0.29180247 0.62724876 10.268053
-1.6762702 0.62757337 0.54747123 13.430346
-1.4764324 0.59348077 0.62206262 14.178495
-1.0247005 0.46800551 0.55490804 16.025583
1.1484852 0.54257601 0.57398295 18.367104
1.2552522 0.6063562 0.61075824 17.955091
-1.6675364 1.000906 0.59499067 19.100187
-1.5204465 0.98010415 0.63568199 20.520655
1.3103616 0.86822486 0.62595594 22.600883
-1.6467844 1.2642634 0.54092211 22.757854
-1.5939208 1.2528187 0.78544551 22.773251
3.3922167 2.3891256 0.58803171 22.853563
3.8354852 2.3877757 0.64528143 20.604126
4.2196035 2.3053422 0.58870536 19.274858
4.5664129 2.2432585 0.56588042 17.604
5.0493813 2.2632117 0.59091163 16.354876
5.4301314 2.2463377 0.62148374 15.770749
5.6800551 2.2237659 0.608495 15.1045
6.1462097 2.1908531 0.58506423 13.938416
6.4321346 2.1560912 0.61810309 13.10575
6.8869238 2.2058401 0.49078169 13.104
7.4801874 2.1604345 0.48080304 12.1065
8.0829458 2.1024771 0.50212896 11.1065
3.4435678 2.414916 0.62478954 22.9034
3.697124 2.4247708 0.53027678 21.60425
-1.6354299 0.29604769 0.88440639 7.6582065
-1.4130459 0.32348728 0.99588418 8.7388306
-0.97105837 0.26553866 0.99523562 9.6193609
-0.67835665 0.38612604 1.1321346 14.71239
1.1520854 0.24245591 0.86791945 10.509042
1.3026717 0.26571852 1.0253656 9.4179077
-1.6257073 0.61711204 0.94616514 12.669458
-1.3905451 0.5983302 0.99830389 14.525372
-1.0973403 0.48358327 1.059827 14.539249
1.1782182 0.6710273 0.82799262 20.093
1.3445029 0.60045785 0.99563032 16.752998
3.3618522 0.61035395 1.0539697 8.6999998
-1.6207039 0.97882986 0.87597102 18.599743
-1.5054753 0.99093825 1.021275 19.899664
1.456277 0.9608236 1.0271693 21.89975
2.3141756 0.86906147 1.1864262 14.097
3.1509569 1.0440768 1.0898147 13.0995
3.3056605 0.9186964 1.0819345 11.844277
-1.6074078 1.2337418 0.81308222 22.51825
-1.5105966 1.2561016 1.0464468 22.777645
3.1043363 1.3672334 1.0940516 16.261938
3.2525561 1.3156549 1.0920285 15.433
2.9202785 1.8159535 1.143514 20.848812
2.9643555 2.1831341 1.0301893 23.099998
3.3047969 2.393429 0.9170717 23.101
3.8655264 2.3709173 0.94189167 20.435583
4.1670742 2.285759 0.9310143 18.880083
4.6019044 2.2613153 0.86934155 17.436499
4.9736123 2.2706792 0.99538749 16.674358
5.3729072 2.2549961 1.0208901 15.436334
5.6590371 2.2058177 0.9808374 14.604
6.2171998 2.1983368 0.99517745 13.437667
6.5678592 2.1489451 0.84132212 13.105
6.8929 2.1826665 0.90669787 12.105
3.5132935 2.432488 1.0333949 22.20085
3.7700479 2.4292943 1.0282444 21.244036
-1.4057871 0.33686468 1.3961962 8.3776388
-1.0003418 0.22555348 1.3375347 8.100667
-0.55086195 0.23548131 1.4255178 8.8423004
-0.32287383 0.12340336 1.5490018 5.6666665
1.4832708 0.31547084 1.4404114 9.1947289
1.7385051 0.3320024 1.4927605 8.2301559
2.1248024 0.22231416 1.3732182 5.8648334
4.479753 0.20153616 1.5577605 4
-1.3638709 0.59963614 1.3798521 13.682618
-1.1923555 0.48444644 1.2525188 14.538
1.5134779 0.59059632 1.4210511 14.041903
1.8154616 0.59713191 1.439611 12.240069
2.1556361 0.60782921 1.3389757 11.523572
3.3011117 0.63957143 1.2313659 9.0987501
-1.4227554 1.0023433 1.4011424 19.319572
1.5245724 0.99201214 1.4101682 20.139473
1.7092927 1.0107477 1.4321082 18.934252
2.1123366 0.91886044 1.2993776 15.576225
3.1816967 0.98975736 1.2666025 12.509944
3.2990756 1.0068257 1.2280357 12.59875
4.4815979 0.95100534 1.5612056 9.1002502
5.3458033 0.97531033 1.4099333 8.1020002
-1.3817226 1.3033477 1.4410971 22.357008
1.5082475 1.2336786 1.5155802 22.933105
1.7894105 1.3302121 1.3811567 22.092957
2.1560941 1.4558032 1.2946422 21.595501
2.9997911 1.4316357 1.3377773 17.043272
4.3909578 1.2076181 1.5812732 11.1
4.4688115 1.4126242 1.5795246 12.100166
5.1143107 1.2772379 1.4828991 10.1015
5.4731684 1.2416561 1.3932316 9.6022501
2.7151096 1.8502034 1.3605591 21.763374
2.8974409 1.7482563 1.3587881 20.197151
4.7544422 1.9812187 1.5922804 15.1005
5.0170331 1.7012515 1.5250463 12.767833
5.4435568 1.8027947 1.4201226 12.801001
5.6266103 1.6603595 1.3524959 12.1025
2.6746702 2.1429937 1.4103131 23.0965
3.0056682 2.296617 1.3914192 22.697899
3.7783611 2.3555539 1.36365 19.975
4.1765752 2.2351635 1.4256593 17.767082
4.5997686 2.2804573 1.3317064 17.1015
4.9559331 2.2683816 1.3570503 16.3018
5.4427805 2.1224275 1.3977923 14.243292
5.6978502 2.2116737 1.2526505 14.103
3.1513247 2.4142909 1.288978 23.099001
3.2291272 2.4187629 1.2493097 22.099501
3.7215512 2.4512038 1.2221918 22.099501
-1.3295302 0.32859266 1.8077877 8.0637016
-1.1554508 0.27165395 1.6899551 8.532938
-0.44976512 0.31003058 1.7617875 9.3907089
-0.32446182 0.22787981 1.7728705 7.7954998
1.5033839 0.32461479 1.7959682 8.4954529
1.6265849 0.32373491 1.7495846 8.1147509
2.7311757 0.0058883978 1.9704275 1
2.9751465 0.19338943 1.8994346 4.2222223
3.3721159 0.21408027 1.7928358 4
4.2592154 0.22940066 1.6860234 4.1666665
4.405241 0.22665745 1.607638 3.5
-1.3195779 0.61141527 1.8103073 12.605237
1.5208275 0.58765066 1.7741846 12.449773
1.6538455 0.58157003 1.7764292 12.236773
2.8712299 0.63293481 1.9561741 8.25
3.2240098 0.69731492 1.8576849 8.0959997
3.927273 0.76162195 1.81425 8.0979996
4.1116552 0.7571522 1.7685385 8.0494995
-1.291844 1.0181972 1.8094807 18.996729
-1.174288 1.0326666 1.9564477 17.276125
1.4916757 0.97858119 1.768365 18.093534
1.6223387 0.95479143 1.7343029 18.082905
2.773104 0.98537171 1.9701297 11.5
2.9822216 0.97220087 1.9014082 11.230167
3.3552516 0.80494499 1.8272643 9.0965004
4.1167159 0.86117142 1.7688307 8.6213884
-1.2776297 1.3182188 1.7366656 21.92733
-1.1792916 1.3203377 1.9170922 21.935715
1.4810054 1.2689217 1.7520518 22.464319
2.7239165 1.4849491 1.9723859 16.046749
2.9523635 1.4286972 1.9312086 14.866928
3.8658037 1.4914902 1.8568455 13.25
4.1429639 1.3794922 1.7306072 12
2.8208203 1.8200489 1.9722406 18.094
3.5131731 1.8552144 1.960995 16.798
3.7719755 1.7302787 1.865374 15.215166
4.1649928 1.7848405 1.6718314 14.833333
2.6058633 2.2895823 1.6922241 23.094749
3.1899815 2.3910503 1.7384309 22.0965
3.5091648 2.2567422 1.9408529 19.048
3.7977183 2.2915668 1.6752096 19.187046
4.1348805 2.2140808 1.6673355 17.621805
4.7721138 2.2497306 1.6000537 16.1005
3.1429513 2.4452226 1.9968725 22.094999
3.3811157 2.4215887 1.9484178 20.897167
-1.2426516 0.31448406 2.084563 7.7630334
-1.09637 0.23924425 2.2343769 5.9124384
-0.51592761 0.22368209 2.1197493 6.7058334
1.4691851 0.35577717 2.124547 8.3324375
1.7858558 0.22284985 2.1941748 5.2954545
2.2205012 0.16068213 2.2403073 3.8
2.5696707 0.20125979 2.1443172 4.2142859
2.8129466 0.16720577 2.0053422 4
-1.2536262 0.60387892 2.1025345 11.706377
-1.1271554 0.57023221 2.2452247 10.858973
1.5027721 0.6171822 2.1500497 11.855556
1.6813747 0.65170318 2.2981391 10.90981
2.2172079 0.61667073 2.2875755 8.5555553
2.6016581 0.59777164 2.1275744 8.1538458
2.8151536 0.57982445 2.0009513 7.6666665
-1.2425281 1.0001285 2.1127565 17.051424
-1.1248791 1.0341517 2.2229052 17.460634
1.5430804 0.98189396 2.0916481 17.10309
1.7694044 0.88882542 2.3591392 12.66865
2.2225032 1.0336543 2.2791929 12.6
2.5483198 0.96534163 2.1221042 11.615385
-1.2223477 1.3678406 2.0362504 21.717667
-1.0886472 1.3651742 2.1802564 21.801414
1.5657758 1.3219095 2.2207069 20.767099
1.7435654 1.4469684 2.2165451 19.77936
2.2231867 1.3811133 2.2310867 16
2.6597624 1.4486754 2.0264401 15.73425
-1.3007528 1.8943601 2.2020698 23.05975
1.5960314 1.9982387 2.393635 22
1.8594939 1.7851629 2.3213656 20
2.2674763 1.8119289 2.1258202 19.929361
2.4615605 1.7239341 2.0520294 18.841999
1.5899853 2.070627 2.3656943 23
1.7408848 2.0956419 2.2778873 22.905958
2.2041068 2.2345457 2.111388 22.8904
2.5900104 2.2129092 2.0555592 21.842531
3.1262589 2.1958411 2.0454333 20.094666
3.2239871 2.4486575 2.0350146 21.094999
-1.0533116 0.25541335 2.6003716 6.5116758
-0.54743582 0.2202962 2.463732 5.5
0.0018543067 0.021545867 2.4690471 3
1.6462058 0.30335739 2.535109 6.8326664
-1.2052116 0.58906382 2.4683125 10.0515
-1.0486279 0.58508986 2.5504723 10.812119
1.5126511 0.54309267 2.6629145 9.414834
1.6426643 0.58595842 2.5609682 10.424685
-1.0176219 1.0175191 2.5447779 16.461132
1.6675177 0.99193853 2.5538621 14.766715
-1.2159092 1.4741074 2.5580592 19.056751
-1.0616335 1.3529054 2.6192818 19.99884
1.5592077 1.2931079 2.5249836 18.0825
1.7055217 1.388001 2.5444915 17.039848
-1.2281444 1.8436664 2.614964 22.55875
-1.1650764 1.916913 2.6627514 22.3925
1.7535836 1.7773917 2.6042359 20.8978
-1.2223243 2.0197904 2.4830623 23.061501
-1.138162 2.0282118 2.6490219 22.729334
-0.90908617 0.14835294 2.9040265 5.2307692
-0.3106598 0.24941662 2.8771572 5
1.5601038 0.17613952 2.8402691 5
-0.97628659 0.6282922 3.0086789 10.203269
1.8438293 0.71510631 3.1462243 10.079
-1.062709 0.96282607 2.9750335 12.6335
-0.75001872 0.88090307 2.8921294 13.057
1.7789539 1.0109506 3.0379038 12.865499
-1.0768067 1.3783445 3.0113552 16.63516
1.8144344 1.3812101 3.1173348 16.163601
-1.2093765 1.8695015 2.9236517 22.056999
-1.0518777 1.793834 3.0827203 19.8612
1.7795017 1.8409609 3.002003 21.210712
-1.2049282 2.0006614 2.9303808 23.056999
-1.007033 2.1337502 3.0374219 22.686749
-0.6081652 2.2825558 3.0575583 23.067499
0.17407605 2.2784815 3.1172585 23.07325
0.44633448 2.2950439 3.0856435 23.075251
1.0574852 2.2964933 2.8873346 23.08
1.4067143 2.3105474 2.9414175 22.748833
1.7559451 2.2772574 3.0992336 22.643967
-0.98453486 0.29026645 3.3650923 4.833333
1.8815142 0.28450146 3.4516833 5.5
-0.96516198 0.63799667 3.3389659 9.1810331
1.8202001 0.64952177 3.4211836 8.8448744
-0.89550912 1.0451772 3.4379363 12.745749
1.8413227 1.0184519 3.3860965 12.522802
-0.96853548 1.3985252 3.4049871 15.924625
1.8262354 1.3885685 3.3523915 15.50625
-0.93732888 1.7614696 3.387542 19.820013
-0.69470137 1.8336518 3.3938684 20.478813
1.5312238 1.7215837 3.3801994 18.578751
1.7421036 1.7161247 3.2834845 19.164276
-0.84944153 2.0899694 3.4183044 23.059502
-0.58951378 2.3496864 3.5133417 22.35
-0.14200687 2.3382993 3.3579838 22.070999
0.15308157 2.2826405 3.4488471 22.818874
0.70329934 2.3164477 3.5908847 21.5725
1.0925014 2.2951372 3.482507 22.218679
1.4014891 2.2989671 3.3828964 22.350979
1.7650088 2.2505569 3.3988805 22.078566
2.1043525 2.1773617 3.4998462 20.077499
-0.91453671 0.36987972 3.795785 5.125
1.9068837 0.2135427 3.6614242 4.1999998
-0.89002162 0.68838918 3.7571373 9.0464001
-0.76521391 0.64641124 3.9603958 8.059
1.9107952 0.72477442 3.7039101 8.6920004
-0.88306415 1.0158656 3.7275188 12.224949
-0.77367336 1.0692531 3.8950112 12.727166
1.8896908 0.88420784 3.7725062 10.432375
-0.89309937 1.3560138 3.7131186 16.343624
-0.76423788 1.3776839 3.8787262 15.059124
-0.83822232 1.7780969 3.7170479 20.086901
-0.6907773 1.8348758 3.8219478 20.559999
-0.82173294 2.3719409 3.7123342 21.066999
-0.60951817 2.3163989 3.8156145 21.992357
-0.21279673 2.3124993 3.8480906 21.817106
0.18248528 2.2769444 3.7484415 22.755468
0.53771895 2.2766559 3.8681066 22.07057
1.0069169 2.3232651 3.8263206 21.121204
1.409753 2.3288169 3.7852378 20.77006
1.812475 2.2612665 3.8188286 19.379499
2.1484442 2.2494977 3.9009559 18.0835
-1.2221688 2.6687186 3.7845199 23.0555
-0.32435149 2.4023325 3.7141006 21.07
0.29376793 2.4439018 3.9714546 23.0695
0.69070363 2.4073219 3.7297354 22.074249
-0.73616529 0.15380996 4.145596 4.4000001
0.094036676 0.063091435 4.0443096 3
-0.96970308 0.79886609 4.3053341 9.0620003
-0.75296712 0.53712952 4.1109056 7.875
-0.71109366 1.0132726 4.0782871 11.873333
-1.02201 1.3676565 4.2047615 14.0615
-0.71404785 1.3267632 4.1506271 14.06175
1.9942245 1.5822425 4.0538011 13
-0.81992149 1.7130868 4.0686951 17.0625
-0.61208266 1.80854 4.2826533 15.546
-0.37723431 1.8500513 4.2488875 16.07
1.5736696 1.6763411 4.2841039 14.08
1.8237119 1.7091588 4.1681247 14.317666
2.059149 1.928609 4.3135777 16.075001
-0.82506591 2.1003482 4.0590143 19.0585
-0.5645892 2.2914665 4.1900368 20.247435
-0.18666719 2.2838724 4.2221889 20.23329
0.19270134 2.2893245 4.1801472 19.733133
0.59259677 2.3072064 4.1929984 20.1975
1.0066606 2.3095076 4.1817117 19.617208
1.4249091 2.2978601 4.1828289 19.485888
1.8029885 2.2775915 4.1909275 19.264198
2.1175089 2.1773901 4.0781336 17.581125
-0.53786004 2.4258533 4.1207438 21.060249
-0.17600794 2.4120858 4.296144 20.395834
0.24740312 2.4025609 4.3533311 20.065001
0.60877126 2.4144027 4.165422 21.821312
-0.68951511 0.93439174 4.6704798 10.064
2.0645177 1.0458795 4.6259851 10.0745
2.0828137 1.4965216 4.5163851 13.25
-0.90309459 1.63046 4.4008961 15.0625
-0.58246607 2.28859 4.6020641 19.230278
-0.17544232 2.2950487 4.5975285 19.430227
0.21694522 2.3065293 4.5883598 19.504662
0.58487868 2.2938206 4.6040487 18.869633
1.0086894 2.2583885 4.6277256 18.770967
1.3956065 2.2376871 4.56074 18.574009
1.7918329 2.2363045 4.5626216 18.40975
-0.46536341 2.4008267 4.4665847 20.061001
-0.43671983 0.75700921 4.9771929 8.0655003
-0.56032914 1.018699 5.1184421 9.5649996
-0.54200876 1.4338934 5.0562606 12.364599
2.2297666 1.5040209 5.18365 12.074
-0.55729944 1.8176135 5.0637474 15.396916
-0.22693205 1.718058 5.117485 15.064
-0.57491851 2.1917455 5.003273 17.397333
-0.19642104 2.2201612 5.0032506 17.898165
0.2057856 2.2167308 5.0015478 17.297234
0.59651875 2.2104092 5.0306797 17.543818
0.99724787 2.2036591 4.9847503 17.07375
1.326893 2.1809268 4.8758717 17.323126
1.8519753 2.1903582 5.141253 15.577126
2.2011137 2.1315739 5.1582026 15.743167
-0.85176492 2.4633272 5.1024337 18.063499
-0.50664228 1.0009497 5.2150245 9.0614996
2.2506692 1.4297889 5.240572 11.074
-0.34982246 1.6183776 5.5502596 12.0705
1.9024829 1.6143165 5.587429 12.072
2.1502516 1.6196944 5.54777 12.073
-0.43975934 2.1272523 5.256784 17.063
-0.22823228 2.1921611 5.315587 16.565332
0.1805428 2.1841261 5.3902817 15.928072
0.57279998 2.18205 5.4392762 15.928071
0.95187062 2.2377393 5.3139334 16.848333
1.419039 2.2058666 5.4110193 15.717143
1.7885466 2.1663949 5.4369845 15.502749
2.1489112 2.1354871 5.4328556 15.200125
-0.97343981 2.5191534 5.2066073 18.063
2.3563192 1.5377914 5.7466121 11.0735
-0.64363867 2.143925 5.8734016 14.0695
-0.18896087 2.1587179 5.808712 14.781358
0.21010967 2.1484988 5.8001881 14.977728
0.59822404 2.1524405 5.8451147 14.769249
1.0116282 2.1275442 5.8392568 14.2165
1.3475982 2.1497526 5.7679338 14.929428
1.8083889 2.1072118 5.8588924 14.528635
2.1214542 2.1456809 5.7463145 14.699501
2.2044959 1.5454947 6.0314713 11.072499
2.413449 1.3237247 6.2237287 9.073
-0.43309101 1.869984 6.2751803 14.0635
-0.31548867 1.9880674 6.2494831 14.064
0.050755061 1.9923036 6.2543292 14.0655
-0.48178589 2.2068844 6.041162 15.06575
-0.13357796 2.1819479 6.1623368 14.566833
0.20918593 2.1565716 6.25245 14.400277
0.59703213 2.1393404 6.2001753 14.432409
1.0114801 2.1388121 6.0970387 14.301461
1.4208218 2.1143579 6.1319041 14.071668
1.7489421 2.0969963 6.2035098 13.6195
2.1261671 2.1038632 6.1494126 13.4758
-0.57723719 1.9520137 6.5193882 14.063
-0.33362445 1.873878 6.7694979 13.064
-0.058721669 2.0701923 6.4619398 14.0675
0.15538985 2.0848017 6.6075077 13.069137
0.60793686 2.0533562 6.6175466 13.071429
1.0618259 2.0690951 6.6281514 13.181612
1.328894 2.0734086 6.5532866 12.928857
1.7709163 2.0761952 6.5368848 12.078
2.1963103 2.0709977 6.6365952 12.742832
2.4640536 2.0583894 6.7511301 11.58
0.005113028 1.3341603 7.1619201 8.0719995
-0.47305259 1.9282928 6.812428 13.0635
0.78679931 1.9928845 7.1040349 12.0705
0.93399674 1.9914403 7.0863533 12.071
1.3621963 1.9925607 7.0327334 12.072499
1.7802862 1.9860792 6.9152894 12.071332
2.1787505 1.9703604 6.9728012 11.82225
2.4951506 1.9855918 6.9454379 12.07625
-0.10553485 2.0895562 7.1441355 12.56425
0.2557506 2.0945923 7.0618353 12.265499
0.61017752 2.0694523 7.0626311 12.511444
0.949947 2.0397458 7.0666723 12.3195
1.3774453 2.0263524 6.9571791 12.4702
1.7242827 2.0192876 6.9785995 12.57275
2.1693428 2.0333822 7.0116305 11.932143
2.7456059 2.0145426 6.9428158 12.077
0.0051539782 0.46133927 7.2209339 4
0.0051979763 1.459814 7.2842507 9.0719995
-0.091610514 1.9815969 7.4524884 12.065
0.0051983767 1.8525609 7.2848115 11.072
1.8681635 1.9716949 7.4378047 11.57175
2.0928214 1.9295937 7.4491601 11.0745
2.4174526 1.9462701 7.4717441 11.0715
0.21895878 2.0416377 7.3910613 12.6661
0.6398614 2.0333431 7.4414458 12.069667
1.034874 2.0344257 7.5228529 11.324125
1.8234684 2.0142753 7.4492826 11.274699
2.0272686 2.0225368 7.2306733 12.0745
0.6641385 1.9882164 7.7835674 12.0675
1.4854077 1.9770094 7.786283 11.0707
1.7553512 1.9806879 7.7549601 11.071
2.21294 1.9620187 7.909977 11.0705
2.4762096 1.9922822 7.9727407 11.073
0.28780773 2.0251083 7.6737733 11.570749
0.521878 2.0613747 7.7885575 11.402
1.1038653 2.0169213 7.7393155 12.069
1.374814 2.0117855 7.8486958 11.405167
2.1335003 2.0067785 7.9052253 10.078
0.16483282 1.9611522 8.1304445 11.399999
0.65198654 1.9603289 8.2377329 11.068168
0.96673363 1.9672785 8.2328892 10.671
1.5925392 1.9035064 8.117135 11.0725
1.7208586 1.9152534 8.0094385 11.073
2.2275081 1.9689515 8.2871361 10.6713
2.5849223 1.9107144 8.1846142 10.07325
2.9101307 1.816412 8.1542501 9.7414999
0.37521306 2.032768 8.2892685 10.073
0.69659871 2.1081026 8.085186 11.066
0.92094129 2.0999453 8.3540335 11.0665
1.2302437 2.0081232 8.2057467 10.5675
2.7453134 1.5926427 8.7494583 9.073
2.932806 1.4527164 8.474947 8.0719995
0.71882886 1.9377353 8.7463226 10.0675
1.0507594 1.9424692 8.6796026 10.736667
1.3410662 1.963083 8.5988331 11.06925
1.8411678 1.9616456 8.5639906 10.069
2.1612036 1.9186082 8.6123314 10.07225
2.6060448 1.9007778 8.6550865 9.6759996
2.8889678 1.926257 8.4295139 9.0795002
0.39093336 2.0082536 8.6003513 10.065
0.62993717 2.013845 8.5088425 10.068334
0.92298406 2.0098097 8.569315 10.0665
0.67731506 1.4606211 9.1168118 8.0657501
0.31505123 1.8914566 9.0511589 10.06625
0.51210082 1.9096889 8.9897709 10.068001
1.0784838 1.9661529 9.090519 9.5667496
1.4507743 1.9130619 9.0765123 10.070499
1.7440267 1.9262066 8.8990211 10.070375
2.4230077 1.8714913 9.0073624 9.0780001
0.68656391 1.9449934 9.3018913 9.4003334
0.96217424 1.8474336 9.4401655 9.736167
1.4143595 1.8604178 9.3983383 9.8218746
1.8023255 1.8637042 9.581316 9.0699997
2.2056956 1.8814578 9.3683052 9.5742493
2.6424797 1.8678031 9.3910561 9.3213749
2.8147483 1.8628372 9.2663794 9.0710001
0.28267753 1.7693882 9.9816799 9.0684996
0.55726504 1.8204315 9.8746004 9.0680008
0.9303146 1.8495035 9.6431265 9.072834
1.3376135 1.8418962 9.6930113 9.0724993
1.7633685 1.835853 9.8626461 9.0725002
2.2370868 1.8231461 9.7340984 8.9292135
2.6128378 1.8176003 9.8097935 8.8219995
3.0812037 1.8722887 9.6904764 8.0790005
3.3229094 1.6906173 9.7787781 8.5757504
1.3390702 1.1353132 10.354581 7
1.1026628 1.8868289 10.009563 8.0745001
1.4628143 1.8313259 10.180746 8.4038324
1.8228232 1.8508987 10.110381 8.0708332
2.0498967 1.8552846 10.291859 8.0764999
2.5438707 1.7508187 10.363652 8.0775003
2.9774592 1.7399229 10.267933 8.0751657
0.95260012 1.7842133 10.627223 8.0740004
1.3864291 1.8178866 10.604218 8.0710001
2.31007 1.8408726 10.4033 8.0769997
2.633631 1.7538433 10.693898 8.0708323
2.855895 1.8162508 10.543256 8.0780001
3.2445843 1.7110794 10.726383 8.0710001
0.72495389 1.740877 11.027948 8.0682507
1.1025066 1.7714872 11.020954 8.0681658
0.96876568 1.739943 11.352276 8.0675001
1.4028759 1.7120643 11.371947 7.8024998
1.8759384 1.6633068 11.395751 8.0709991
2.1018732 1.7135153 11.247943 8.0699997
2.4044425 1.722623 11.433982 8.0705004
2.9423759 1.6997585 11.388286 7
3.3809986 1.6884952 11.524993 7
1.7157418 1.6828439 11.627647 8.0690002
2.5896742 1.7587312 11.692209 7
1.8169779 1.8104689 12.238244 7
2.3877044 1.6128409 12.106837 7
2.6202712 1.6457883 12.113117 7
2.1638408 1.4941291 12.468266 7
2.8567791 1.598201 12.766342 6
2.383671 1.7448243 12.487452 7
3.1516538 1.6745054 12.524046 7
2.7125788 1.6637133 12.854461 7
3.1026354 1.7092589 13.063098 7
3.9593754 1.5411882 13.527101 6
3.5616143 1.4624192 13.985093 6
1.7640039 1.7159715 13.747085 6
2.0833633 1.6733211 13.878386 6
2.933814 1.3837731 14.170382 6
2.7487803 1.6189028 14.146731 6
2.5660446 1.3458502 14.768691 6
3.739785 1.5291064 14.446267 6
3.5241506 1.4703422 14.942816 6
2.0480549 1.2879481 15.773522 6
3.3816581 1.4225782 15.789844 6
3.0705354 1.4718933 16.088736 5
2.9000371 1.2713472 16.676479 5
3.2650025 1.2284825 16.770397 5
3.7035351 1.223398 17.041471 5
4.9997764 1.3469396 17.046259 5
3.9227729 1.0682516 18.762352 4
4.2642531 1.0940759 18.719513 4
4.5542817 1.128145 18.648275 4
3.9459291 1.3174022 18.665525 5
3.6139755 1.0400217 18.812719 4
4.5089378 1.2533196 18.857195 5
3.3067861 0.8199175 21.559048 4
2.9506867 0.17461903 21.973452 3
4.2802396 0.50696903 21.729626 3
4.6126246 0.67328429 21.777596 3.5
3.7306795 0.91786587 21.944164 4
4.3426881 0.8246187 21.857971 4
2.6494718 0.030141085 22.071747 2.75
3.094032 0.21083365 22.02224 3
2.9957161 1.0165911 22.128212 4
