# .PCD v0.7 - Point Cloud Data file format
VERSION 0.7
FIELDS x y z intensity
SIZE 4 4 4 4
TYPE F F F F
COUNT 1 1 1 1
WIDTH 174
HEIGHT 1
VIEWPOINT 0 0 0 1 0 0 0
POINTS 174
DATA ascii
19.37858 1.1076802 -1.5787086 4
19.47683 1.5936707 -1.4001073 5
-1.9720391 0.10216337 -1.2495294 4
-1.9765011 0.32547951 -1.2280848 7
-1.9438708 0.56916505 -1.2253274 10.5
-1.9579195 0.00091841817 -1.1682396 2
-1.9736742 0.29213104 -1.161521 6.5
-1.9793923 0.50399238 -1.1056552 9.5
-1.9448695 0.71609712 -1.1880003 12.5
1.7486534 0.7872225 -1.0620078 14
-1.9300994 0.91425484 -1.1422234 15
1.6931098 0.86291194 -1.0468299 15.5
-1.9050337 1.0373112 -1.0974352 17
-1.9200728 0.59173906 -0.8169601 11.5
-1.9391142 0.68181258 -0.9215706 12.5
-1.9379772 0.92644727 -0.89525026 15.5
-1.907373 1.0893511 -0.86078036 18
-1.8837487 1.2561563 -0.85830355 20
-1.9666202 0.0039910004 -0.73363113 2
-1.8982221 0.76523143 -0.79948705 14
-1.864543 0.93894905 -0.60608131 17.5
-1.8904259 1.2717247 -0.78251779 21
-1.9475604 0.033318877 -0.46057731 2.5
-1.9842916 0.31560877 -0.56542766 7
-1.9275273 0.43614501 -0.41201419 10
-1.8409151 1.0889097 -0.54649347 19.5
-1.9182951 0.12143762 -0.30474097 4
-1.9276333 0.29235759 -0.2521739 7
-1.9298292 0.41117561 -0.30107149 9
-1.8867464 0.67045552 -0.24995911 14
-1.8659093 0.83356696 -0.37532157 16
-1.8427851 1.0894654 -0.35937265 20
-1.8011036 1.2246118 -0.29490295 22
-1.7736561 1.2953469 -0.28580242 23
-1.8429968 0.92091697 -0.081933871 18
-1.8478283 0.15153824 0.004164034 5
-1.7373389 0.057218768 0.14587729 3.5
-1.8604525 0.27183217 0.011937652 7
-1.7892258 0.32904458 0.1282676 8.5
-1.8357903 0.47653133 0.082716614 10.5
-1.8942068 0.7289421 0.013245013 14
-1.7089194 0.17130688 0.36504433 6
-1.7631124 0.33003923 0.21824399 8
-1.7843704 0.74353659 0.31402516 15.5
-1.6561593 0.17843968 0.57737118 6
-1.7047371 0.30172125 0.48448431 8
-1.470085 0.35118276 0.52347064 9.5
-1.7206789 0.4744916 0.49526 11
4.1599679 2.2757928 0.56467313 19
-1.6468627 0.15602712 0.77969933 5
-1.6578636 0.24344358 0.65290636 7
4.0443168 2.3531122 0.61142689 20
-1.6497061 0.33033562 0.89926076 8
-1.659848 0.47150946 0.84870291 10.5
-1.6061274 0.13021709 1.060213 4.6666665
-1.5996058 0.060453139 1.097404 3
-1.6015757 0.24630529 1.0840119 7
-1.4515605 1.2786679 1.1231658 22.666666
-1.5464768 0.053118207 1.2740314 3.5
-1.5803636 0.37368834 1.2074523 8
-1.4210707 1.1328534 1.2676408 20
-1.4105096 1.2026067 1.2587838 21
5.5496812 1.9541073 1.3979136 13
5.51582 2.0779493 1.3766464 14
5.4486427 2.2194827 1.3559827 15
-1.4417819 0.050346404 1.5342351 3
4.502553 0.13221948 1.5536034 3.5
4.4779024 0.34486002 1.551672 5
-1.4539714 0.45825258 1.4998944 9
-1.348483 0.97130823 1.5517269 17
-1.3683654 1.1145926 1.471037 19
-1.3633827 1.3071467 1.4859525 21.5
-1.3420323 0.067606784 1.6696639 3.5
3.3787458 0.077311441 1.7628592 3
4.1702242 0.15673275 1.7465502 3.5
-1.2964979 0.31031972 1.7510351 7
3.3999498 0.23925027 1.7703687 4
4.1768799 0.31879929 1.7540058 5
-1.2964725 0.55151379 1.6968633 10.5
-1.3069327 0.65965188 1.6659564 12.5
-1.3086717 0.88127786 1.7651494 14.5
4.1589017 0.86795509 1.7808269 8.5
-1.2909099 1.1157722 1.6970178 18.333334
-1.2674663 1.2985706 1.6827649 20.5
-1.2791805 1.4358424 1.6039951 22
4.3032656 1.4678924 1.6424943 12.5
4.2636771 1.6137146 1.6462247 14
4.144289 1.9030123 1.6798275 15.5
4.0770235 2.1301193 1.7147235 17.5
3.7253573 2.3553262 1.7156281 20
-1.2585604 0.13293219 1.9366217 4
3.0189726 0.049631335 1.8465053 3
3.3156121 0.010427956 1.827695 1
-1.2640123 0.27437258 1.938709 6
3.0539992 0.27731997 1.8582444 5
-1.2673663 0.47200814 1.8932679 9
2.92943 0.46185273 1.9501691 7
-1.2067301 0.73489875 1.9754919 13
2.9196908 0.63699579 1.9233657 8
3.0342879 0.7656123 1.8883529 9
-1.1663244 0.97518575 1.9770867 16
2.8847852 0.89583969 1.9430929 10.5
-1.1775701 1.0667173 1.9500364 17
2.7981341 1.0790865 1.9559059 12
2.8336606 1.2130826 1.9744864 13.5
3.7941988 1.2630523 1.8910967 12
4.0119934 1.251578 1.819623 11
2.7425365 1.4681191 1.9704794 16
2.8172271 1.4117447 1.962025 15
3.736342 1.5161501 1.9119822 13.5
3.664196 1.7363391 1.9294677 15.5
3.5527647 1.934886 1.9927515 17
3.5197563 2.1393716 1.9738345 18
3.4989636 2.2742763 1.9663601 19
3.3910532 2.4240558 1.9019237 21
3.4471488 2.4243419 1.956375 20
-0.9707917 0.080118358 2.1919668 3
2.7091014 0.0057571195 2.0805411 1
-1.0727267 0.27193439 2.1339993 6.25
-1.1052094 0.70827168 2.185075 11.75
-1.1336666 0.91834146 2.0740056 14.5
2.6605983 1.2886963 2.0113225 15
2.342339 1.4522012 2.1387732 17
2.2692029 1.7178025 2.1290982 18.5
2.0803733 1.9555391 2.1518421 21.5
1.9596043 2.118356 2.1881852 23
-0.97345662 0.13843164 2.210284 4.5
1.856019 0.084609292 2.2384672 3.3333333
2.0692952 0.0002098605 2.2831137 1
2.3399284 0.011482108 2.2463279 1
1.8937663 0.296399 2.2785373 5.5
2.1470273 0.25298914 2.3111634 5
-1.097138 0.4951421 2.2630925 9
1.7099769 0.55905914 2.3118889 9
2.1259735 0.50761974 2.2979007 7.5
1.7193166 0.66531646 2.3257113 10
1.8603786 0.8679716 2.368052 11.5
1.8812956 1.504697 2.3885314 18
2.1631885 1.53328 2.2219915 17
2.0177238 1.8478301 2.2385666 20
1.5812322 2.0366404 2.3687184 23
1.7575161 2.1420302 2.2708855 23
1.678182 0.99926943 2.427407 13
1.6927724 1.133655 2.4495826 14.5
1.6806589 1.3086356 2.4592173 16
1.7045521 1.5013545 2.440279 18
1.7041925 1.7735001 2.4071958 20
-1.1892723 2.0839074 2.5707502 23
-1.1982778 1.2750692 2.7229171 15.5
-1.1491699 1.4332628 2.7868078 17
-1.2084383 1.8810506 2.6146216 21.5
-1.103196 1.1155844 2.9772656 13.5
-1.0862428 0.68211669 3.1011038 9
-1.0855659 0.95033431 3.055438 11.5
-1.0106578 1.3530234 3.1004107 15
-0.97709507 1.4683547 3.1030862 16.5
-0.94381732 0.18504 3.3510592 4
-0.98427582 0.35416016 3.3269207 5.5
-0.91981626 0.94979924 3.256314 11
-0.90390182 1.067657 3.2808602 12.5
-0.88543117 1.3076526 3.2926285 14.5
-0.8988452 0.2977885 3.4341111 5.5
-0.88188404 0.51415592 3.431978 7
-0.8516593 0.70913923 3.4624996 8.5
-0.86449754 0.83290958 3.4074218 10
1.861423 1.0161946 3.5433738 11
1.8584563 1.2608612 3.5366073 12
1.9942791 1.5844411 4.0538344 13
1.9773732 1.7106879 4.0436306 14
1.9766005 1.8929189 4.0435147 15
-0.69194472 2.3523996 4.1289091 19
0.089485079 2.3526249 4.0881844 20
-0.69915617 2.1554613 4.2771859 17.5
0.16432595 2.2727771 4.2529373 18.5
