# .PCD v0.7 - Point Cloud Data file format
VERSION 0.7
FIELDS x y z intensity
SIZE 4 4 4 4
TYPE F F F F
COUNT 1 1 1 1
WIDTH 1166
HEIGHT 1
VIEWPOINT 0 0 0 1 0 0 0
POINTS 1166
DATA ascii
-1.7366524 2.4799237 -3.7245202 20.01
-1.960336 2.5016737 -3.4055352 21.011999
-1.3001736 2.5212572 -3.35007 23.008499
11.556117 1.9244952 -3.0846961 8.1140003
11.435943 1.988225 -2.8027952 8.1134996
10.179478 2.002733 -2.7130864 9.1140003
9.3360929 2.0848842 -2.6938739 9.1145
11.570526 1.9624941 -2.5368974 8.1129999
8.6068926 2.1451592 -2.5071929 10.1145
9.6580591 2.0679607 -2.3584752 9.1134996
8.6957884 2.1027126 -2.3239958 10.114
7.1572556 2.2102437 -2.2284615 12.115
8.8739729 2.0884457 -2.1607571 10.1135
9.7428894 2.0432625 -2.1502445 9.1129999
10.834825 2.0352845 -2.1501687 8.1125002
7.2344637 2.1714478 -2.1073225 12.1145
9.0912628 2.0905018 -2.0151615 10.113
10.481756 2.0123322 -2.0449929 9.1125002
11.279266 1.9709435 -1.9511558 8.1120005
7.3896551 2.1455662 -1.9630322 11.114
6.252758 2.2327149 -1.9609867 13.115
10.499211 2.0425494 -1.8420907 9.1120005
7.5845799 2.1370039 -1.8354876 11.1135
5.4867969 2.2564745 -1.8546193 15.1155
6.265604 2.2004857 -1.812719 13.1145
0.59791857 1.2911034 -1.7481145 22.136499
5.4739814 2.1202779 -1.7113292 14.115
7.810967 2.1565104 -1.733549 11.113
9.0801105 2.13027 -1.7908942 10.1125
5.5510249 2.2570825 -1.7500764 15.115
5.0232878 2.3325071 -1.7038064 16.115499
0.65746337 1.2399296 -1.6581035 22.385376
0.64191222 1.300043 -1.6444424 23.1355
5.5380955 2.1323955 -1.6162797 14.1145
6.3403993 2.1959493 -1.6822053 13.114
5.585897 2.2439449 -1.6069461 15.1145
4.9543996 2.4283209 -1.6637434 17.115499
0.75768715 0.99644959 -1.532585 20.133499
0.74042064 1.0447675 -1.5861342 20.134001
0.74888808 1.1369598 -1.559309 21.633751
19.37858 1.1076802 -1.5787086 4
0.73749 1.2627726 -1.5306301 23.133751
10.169375 2.0635698 -1.5521487 9.1114998
6.4328732 2.1932147 -1.5650184 13.1135
7.9065056 2.1194363 -1.5713751 11.1125
8.9251518 2.1378877 -1.5547235 10.112
5.6260142 2.2429802 -1.5035449 14.114
6.2439818 2.272311 -1.5084087 14.1135
3.9314547 2.3332818 -1.5153686 19.116501
4.9205508 2.3791828 -1.5521346 17.115
5.0688229 2.3065126 -1.5855435 16.115
5.1418934 2.3063841 -1.5013388 16.1145
0.77183366 0.98347789 -1.4848007 20.132999
19.439449 1.075272 -1.4172258 4
0.77988249 1.1738219 -1.4118385 23.1325
0.7744028 1.2344229 -1.4900477 23.132999
19.47683 1.5936707 -1.4001073 5
6.545732 2.1910331 -1.4387835 13.113
8.0250893 2.1016612 -1.410446 11.112
4.3798828 2.2953515 -1.4864514 18.115499
3.871001 2.3935382 -1.4063635 20.115999
3.9709625 2.330117 -1.4371005 19.115999
4.9374084 2.3900712 -1.4341388 17.1145
3.7170608 2.4355416 -1.441507 20.616501
-1.9526446 0.567527 -1.3166463 10.0225
0.75720149 0.81704873 -1.3048683 19.132
0.81294781 1.1597996 -1.3652005 23.13175
19.53451 1.6280737 -1.3419311 5
6.9722805 2.1881332 -1.3808086 12.1125
8.7182493 2.1325345 -1.3193976 10.1115
5.214395 2.2995608 -1.3973566 16.114
6.1316724 2.264822 -1.3377066 14.113
4.0252514 2.3307269 -1.3562481 19.115499
3.6814709 2.4689381 -1.332787 21.115999
3.8579865 2.4091318 -1.3053447 20.115499
-1.9731487 0.0993466 -1.227221 3.75
-1.9720391 0.10216337 -1.2495294 4
-1.9765011 0.32547951 -1.2280848 7
-1.9559549 0.40822515 -1.2542763 8.0229998
-1.9534135 0.56447393 -1.2211823 10.25
-1.9224544 0.63005114 -1.2902167 11.0225
-1.9311461 0.76096308 -1.2613955 13.02275
-1.8934962 0.88794726 -1.2073687 15.023
0.78370923 0.84248263 -1.2287047 20.131001
0.78770643 0.96799147 -1.2945347 21.1315
19.636713 1.6662824 -1.2863307 5
2.4931748 2.0041423 -1.2277832 23.1185
9.9247818 2.0973086 -1.2898501 9.1110001
6.5734701 2.1562946 -1.2920568 13.1125
6.9570532 2.1983948 -1.2178266 12.112
8.3020706 2.1299388 -1.2697264 11.1115
5.3067555 2.2950683 -1.2783828 15.1135
6.0765333 2.2631845 -1.2048154 14.1125
4.0645471 2.3218851 -1.2837137 19.115
4.1553826 2.3022389 -1.2994918 18.115
4.3027372 2.3183606 -1.2403501 18.1145
4.6745377 2.3258533 -1.2537941 17.114
5.3109016 2.303416 -1.2972575 16.113501
3.1238821 2.4360771 -1.2841382 23.117001
3.2626281 2.4488204 -1.2600577 22.116501
3.3232403 2.4599092 -1.211185 22.115999
3.8381047 2.4185519 -1.2109506 20.115
5.0355735 2.4238079 -1.2330031 17.113501
-1.9579195 0.00091841817 -1.1682396 2
-1.9736742 0.29213104 -1.161521 6.5
1.7334065 0.45361751 -1.1047255 10.121
-1.9630654 0.52652609 -1.1174974 9.7620001
-1.9714842 0.6312778 -1.1492543 11.024
-1.9448695 0.71609712 -1.1880003 12.5
0.75353497 0.76474166 -1.1762959 18.631001
0.77988088 0.87096822 -1.168869 21.130501
-1.9300994 0.91425484 -1.1422234 15
0.7889691 0.90584743 -1.1222072 22.129999
-1.9163259 1.063536 -1.1404637 17.02375
-1.8230287 1.3265586 -1.1125027 21.0235
10.530663 1.9460609 -1.1346953 8.1105003
10.166352 2.0192585 -1.1063249 9.1105003
6.7267766 2.1801207 -1.1892121 13.112
8.6116457 2.1436083 -1.1216564 10.111
5.2166939 2.2856197 -1.1471295 16.113001
5.3712025 2.2925415 -1.18598 15.113
4.1242447 2.3110757 -1.1491221 19.11425
4.2376714 2.3310425 -1.1274132 18.114
3.0264049 2.4068813 -1.1706221 23.116501
3.113487 2.4288604 -1.131712 23.115999
3.3316474 2.4570007 -1.1310564 22.615499
3.810323 2.429939 -1.1031568 20.1145
-1.9617419 0.20880558 -1.0254401 5.4615383
0.68985808 0.20839858 -1.0349498 8.1304998
-1.9842031 0.36107841 -1.039876 8.0249996
1.8066998 0.46731424 -1.0916781 10.1205
1.7891667 0.54775262 -1.0863402 11.1205
-1.9388309 0.60458267 -1.0088224 11.119642
0.71965224 0.6370908 -1.0788703 17.130501
1.6219336 0.6259253 -1.0774915 13.1215
0.76881093 0.79367596 -1.0447707 20.129499
1.7374712 0.79289031 -1.0540421 14.5
1.6766951 0.87637901 -1.0517945 15.8105
1.7108232 0.85584855 -1.0402725 16
0.80807203 0.94122303 -1.0524365 23.129
1.5337608 0.99074399 -1.0691324 18.122
1.6402785 0.93967104 -1.042013 17.121
-1.9050337 1.0373112 -1.0974352 17
1.5027635 1.0594065 -1.047701 20.122
1.6197995 1.0705125 -1.0286453 19.121
-1.8825295 1.1374043 -1.0421013 18.0245
1.4139895 1.1302061 -1.0389259 21.122499
1.5868113 1.1593864 -1.008558 21.121
-1.8511317 1.2552054 -1.0546997 19.690834
1.3808529 1.2260466 -1.0105858 23.122499
-1.8368806 1.3376482 -1.0079479 21.0245
4.1816812 2.2968626 -1.0126057 19.113501
4.2881598 2.286504 -1.0483603 18.113501
4.7687988 2.291966 -1.0542495 17.113001
5.2108622 2.2729766 -1.0255507 16.112499
5.4255166 2.2799582 -1.0719378 15.1125
6.0326533 2.275419 -1.0572582 14.112
6.8733568 2.2001288 -1.046368 12.1115
3.3889983 2.4261029 -1.0611004 22.115
3.7990553 2.446413 -1.0154173 21.114
0.69659275 0.20267957 -0.9474386 8.1295004
0.71782053 0.32682666 -0.92613435 11.5289
0.72082651 0.47907287 -0.94022822 15.129
-0.32693583 0.54446769 -0.96744382 19.0075
0.72653979 0.55294865 -0.95952839 16.4625
-1.9391142 0.68181258 -0.9215706 12.5
-1.9642922 0.78732795 -0.97181731 14.0255
0.75897819 0.75109363 -0.90630859 21.128
-1.9466391 0.89910066 -0.96360356 15.0255
0.78500682 0.84625399 -0.97563493 22.1285
-1.911159 0.97596228 -0.95576501 16.262749
-1.8309104 1.3337089 -0.95974195 21.025
-1.8244295 1.4300907 -0.95234317 22.025
10.752301 1.9302402 -0.91661167 8.1099997
8.5686159 2.1278167 -0.92333639 10.1105
4.2479081 2.295254 -0.92909676 18.113001
4.8678651 2.2993817 -0.9550972 17.112499
5.4792204 2.2679126 -0.95637888 15.112
5.9457302 2.2566223 -0.90623701 14.1115
3.1470475 2.3968742 -0.99256319 23.115
4.1309137 2.3516083 -0.91830319 19.113001
3.2036231 2.4036837 -0.93257862 23.1145
3.4510255 2.4294937 -0.9968102 22.1145
3.5471916 2.4542701 -0.95169955 22.114
3.7688968 2.4550414 -0.9181329 21.113501
0.7415415 0.25822309 -0.80877793 10.127
0.73623365 0.35431191 -0.8494305 12.460999
0.72008121 0.46249378 -0.89423817 15.1285
-1.9151928 0.58441103 -0.83152288 11.26325
0.74889177 0.53734559 -0.84122032 17.127335
0.8453536 0.51576108 -0.80914289 16.1255
-1.9316132 0.68314165 -0.85338306 13.0265
0.75644684 0.66751897 -0.82724935 20.127001
0.76733452 0.74738407 -0.84917533 21.793833
0.82349759 0.74975485 -0.82145005 21.125999
0.80864054 0.88410252 -0.88032669 23.127001
-1.9332961 0.91340607 -0.87211084 15.76325
-1.9154236 1.0520716 -0.85605299 17.51325
-1.8855441 1.1010571 -0.83588785 19.026501
-1.8802843 1.2469628 -0.86144477 20.008833
-1.8353331 1.361083 -0.83195931 22.026249
10.092501 2.0170183 -0.87143916 9.1099997
4.281209 2.2911339 -0.85116994 18.112499
5.5488582 2.2629356 -0.84174681 15.1115
4.0676451 2.3640213 -0.80981028 19.112499
4.9412928 2.3130593 -0.86800545 16.612
3.2897663 2.4636819 -0.88084102 23.114
3.3640862 2.4435568 -0.81321657 23.113501
3.5896509 2.4409902 -0.87800497 22.113501
3.6875877 2.4605112 -0.81547987 21.113001
-1.9666202 0.0039910004 -0.73363113 2
0.75079179 0.22058919 -0.78590786 9.1265001
0.7520951 0.37347808 -0.78249896 13.793167
0.74850774 0.45711401 -0.782556 15.626499
0.82829058 0.42620152 -0.79371351 14.1255
0.77324474 0.51272857 -0.78900886 16.626249
0.75681466 0.64503598 -0.79155648 20.126499
-1.8982221 0.76523143 -0.79948705 14
-1.9135351 0.94317508 -0.77150989 16.52725
-1.8978283 0.97010386 -0.78649908 17.027
-1.9120065 1.0811566 -0.79346716 18.027
-1.897024 1.0809443 -0.74447203 18.0275
-1.9090514 1.1150496 -0.79157972 19.027
-1.8882849 1.1691699 -0.76128346 20.02725
-1.8721278 1.2769299 -0.75252712 21.01375
-1.8227688 1.4272485 -0.76042104 23.027
6.5897775 2.184269 -0.70542234 13.1105
8.6789513 2.1286747 -0.74065834 10.11
4.3137069 2.2685566 -0.75121498 18.112
5.6105757 2.2554426 -0.72377485 15.111
5.9573512 2.2595239 -0.77845079 14.111
4.0130296 2.3771923 -0.70659417 20.112
4.2235866 2.3307407 -0.73477817 19.112
4.9378529 2.323854 -0.75060111 17.1115
5.0453939 2.3078139 -0.77512616 16.1115
3.4261067 2.4490619 -0.75936258 22.113001
3.7287152 2.438607 -0.73185164 21.112499
-1.9580543 0.18286262 -0.60258347 5.3125
-1.9298261 0.64834827 -0.60956275 12.6
-1.8752823 0.95348263 -0.63488442 17.342667
-1.8777349 1.0354531 -0.66459262 18.52825
-1.8972074 1.1662275 -0.69200099 20.028
-1.8677098 1.2408643 -0.66049558 21.02825
-1.8205227 1.4253265 -0.61985433 23.0285
10.085345 2.0204308 -0.64499527 9.1094999
4.3685164 2.2630465 -0.66097558 18.1115
5.2611918 2.2904232 -0.69377506 16.111
5.6671147 2.2523701 -0.62141585 15.1105
5.9350848 2.2300396 -0.64231747 14.1105
3.1536727 2.3852596 -0.62338763 23.112499
3.4144857 2.3974524 -0.66622096 22.112499
4.1354337 2.3291924 -0.62511843 19.1115
4.9406428 2.3180959 -0.63897985 17.111
3.1818371 2.4046485 -0.6976769 23.113001
3.4970136 2.4217212 -0.61333531 22.112
3.7586319 2.4207861 -0.66358227 21.112
-1.9639776 0.34496096 -0.56703556 7.51475
-1.9686505 0.43046916 -0.55448085 9.0297499
-1.9253908 0.63907027 -0.51935345 12.53
-1.87771 0.94280797 -0.54963964 17.181818
-1.8512843 1.0730884 -0.56737095 19.2645
-1.8583832 1.2844533 -0.58876568 22.028999
-1.8311174 1.3676833 -0.5827682 23.028999
8.9341536 2.1207242 -0.57400972 10.1095
4.4339147 2.2638249 -0.57743388 18.111
5.224607 2.2928476 -0.57167399 16.1105
5.957448 2.2179835 -0.5116415 14.11
4.0971289 2.3475189 -0.53971916 19.111
3.248451 2.4147303 -0.57012039 23.112
3.5610778 2.4283602 -0.5432089 22.1115
3.8640995 2.4247789 -0.54987258 21.11125
3.9256668 2.4212782 -0.51255512 20.111
-1.9475604 0.033318877 -0.46057731 2.5
-1.9275273 0.43614501 -0.41201419 10
-1.8163859 1.3685962 -0.49341473 23.030001
11.297001 1.9033346 -0.49327207 8.1090002
6.4314227 2.1969883 -0.41083089 13.1095
7.2467699 2.1254501 -0.47279754 12.1095
4.3048949 2.2988503 -0.47142148 18.1105
4.6162882 2.2907398 -0.49492779 17.1105
5.7042265 2.2313995 -0.48816505 15.11
3.1462934 2.369694 -0.48015499 23.1115
3.9242017 2.3979414 -0.42556173 20.1105
5.0398793 2.3483512 -0.44117847 17.110001
5.2111678 2.3155212 -0.45378768 16.110001
3.2907555 2.4027331 -0.43038139 23.111
3.5564401 2.4421613 -0.46863544 22.111
3.9027686 2.4468403 -0.42783749 21.1105
-1.9182951 0.12143762 -0.30474097 4
-1.9472009 0.3996017 -0.38877472 9.0314999
-1.9298292 0.41117561 -0.30107149 9
-1.9228499 0.6290707 -0.34374189 13.032
-1.9011755 0.72023857 -0.33935824 14.032
-1.8659093 0.83356696 -0.37532157 16
-1.8427851 1.0894654 -0.35937265 20
-1.823037 1.1692326 -0.34355846 20.53175
-1.7898824 1.2727263 -0.35921413 22.5315
9.9673309 2.011106 -0.39903122 9.1090002
8.7774172 2.1250186 -0.37151095 10.109
4.3167496 2.2875099 -0.37554517 18.110001
5.738008 2.220475 -0.36264133 15.1095
3.2346535 2.3573089 -0.35543433 23.1105
3.9804244 2.3932726 -0.34228614 20.110001
5.1412282 2.3239355 -0.33329642 16.109501
3.4870763 2.4315028 -0.33625293 22.11025
3.8342407 2.448719 -0.33426964 21.110001
-1.9276333 0.29235759 -0.2521739 7
-1.8976052 0.20951034 -0.22735007 6
-1.9227399 0.43329597 -0.22953084 9.3666658
-1.9034442 0.57082868 -0.21292549 12.0335
-1.892257 0.65787989 -0.23263986 13.51675
-1.862955 0.9978025 -0.20301473 18.5
-1.8698515 1.09224 -0.25012636 20.033001
-1.8145248 1.1988168 -0.24195829 21.033001
-1.8011036 1.2246118 -0.29490295 22
-1.7736561 1.2953469 -0.28580242 23
11.612155 1.889153 -0.24784936 8.1084995
10.382519 1.9753054 -0.23010643 9.1084995
4.6061187 2.2474289 -0.29674608 17.109501
5.3410139 2.2538769 -0.22038449 16.108999
5.4097104 2.2675123 -0.22786938 15.109
5.7551122 2.2045567 -0.2536194 14.109
6.3538146 2.212244 -0.26430145 13.109
4.0140948 2.3843305 -0.25540251 20.109501
5.0177894 2.3179097 -0.21396895 17.108999
3.7849238 2.4627159 -0.24534416 21.109501
-1.8786432 0.30480686 -0.16814047 8.0340004
-1.8868835 0.42044091 -0.1704677 10.034
-1.8887713 0.57705468 -0.15021317 12.53425
-1.9026961 0.61255878 -0.19244374 12.4
-1.8922197 0.66935802 -0.1693472 13.534
-1.8393433 1.1379483 -0.16769265 20.534
-1.7971821 1.2489238 -0.14457579 22.4
-1.7728474 1.3156381 -0.17811464 23.033751
7.6918721 2.1712577 -0.16433427 11.1085
8.8191338 2.1262224 -0.17720734 10.1085
4.357934 2.2727697 -0.18395762 18.108999
5.3183751 2.2671154 -0.11227892 16.1085
5.4129863 2.2626069 -0.12005576 15.1085
3.9915357 2.3729353 -0.17312554 20.108999
3.37289 2.4007699 -0.14752325 23.108999
-1.8392676 0.31644762 -0.085438356 8.0349998
-1.860811 0.46604419 -0.024236616 10.535749
-1.8826579 0.59227043 -0.086058043 12.035
-1.871139 0.65044791 -0.04703017 13.0355
-1.8738384 0.73055232 -0.084127158 15.035
-1.8483748 0.95580715 -0.084185243 18.5175
-1.8311106 1.1184796 -0.080734499 20.035
-1.8106149 1.2012128 -0.083542891 22.035
-1.7836988 1.2758714 -0.080126606 23.035
4.3748188 2.2629561 -0.087032095 18.1085
4.8049183 2.2699077 -0.095280617 17.1085
6.1682849 2.2113481 -0.0019151266 14.108
3.8734589 2.3992307 -0.075444289 21.1085
3.9056015 2.3856041 -0.0015840656 20.108
4.0707803 2.3566809 -0.039473984 19.60825
-1.8478283 0.15153824 0.004164034 5
-1.8387773 0.28342026 0.044303469 7.5184999
-1.8630236 0.33976987 0.016935172 8.0362501
-1.8357903 0.47653133 0.082716614 10.5
-1.8446417 0.52766609 0.035552446 11.5365
-1.8684821 0.72067046 0.045028724 14.268499
-1.8336989 0.83268011 0.078714281 16.037001
-1.8684822 1.0223765 0.038024534 19.036501
-1.816331 1.1521803 0.032460794 21.036501
-1.7769073 1.1838176 0.075558372 22.037001
-1.7998116 1.222527 0.036465701 22.036501
9.7181234 1.9920442 0.01296895 9.1079998
7.6667271 2.1134374 0.013070617 11.108
8.7912769 2.1122143 0.018619955 10.108
4.4019566 2.2550445 0.0035783672 18.108
4.8792777 2.2629015 0.011835823 17.108
5.0907249 2.2001088 0.0083463527 16.108
5.490263 2.2640033 0.00035829702 15.108
3.9506185 2.3762176 0.092585109 20.1075
4.1181998 2.336154 0.091622062 19.1075
3.4335017 2.4856448 0.039184909 23.10775
3.8403292 2.4885783 0.0030046287 21.108
-1.7373389 0.057218768 0.14587729 3.5
-1.769785 0.16882972 0.15430304 5.4117646
-1.7892729 0.3305099 0.13126537 8.5188751
-1.7692795 0.46460027 0.19198863 10.5385
-1.8117912 0.59842163 0.16485006 12.789474
-1.7956249 0.52600074 0.19164126 12.0385
-1.7798958 0.65905702 0.19054888 14.0385
-1.8327788 0.73075318 0.13534023 15.03775
-1.795429 0.72771317 0.18968566 15.0385
-1.8071795 0.8253873 0.19598645 16.0385
-1.7940731 0.88573289 0.19534662 17.0385
-1.8150674 1.0322006 0.15325333 19.538
-1.7816157 1.0518872 0.19354199 20.0385
-1.7874625 1.1670754 0.11589348 21.0375
-1.7525897 1.2572774 0.15803263 22.769001
7.8214426 2.1103342 0.18767308 11.1075
4.4075699 2.2457907 0.10187056 18.1075
4.9487381 2.2810252 0.11385479 17.1075
5.1974821 2.2313747 0.12642455 16.1075
5.521235 2.2475071 0.12316968 15.1075
6.0435047 2.2051528 0.1516148 14.1075
4.0239682 2.3878212 0.18394695 20.107
4.1254997 2.3171663 0.18364127 19.107
3.522866 2.5085688 0.15803845 23.107
-1.7533547 0.33008417 0.22279173 8.0194998
-1.5292692 0.42229232 0.28374106 11.04025
-1.7945225 0.63856417 0.23023191 13.539
-1.798407 0.71796989 0.23087528 15
-1.7974446 0.98373049 0.21641564 18.910805
-1.771924 1.1010001 0.22573967 21.039
-1.746646 1.2360206 0.24587904 22.539249
10.56367 1.9332463 0.23721416 8.1075001
9.7335396 2.0033944 0.22975475 9.1075001
6.3078675 2.1917586 0.28749391 13.107
8.7804976 2.103214 0.21364658 10.1075
4.4682508 2.2603934 0.20303009 18.107
5.1004782 2.2897451 0.23144087 16.107
5.5680313 2.2380097 0.24819031 15.107
5.9436116 2.2022629 0.27189258 14.107
4.0416932 2.359797 0.27496517 20.106501
4.1561308 2.311873 0.2777333 19.106501
4.9666905 2.3135717 0.22065079 17.107
3.4980583 2.5344055 0.23494478 23.106501
-1.7089194 0.17130688 0.36504433 6
-1.6174085 0.34759143 0.35680345 9.0410004
-1.5449566 0.36673972 0.30387884 9.5404997
-1.7432697 0.73578364 0.36592922 15.52025
-1.6669399 0.71727926 0.3300246 16.040501
-1.8016354 0.92712492 0.31219378 18.040001
-1.7735637 1.0332637 0.33340415 19.373667
-1.7310833 1.2270772 0.32848218 22.373667
7.7353635 2.1655602 0.33885181 11.107
8.8298845 2.101831 0.39717802 10.107
4.452765 2.2895894 0.30051512 18.106501
4.9293327 2.290364 0.32965094 17.106501
5.1515789 2.2772288 0.34876376 16.106501
5.5813475 2.2259283 0.36439359 15.1065
3.1512783 2.3651006 0.35284796 23.105499
4.0539818 2.3455143 0.35357234 20.106001
4.17946 2.311799 0.37281778 19.106001
3.4640326 2.4437933 0.34171033 22.605751
-1.7061417 0.3034085 0.48793644 8.0212498
-1.692984 0.38606173 0.48539382 9.0424995
-1.7258222 0.46958101 0.47026801 10.85425
-1.7402309 0.55815959 0.44416189 12.54175
-1.7504177 0.66059029 0.44504347 14.04175
-1.759286 0.75466084 0.45135862 15.7085
-1.7523917 0.85815287 0.4235689 17.5415
-1.7411019 1.1410729 0.46008655 21.042
-1.687788 1.2702487 0.46990746 23.04225
6.3834982 2.1871681 0.43269154 13.1065
4.1733599 2.2928777 0.46602827 19.105499
5.2183547 2.2718351 0.47013414 16.106001
5.6582351 2.2343621 0.49599993 15.106
5.8859072 2.2149398 0.40046734 14.1065
3.2819719 2.4012494 0.43751895 23.105
-1.6591245 0.17141035 0.58807313 5.727273
-1.5694058 0.3033326 0.52824241 8.0434999
-1.4676121 0.36479783 0.52349526 9.8479996
-1.525371 0.49383503 0.5164637 12.0435
-1.4962761 0.49683923 0.5437665 12.044
-1.7132241 0.59965527 0.59569484 12.777778
-1.5045235 0.50485283 0.50746614 13.0435
-1.455231 0.5014106 0.52556574 13.044
-1.5835223 0.67247069 0.55261314 15.04375
-1.5307355 0.73398656 0.51516908 16.043501
-1.6840008 0.8602258 0.54958034 17.043251
-1.725153 0.96896714 0.54145336 19.042999
-1.7136397 1.0027884 0.58439457 19
-1.7207434 1.1614927 0.51849061 21.042749
-1.6881036 1.1726747 0.56959897 22.043501
-1.6729786 1.2952986 0.52144945 23.042999
-1.6696463 1.3118063 0.56144381 23.043501
6.4063039 2.1601918 0.57691538 13.106
7.4781628 2.1604342 0.50620186 12.1065
8.0808659 2.1024768 0.52905172 11.1065
4.1599679 2.2757928 0.56467313 19
5.2428751 2.2491751 0.5902071 16.105499
5.8053794 2.2140787 0.50622171 14.106
-1.6578636 0.24344358 0.65290636 7
-1.7026738 0.60306495 0.69897431 13.045
-1.6692207 0.85799682 0.6450398 17.0445
-1.6832857 1.0960127 0.60887992 20.044001
-1.6804818 1.1896574 0.60921526 22.044001
-1.6522748 1.2599553 0.60934579 22.666666
6.0478883 2.1771672 0.6689744 14.1055
4.1184015 2.299475 0.62013435 19.333334
4.5580306 2.2476606 0.60244334 17.105
5.2728548 2.2429101 0.69565666 16.105
5.7027855 2.2166216 0.6435473 15.1055
3.4680815 2.3920901 0.65087235 22.10375
4.0443168 2.3531122 0.61142689 20
-1.6468627 0.15602712 0.77969933 5
-1.6597129 0.33708629 0.74147081 8.3789997
-1.6468829 0.42723042 0.74112624 10.04575
-1.6871556 0.57600504 0.71787983 12.04525
-1.6884212 0.64736372 0.76005238 13.04575
-1.6891625 0.83827651 0.74096787 16.5455
-1.6825956 0.98453289 0.71607488 19.04525
-1.6739525 1.0058672 0.77942586 19.046
-1.6150925 1.1698755 0.79112947 21.046499
-1.5967879 1.2528183 0.78837603 22.773251
6.4532285 2.1519899 0.70478785 13.1055
4.167388 2.2693496 0.74258679 19.104
5.1700654 2.2587745 0.79487193 16.1045
5.6439662 2.2193916 0.74602097 15.105
3.8800614 2.3923914 0.78311443 20.1035
3.9540746 2.3731821 0.707394 20.104
3.5159822 2.4046822 0.78165454 22.103001
-1.6538813 0.29898417 0.85557741 8.0469999
-1.6455746 0.34129924 0.86847961 8.2734375
-1.6570528 0.46685684 0.82925314 10.273251
-1.6621462 0.75835609 0.81597394 15.546499
-1.6064531 1.2330947 0.82270122 22
6.1316304 2.190912 0.81674773 14.105
6.5649257 2.1489449 0.86441308 13.105
4.1778822 2.2710731 0.83382267 19.1035
4.2194462 2.256089 0.84844738 18.1035
4.6616888 2.2683189 0.82907063 17.104
5.359519 2.2474694 0.83753508 15.1045
3.0473366 2.3272448 0.88982379 23.1015
3.7899241 2.3918464 0.84001505 21.103001
-1.6429309 0.40476507 0.90022767 9.0474997
-1.6335459 0.59024328 0.95523256 12.285714
-1.624009 0.97186214 0.92366314 18.222221
-1.613976 1.0534606 0.9279483 19.548
-1.579214 1.1271951 0.90766358 21.048
-1.5189626 1.2656326 0.98086017 22.5
6.1251416 2.1795673 0.95505655 14.1045
6.8898005 2.1826663 0.93061048 12.105
4.1486521 2.2683222 0.92707825 18.603001
4.690187 2.2725987 0.93470579 17.1035
5.0971098 2.2498529 0.90009797 16.104
5.3864431 2.24103 0.9473139 15.104
6.3056045 2.209156 0.98654139 13.1045
3.6814861 2.4157622 0.99943441 21.101999
3.7436697 2.4238441 0.91711211 21.102501
-1.5996058 0.060453139 1.097404 3
-1.6061274 0.13021709 1.060213 4.6666665
-1.6088722 0.25931823 1.0524004 7
-1.6216893 0.66614079 1.0270603 13.049
-1.6036258 0.73673904 1.0138935 15.049
-1.5583192 1.0004283 1.0622481 18.384615
-1.51026 1.2574713 1.0044611 22.5495
-1.4839618 1.2750098 1.0524341 22.383499
-1.4745567 1.3125479 1.0734715 23.050501
5.7632375 2.1978569 1.0178442 14.104
4.1542134 2.2555289 1.0230924 18.102501
5.0749831 2.2736104 1.0214375 16.1035
5.4029818 2.2274969 1.0746722 15.1035
4.8850746 2.3054924 1.0874796 17.103001
3.5901618 2.4238958 1.0612258 21.1015
-1.5890143 0.18629262 1.1217625 5.5555553
-1.5624434 0.38233906 1.1429974 9.0504999
-1.5826705 0.61434621 1.1351277 12.5
-1.5230175 1.0296143 1.1607518 19.051001
-1.4879103 1.0879596 1.1398201 20.051001
-1.4493154 1.2689769 1.1132855 22.358833
4.1285725 2.2376592 1.157198 18.101749
4.8186488 2.2917666 1.1910692 17.102501
5.0195813 2.2177763 1.1237922 16.103001
5.6455183 2.2035143 1.1308154 14.1035
6.2108908 2.2062871 1.1105462 13.104
3.4341037 2.4564316 1.1654122 22.1005
3.6336432 2.4052031 1.1478218 21.101
-1.5464768 0.053118207 1.2740314 3.5
-1.5803636 0.37368834 1.2074523 8
-1.5222129 0.7299338 1.2174684 14.0515
-1.4178201 1.1592026 1.2492487 20.526249
-1.4105096 1.2026067 1.2587838 21
-1.4175525 1.3825583 1.2623048 23.05275
5.0451112 2.2401209 1.2487068 16.102501
5.4676847 2.2388415 1.2146106 15.103
5.6938796 2.2116735 1.2735405 14.103
3.6466806 2.3983159 1.2416116 21.1005
4.8170986 2.3070316 1.292552 17.101999
3.2251725 2.4187624 1.2639577 22.099501
-1.4342824 0.99227738 1.3526073 17.883642
-1.43929 1.0423068 1.3121012 19.052999
-1.4079579 1.1741093 1.3390093 20.053499
-1.3909827 1.2913464 1.3823483 21.554001
5.5871406 1.272658 1.3791603 10.1025
-1.3838228 1.4332711 1.3519615 23.053749
5.6223874 1.6603593 1.3732054 12.1025
5.5496812 1.9541073 1.3979136 13
5.5506887 2.043108 1.3782609 13.55125
4.1276283 2.231674 1.3067684 18.101
4.5956016 2.280457 1.3498197 17.1015
5.0335846 2.2458997 1.3488352 16.101999
5.4639587 2.2271881 1.3508813 15.05125
3.0438347 2.3968062 1.3409464 23.098499
3.6703517 2.3951735 1.3413012 20.1
3.1472702 2.4142904 1.3034292 23.099001
-1.4843394 0.18830697 1.4258497 5.3684211
-1.4539714 0.45825258 1.4998944 9
-1.4591633 0.62520182 1.4271275 12.136364
5.3414364 0.97531003 1.4299326 8.1020002
-1.3716537 1.0903935 1.431488 19.054501
-1.3683654 1.1145926 1.471037 19
5.3505449 1.2106538 1.4479457 9.1020002
-1.3580421 1.3073164 1.4687349 21.584833
5.4087648 1.650318 1.4487599 12.102
5.4689112 1.9557344 1.4240831 13.5
5.4291258 2.0948524 1.4626487 14.102
5.3830481 2.1894972 1.4498549 15.102
5.4590354 2.1684821 1.4029466 14.666667
2.6611433 2.2631128 1.4585414 23.0965
4.11623 2.2270842 1.456171 18.10025
5.0563021 2.2742131 1.4769744 16.1015
2.8594835 2.3683133 1.415338 23.0975
3.1331103 2.3577759 1.4658577 22.098
3.6609192 2.3762004 1.4307379 20.099501
-1.4417819 0.050346404 1.5342351 3
4.502553 0.13221948 1.5536034 3.5
4.4754295 0.20153587 1.5730284 4
4.4779024 0.34486002 1.551672 5
-1.348483 0.97130823 1.5517269 17
4.540596 1.0001043 1.5528688 9.1005001
4.3861609 1.2076179 1.5988576 11.1
4.5734296 1.2207209 1.5689274 11.1005
5.1097598 1.2772377 1.5023128 10.1015
4.9253678 1.6138016 1.5562097 12.101
4.9292231 1.7113589 1.5657905 13.101
5.182538 1.7785933 1.5106413 13.1015
3.9794564 2.2984982 1.5562803 19.099501
4.2726588 2.2467306 1.5651678 17.1
4.8064075 2.2746406 1.5132519 16.101
5.2007899 2.2505116 1.5258454 15.1015
3.1410484 2.3594463 1.5624609 22.0975
3.6659839 2.3715978 1.5273604 20.099001
-1.3420323 0.067606784 1.6696639 3.5
4.4007993 0.22665714 1.6227667 3.5
-1.2964725 0.55151379 1.6968633 10.5
-1.3069327 0.65965188 1.6659564 12.5
-1.3519528 0.90189004 1.6011689 16.056
4.4131064 0.90190578 1.6051699 9.1000004
-1.2909099 1.1157722 1.6970178 18.333334
-1.2674663 1.2985706 1.6827649 20.5
-1.2878346 1.3308659 1.634654 21.153374
-1.2695093 1.4581008 1.6371007 22.528625
4.3032656 1.4678924 1.6424943 12.5
4.4063354 1.4801373 1.6115088 12.1
4.412291 1.5370136 1.6114814 13.1
4.2636771 1.6137146 1.6462247 14
4.1420145 1.7939438 1.6889962 14.833333
4.144289 1.9030123 1.6798275 15.5
4.7496157 1.9812185 1.6107839 15.1005
2.6857221 2.294415 1.6434588 23.095501
3.9316616 2.2906382 1.634442 19.099001
4.1028352 2.2180552 1.6563338 18.099251
4.2624407 2.2509274 1.6677841 17.099501
4.7672672 2.2497303 1.6186018 16.1005
3.6717496 2.372685 1.6263254 20.098499
3.3787458 0.077311441 1.7628592 3
-1.3355101 0.17066722 1.7500231 4.8666668
4.1702242 0.15673275 1.7465502 3.5
3.3999498 0.23925027 1.7703687 4
4.2545838 0.22940035 1.7008725 4.1666665
-1.2964979 0.31031972 1.7510351 7
4.1768799 0.31879929 1.7540058 5
-1.2596253 0.46644944 1.7902063 9.0579996
3.9791856 0.56280994 1.7949795 7
-1.3017564 0.64135373 1.770469 12.0575
-1.2949017 0.76426888 1.7559826 13.0575
4.2157006 0.7563771 1.7506138 8.099
-1.3086717 0.88127786 1.7651494 14.5
4.0902157 0.81928194 1.7997237 8.0985003
4.1589017 0.86795509 1.7808269 8.5
-1.3191105 0.91406518 1.7165837 15.556999
-1.2714049 0.99115771 1.7784325 16.299999
4.203723 0.90563494 1.751514 9.099
-1.263731 1.110657 1.7549335 18.057751
-1.2579013 1.2735895 1.7464383 20.057751
4.1382241 1.379492 1.7452273 12
4.0507035 2.1384861 1.7274723 17.5
2.5158601 2.2847488 1.767131 23.094
3.7907379 2.2196989 1.7984105 18.333334
3.1847906 2.3910499 1.7529784 22.0965
3.7253573 2.3553262 1.7156281 20
3.0189726 0.049631335 1.8465053 3
3.3156121 0.010427956 1.827695 1
3.0539992 0.27731997 1.8582444 5
3.3638201 0.21266778 1.8073901 4
-1.2673663 0.47200814 1.8932679 9
-1.293233 0.5025869 1.841647 10.058
-1.2803555 0.60986096 1.8193344 11.166667
3.2185168 0.69731456 1.8723179 8.0959997
3.0342879 0.7656123 1.8883529 9
3.9218881 0.76162165 1.8306613 8.0979996
4.0400133 0.75425428 1.802339 8
3.0667682 0.87300843 1.872702 10.0955
3.3498356 0.80494469 1.8422294 9.0965004
4.0408368 0.85859662 1.803652 8.666667
-1.2257353 1.1850206 1.8311528 19.0585
-1.2153465 1.2919362 1.8159727 20.0585
3.7941988 1.2630523 1.8910967 12
4.0119934 1.251578 1.819623 11
-1.1856738 1.3211139 1.8595695 20.059
3.7964935 1.4592201 1.8909091 13
3.8535309 1.4846454 1.8769065 13.25
3.8491728 1.8079575 1.8495575 15.545455
3.6516259 2.3561604 1.8051282 20.0975
-1.2585604 0.13293219 1.9366217 4
-1.2640123 0.27437258 1.938709 6
2.9737031 0.20759323 1.9097699 4.4000001
2.92943 0.46185273 1.9501691 7
2.936892 0.56276184 1.9393591 7.5
2.9196908 0.63699579 1.9233657 8
-1.2067301 0.73489875 1.9754919 13
-1.1999106 0.70808494 1.9757066 12
2.7948904 0.703107 1.9970925 9
2.8694899 0.89252257 1.9491708 10.5
-1.1765199 0.95544618 1.9646504 15.5
2.7677252 0.98537135 1.9819856 11.5
-1.2177671 1.0865227 1.9057505 17.059
-1.1775701 1.0667173 1.9500364 17
2.7981341 1.0790865 1.9559059 12
3.0092945 1.1543877 1.9166502 13.095
2.8336606 1.2130826 1.9744864 13.5
2.9136109 1.2775537 1.9460202 14.0945
3.1280818 1.2575228 1.9065845 13.0955
2.724689 1.3296585 1.9796318 14.666667
2.8198016 1.3394176 1.9777129 14.5
3.0296545 1.3242556 1.9342281 14.095
2.7425365 1.4681191 1.9704794 16
2.8374717 1.4126545 1.936491 15.04725
3.0369513 1.4790685 1.9432311 15.095
2.8408639 1.5770651 1.998015 16.094
2.9154241 1.5917895 1.9493296 16.0945
3.6761901 1.5730802 1.9330553 14
3.664196 1.7363391 1.9294677 15.5
3.4340255 1.8619784 1.9928472 17.096001
3.5640798 1.9367015 1.9848509 17
3.5197563 2.1393716 1.9738345 18
3.4694593 2.2576718 1.9788935 19.048
3.5674033 2.2724159 1.9189594 19
3.3910532 2.4240558 1.9019237 21
3.4306328 2.4233084 1.9483284 20.532
2.7091014 0.0057571195 2.0805411 1
2.8067949 0.16809063 2.0173979 4
-1.2161461 0.27968618 2.0194082 6
-1.2194872 0.4609209 2.0158587 8.5
2.8097026 0.57982409 2.0129058 7.6666665
-1.148838 0.88945162 2.0751164 14.0605
-1.1484696 0.94086617 2.0536025 14.8535
-1.1605458 1.0682465 2.0548072 16.560249
2.6605983 1.2886963 2.0113225 15
2.5610864 1.3449184 2.064822 15.142858
2.7411666 1.5321726 2.0205042 16.0935
2.3774867 1.702172 2.0975933 19.091499
2.4393044 1.7252462 2.0576713 19.091999
2.4581702 1.8899378 2.0696988 20.091999
2.7208154 1.8953172 2.0028121 19.0935
2.6369762 1.9054322 2.0329764 19.093
3.0080802 1.9461721 2.0214713 19.0945
2.4686165 2.0759239 2.071759 21.091999
2.7936573 2.0919721 2.0483308 20.0935
2.44048 2.114023 2.0549865 22.091999
2.7924483 2.1276877 2.0497475 21.0935
3.078789 2.1553471 2.0559475 20.0945
3.183104 2.1023638 2.0435994 19.094999
2.367053 2.3301756 2.0748339 23.091499
2.4766858 2.3663075 2.0886631 23.091999
2.5405014 2.3290889 2.0445368 23.092501
2.7489369 2.3638601 2.0666318 22.09325
3.0989819 2.3298106 2.0799096 21.0945
3.1371069 2.4452221 2.0113003 22.094999
3.2490785 2.4348595 2.0259857 21.095249
-0.9707917 0.080118358 2.1919668 3
2.5712409 0.19238037 2.1571736 4
-1.0297434 0.22415765 2.1541107 5.6538463
-1.1419303 0.31664249 2.1263041 6.5
-0.84752411 0.42576215 2.1696441 8.0635004
-1.1462573 0.57019943 2.1309972 10.090909
2.5958805 0.59777135 2.1391432 8.1538458
-1.0985364 0.67524338 2.199996 11
-1.1118823 0.74129999 2.1701541 12.5
2.5423815 0.98962682 2.1316426 11.866667
2.342339 1.4522012 2.1387732 17
2.3125095 1.6751473 2.1266181 19.091
2.1199124 1.7691691 2.1988552 19.444445
2.2692029 1.7178025 2.1290982 18.5
-1.3114573 1.8575587 2.1546609 23.0595
2.3235729 1.8161649 2.1275277 20.091
2.0803733 1.9555391 2.1518421 21.5
2.1391091 1.9240574 2.138958 21.09
2.2152076 1.9630044 2.1294291 21.0905
2.2005105 2.0782962 2.114059 22.0905
1.9596043 2.118356 2.1881852 23
2.0405607 2.2040391 2.1408107 23.0895
2.1519694 2.2596226 2.1535072 23.09
2.4108295 2.2344072 2.1240551 22.091499
2.2297871 2.3005919 2.1339967 23.0905
-0.56201291 0.031355638 2.2734296 3
1.856019 0.084609292 2.2384672 3.3333333
2.0692952 0.0002098605 2.2831137 1
2.3399284 0.011482108 2.2463279 1
-0.97345662 0.13843164 2.210284 4.5
1.8970693 0.16734891 2.26157 3.8
2.2079957 0.15953842 2.2690279 3.8
1.8937663 0.296399 2.2785373 5.5
-1.097138 0.4951421 2.2630925 9
2.1259735 0.50761974 2.2979007 7.5
2.2107108 0.61670554 2.2985671 8.5555553
2.2183862 1.0336711 2.2902873 12.6
2.2155788 1.3701963 2.2447557 15.833333
2.1631885 1.53328 2.2219915 17
2.0177238 1.8478301 2.2385666 20
-1.3027462 1.9311606 2.2558618 23.059999
1.807344 2.067878 2.2659953 22.6
1.7575161 2.1420302 2.2708855 23
2.1470273 0.25298914 2.3111634 5
-1.0951656 0.49789247 2.3317003 9.0620003
1.6807323 0.54813844 2.3029325 9.0865002
1.7099769 0.55905914 2.3118889 9
1.6183212 0.6459018 2.3226762 10.086
1.7193166 0.66531646 2.3257113 10
1.8392234 0.65884262 2.3292875 9.5714283
1.676049 0.75098717 2.3472826 10.58625
1.757184 0.74184787 2.3537266 10.58675
1.8535557 0.75197482 2.3518445 10.754001
1.741053 0.83960414 2.3816009 12.0865
1.8417795 0.86878878 2.3746815 11.7935
1.9774545 0.90357423 2.3601122 12.088
1.9349616 1.0250072 2.382432 13
1.8729153 1.4361694 2.3820317 17
1.8812956 1.504697 2.3885314 18
-1.284247 1.8910278 2.3237867 23.060499
1.8503695 1.8362566 2.3151851 20.5
1.577986 2.0410373 2.3747408 23
1.6419936 2.0353003 2.3533285 23.086
1.6831956 2.1005805 2.3008494 23.0865
-0.005173679 0.021545418 2.4755309 3
1.678182 0.99926943 2.427407 13
1.6927724 1.133655 2.4495826 14.5
1.7694865 1.1142325 2.4872615 13.875
1.6806589 1.3086356 2.4592173 16
1.7920718 1.3633131 2.4583852 16.428572
1.6510855 1.4132642 2.4757466 17.085501
1.6550527 1.5808828 2.4913669 18.085501
1.7044429 1.5427487 2.4426324 18.042999
1.6396883 1.7509073 2.4546771 20.085501
1.7118134 1.738373 2.4221852 19.875
1.5848166 1.9979653 2.408725 22
-1.2293837 2.0197899 2.4864514 23.061501
1.6792525 1.3397886 2.5346043 16.085501
1.6548972 1.4597396 2.5962172 17.084999
-1.2501739 1.7959093 2.534601 21.061501
-1.2104435 1.8717077 2.5759001 22.062
-1.1874368 2.072403 2.5562737 23.031
-1.1501868 2.1056371 2.5977008 23
1.6995775 1.1833316 2.6721992 14.085
1.665565 1.3754511 2.6213145 16.084999
-1.2213894 1.5957586 2.6047451 19.062
-1.2084383 1.8810506 2.6146216 21.5
-1.181428 1.9117792 2.6571915 21.5
-1.155303 2.1203899 2.6168396 23.0625
-1.1982778 1.2750692 2.7229171 15.5
-1.1775039 1.3143389 2.7237566 16
-1.1518221 1.4298441 2.7808533 17.0315
-1.132261 1.956324 2.7290702 22.063
-1.0791899 1.9989815 2.7733474 22.063499
1.4526211 2.2869391 2.7326632 23.08325
1.5646611 2.2910557 2.7208626 23.084
-0.31878293 0.24941614 2.8829701 5
-1.1626748 1.0122584 2.8017104 13.063
-1.1109135 1.745072 2.8376472 19.563499
-1.0301806 2.0589411 2.8200989 22.063999
1.0493962 2.2964928 2.8964868 23.08
-1.1382307 0.63438773 2.9155304 9.0635004
-1.1403408 0.84395295 2.9193692 11.0635
1.7070358 0.8856023 2.9575238 11.084
-1.1360747 1.059021 2.9196947 13.0635
1.6849753 1.0971158 2.9291718 13.084
-1.103196 1.1155844 2.9772656 13.5
-1.0604014 1.7966477 2.9117196 20.063999
1.4547285 2.29529 2.9658701 22.0825
-0.94972992 2.3085365 2.9750493 23.065001
1.2254082 2.3295391 2.9768715 23.080999
1.676246 2.3183322 2.9247384 22.084
-1.120863 0.6549527 3.0593417 9.0640001
-1.107585 0.77253467 3.0164914 10.064
-1.0855659 0.95033431 3.055438 11.5
-1.0482733 1.0553526 3.0944543 12.5
-1.0391948 1.3613662 3.0326369 15.538462
-0.96305841 2.0614707 3.0458119 21.065001
-0.83028805 2.2812872 3.0987651 23.066
-0.75173724 2.2570622 3.0558846 23.0665
-0.64839238 2.2740388 3.0596392 23.067249
-0.43771073 2.2596109 3.0054588 23.06875
1.6337715 2.3164048 3.0034819 22.0835
-1.0724984 0.68203378 3.125845 9
-1.0106578 1.3530234 3.1004107 15
-0.97709507 1.4683547 3.1030862 16.5
-0.92375642 1.6134831 3.1383443 17.0655
-0.93613434 1.9891154 3.1703119 20.0655
-0.84060162 1.9831486 3.1093004 20.566
0.16540852 2.278481 3.124176 23.07325
1.6193267 2.3671424 3.1385424 22.083
-1.0286853 0.6231373 3.2178473 8.0649996
-0.91981626 0.94979924 3.256314 11
-0.90390182 1.067657 3.2808602 12.5
-0.90289187 1.2686987 3.2559199 14.5
-0.88543117 1.3076526 3.2926285 14.5
1.8434923 1.4181895 3.2165408 14.084
-0.89040941 1.6154727 3.2705359 17.066
-0.0065243361 2.2841244 3.2119863 23.072001
1.6072525 2.3495212 3.2700779 21.0825
-0.94381732 0.18504 3.3510592 4
-0.91732299 0.26166937 3.3994644 4.8571429
-0.98427582 0.35416016 3.3269207 5.5
-0.90471095 0.63870293 3.3803091 8.25
-0.90637583 1.0129147 3.3164432 11.8
-0.8965162 1.4994016 3.3190057 16.066
-0.15128203 2.3382988 3.3641014 22.070999
1.5569607 2.3561985 3.3547511 21.082001
-0.8988452 0.2977885 3.4341111 5.5
-0.88188404 0.51415592 3.431978 7
-0.8516593 0.70913923 3.4624996 8.5
-0.86449754 0.83290958 3.4074218 10
-0.69109184 2.3899989 3.4692011 22.067499
-0.45756555 2.3173382 3.4721818 22.069
1.1617402 2.3430023 3.4230115 21.0795
1.5085613 2.3657179 3.4499419 21.081499
1.8353565 0.69020784 3.5529916 8.0830002
1.8409911 0.97730243 3.5433137 10.5
1.861423 1.0161946 3.5433738 11
1.8484817 1.26004 3.5450258 12
-0.61980939 2.3610754 3.5162015 22.068001
-0.55578905 2.370014 3.596699 21.068501
-0.0070663569 2.3513339 3.5075271 22.072001
0.63438177 2.3857696 3.5961735 21.076
1.3794146 2.3662577 3.5609636 21.0805
1.4447194 2.3554385 3.5155168 21.080999
1.8756819 0.78230304 3.6177347 9
1.8936317 2.2906995 3.6482813 19.083
-0.73581076 2.3673272 3.6693587 21.067499
-0.40610006 2.3894358 3.610177 22.0695
0.07371214 2.3889492 3.6436794 21.5725
1.0475781 2.3678422 3.606833 21.078501
1.3134649 2.3620493 3.6281664 20.08
1.4050498 2.3732827 3.6139882 20.0805
0.72316265 2.4121597 3.6865003 21.0765
1.7489151 2.2990785 3.7537274 19.082001
-0.83190185 2.3719401 3.7167323 21.066999
1.1793535 2.3615713 3.7739766 20.079
1.2521127 2.3701286 3.7146726 20.0795
1.8243771 2.3090823 3.7128851 19.0825
-0.33452651 2.4023318 3.7197561 21.07
1.5491067 2.2878258 3.8755038 19.08075
1.6622094 2.2914262 3.8023617 19.081499
-0.42682168 2.3952129 3.8233733 21.0695
-0.34788385 2.3861716 3.8976076 20.07
-0.17992988 2.3864806 3.8551433 21.070999
0.82845277 2.3599644 3.8067749 20.077
1.0376732 2.3503439 3.8757882 20.077999
1.1140634 2.351299 3.8191788 20.078501
1.9435614 2.1750269 3.9379954 18.0825
1.3409736 2.2758217 3.9861062 19.0795
1.4337178 2.2662497 3.9679453 18.58
1.645183 2.2502325 3.9908068 18.080999
2.1377888 2.2494969 3.9128633 18.0835
-0.80685693 2.3716052 3.9910386 20.067499
-0.27079791 2.3686213 3.9500334 20.070499
-0.096044309 2.383795 3.949261 20.071501
0.41659513 2.380754 3.9161286 20.074499
0.51513064 2.3760588 3.9956992 20.075001
0.96555001 2.329391 3.9495606 19.577499
1.0494936 2.3427203 3.9565928 19.077999
1.98892 1.5833416 4.0592194 13
1.9752541 1.7380476 4.0501609 14.25
1.9766005 1.8929189 4.0435147 15
1.8842877 2.1873128 4.0434856 17.082001
1.1813259 2.2591739 4.0606179 19.078501
1.2743874 2.2397416 4.043313 18.579
1.3612611 2.2377124 4.0273829 18.0795
1.8955023 2.2234282 4.0730376 18.082001
2.0779223 2.258074 4.0142889 18.083
-0.73262256 2.3651876 4.0916009 19.068001
-0.18749616 2.3643827 4.0472851 20.070999
-0.0080575226 2.3828871 4.0479679 20.072001
0.089485079 2.3526249 4.0881844 20
0.44064698 2.3328066 4.0740681 19.074499
0.61721528 2.3340373 4.0497241 19.5755
0.71084625 2.3297315 4.0756054 19.076
1.8444726 1.6799875 4.1923685 14.0815
1.7306719 1.7459606 4.1780901 15.081
1.9285787 1.7356817 4.1429052 14.082
2.1670947 2.0043344 4.1625705 16.083
2.1653233 2.1945033 4.1579781 17.083
0.17154981 2.2923512 4.1867342 19.073
0.8095234 2.2991693 4.100606 19.0765
0.91930574 2.2627151 4.1759734 18.577
1.0565284 2.260334 4.1508441 18.077749
-0.69194472 2.3523996 4.1289091 19
0.26350787 2.3151901 4.1629004 19.0735
0.359449 2.3195558 4.1179519 19.073999
0.53584796 2.3187695 4.1048794 19.075001
1.5620474 1.6763406 4.2945566 14.08
1.6470821 1.6482567 4.2731371 14.0805
1.7507294 1.679656 4.2313571 14.081
-0.72648913 1.8241246 4.268775 15.5
-0.47791189 1.8084724 4.2657809 16.0695
-0.38876128 1.8500508 4.2544074 16.07
-0.69915617 2.1554613 4.2771859 17.5
1.7358872 2.1832662 4.207212 17.080999
-0.67874128 2.2055011 4.242734 18
-0.15066209 2.2692842 4.2578201 18.571251
-0.008357672 2.2624402 4.2116265 19.072001
0.15211025 2.2661433 4.245935 18.524332
0.2786018 2.2553091 4.2849407 18.0735
0.37133038 2.2557054 4.2461281 18.073999
0.74473852 2.2223382 4.2967243 18.076
0.83184969 2.2212164 4.2357793 18.0765
1.2398641 2.2206807 4.2755456 18.078501
-0.55790412 2.314393 4.2348595 19.069
-0.66682631 1.7930216 4.3283539 15.0685
1.655284 2.1843834 4.3016257 17.0805
-0.57458967 2.2383852 4.321691 18.069
-0.47589239 2.2436922 4.3107481 18.0695
-0.38038665 2.2628531 4.3251395 18.07
-0.28295797 2.2702742 4.3142142 18.070499
-0.0085901655 2.2361403 4.3383956 18.072001
0.45909867 2.2692199 4.3051128 18.074499
1.3726543 2.2216332 4.3680096 17.079
1.9177094 2.2333708 4.3930278 17.081499
1.5127079 2.1801834 4.4545202 17.0795
-0.59044749 2.2225423 4.4788198 17.069
0.38086018 2.1981659 4.5217896 17.073999
1.4144094 2.1738851 4.54356 16.079
-0.21088175 2.2285633 4.525239 17.070999
0.59336185 2.2732797 4.5309186 18.075001
0.89042968 2.2380717 4.5362906 17.0765
0.1900413 2.1780932 4.6291137 17.073
1.6652633 2.1270671 4.6137328 16.08
1.3670002 2.124747 4.7049837 16.078501
-0.0093680266 2.2193868 4.7625303 17.072001
0.73681861 2.2733362 4.7959223 17.0755
0.52299601 2.3408568 4.7847533 17.074499
-0.32456863 2.2440169 4.8360209 17.070499
-0.009552489 2.2112989 4.8635736 16.072001
1.0640593 2.287142 4.8478942 17.077
0.86645943 2.1808138 4.9581728 16.076
-0.11933755 2.2010562 4.930985 16.071501
0.099573627 2.2381659 4.9031692 16.0725
0.21077685 2.2231688 4.9477434 16.073
1.1922641 2.2196019 4.9178724 16.077499
0.10880321 2.3037581 4.9788718 17.0725
-0.56690705 2.0064971 5.0499525 15.0695
0.7623564 2.198987 5.0190983 16.0755
0.99717337 2.1991713 5.0571804 16.0765
0.32741553 2.2300656 5.0420747 16.0735
0.65111929 2.2013071 5.0403275 16.075001
1.1050391 2.2218003 5.0106425 16.077
-0.57659137 1.2158142 5.1518221 10.0695
0.78483427 2.1840851 5.1957307 15.0755
0.89634007 2.1966953 5.1505752 15.076
1.9764585 2.1725688 5.1104879 15.0805
0.44584191 2.2328296 5.1048684 16.073999
0.54395401 2.2312248 5.1025662 16.074499
1.0368556 2.1908088 5.2529025 15.0765
1.7583563 2.2163546 5.2033844 15.0795
0.5774473 2.192493 5.3883395 15.0745
1.2962312 2.1868227 5.349113 15.0775
1.4361935 2.184478 5.3994846 15.078
-0.12947677 2.2098484 5.3409171 15.0715
0.11012454 2.1791055 5.4330044 15.0725
0.46828809 2.1817954 5.4332743 15.074
1.5808166 2.1786873 5.4524221 14.0785
1.7133192 2.1533859 5.4532833 14.079
1.8409402 2.1558318 5.4914193 14.0795
-0.010566455 2.2008071 5.4159827 15.072
1.5813509 2.2045264 5.4688983 15.0785
-0.36463985 1.618377 5.5558453 12.0705
0.23757188 2.16571 5.545505 15.073
0.36096758 2.186276 5.5288601 15.0735
1.3436546 2.1520164 5.5520864 14.0775
1.4617603 2.1650515 5.5028977 14.078
-0.011061077 2.1669977 5.685679 14.072
0.11493854 2.1692193 5.6239486 14.0725
0.48400936 2.1743312 5.6579995 14.074
1.1204145 2.1395707 5.6363854 14.0765
1.2508551 2.1589341 5.6354737 14.077
2.2362747 2.0891178 5.7966437 13.0805
-0.13010539 2.1663964 5.7504869 14.0715
0.62095654 2.1732574 5.7510757 14.0745
-0.65927225 2.1439242 5.878243 14.0695
-0.39161888 2.1232097 5.8573241 14.0705
-0.26056463 2.1561201 5.8008862 14.071
0.24976137 2.1184716 5.8804502 14.073
0.3761732 2.1118345 5.8112817 14.0735
0.75827253 2.1598783 5.8101845 14.075
0.89390182 2.1299038 5.835886 14.0755
1.0384054 2.1139421 5.9002175 14.076
2.0439515 2.0955069 6.0283346 13.0795
-0.14567161 2.1121821 6.0447636 13.0715
1.9249356 2.1005812 6.1558833 13.079
1.7928907 2.07938 6.2156234 13.0785
1.4932443 2.1174836 6.2065177 13.0775
1.692405 2.0738795 6.317029 12.078
-0.012267401 2.1637688 6.3434367 13.072
1.6899569 2.1004379 6.314621 13.078
0.14000294 2.1512477 6.4196506 13.0725
1.8784467 2.1036751 6.4422536 12.0785
1.4368063 2.0507972 6.5081053 12.077
2.0389485 2.0910065 6.5274911 12.079
0.41467154 2.1173432 6.5783191 13.0735
0.71172929 2.0070918 6.6679358 12.0745
1.0110669 2.0126414 6.6485662 12.0755
1.2962195 2.0131965 6.6008396 12.0765
1.6287487 2.0487139 6.6534047 12.0775
2.2640171 2.0969889 6.6845922 12.0795
0.13782728 2.0254056 6.7678661 12.0725
0.58731258 2.0173588 6.7157378 12.074
1.169534 2.0356936 6.76367 12.076
2.4461908 2.0583887 6.7638259 11.58
-0.013108287 2.0348399 6.8019357 12.072
0.92600781 2.0399222 7.0872369 12.075
2.1981349 2.0223041 7.0103955 11.079
-0.013705876 1.4174221 7.1277757 9.0719995
2.0758986 2.024725 7.1772575 11.0785
-0.013888603 0.46133867 7.2274113 4
-0.014005758 1.8525603 7.2912889 11.072
1.9298164 2.0147896 7.2761889 11.078
-0.01410245 1.1569211 7.3440108 8.0719995
0.63528049 2.0357904 7.4166422 11.074
1.1284715 2.0376318 7.4356871 11.0755
1.8243372 2.0265212 7.4502106 11.0775
0.83371222 2.0381885 7.5970058 11.0745
0.9697597 2.0394218 7.5128164 11.075
1.6782761 2.0189872 7.5815392 11.077
0.32766306 2.0280273 7.6940179 11.073
1.5284109 1.9994065 7.715837 11.0765
0.50197148 2.0467858 7.7335882 11.0735
1.3706924 2.0008795 7.8318033 10.076
2.1127207 2.0067778 7.9170818 10.078
1.0606778 1.9801677 8.0963335 10.075
0.88785207 1.9640608 8.1910887 10.0745
0.35346806 2.0327673 8.2966776 10.073
2.9031916 1.9295076 8.5574894 9.0795002
0.55734217 2.020102 8.5856895 10.0735
2.770859 1.9402776 8.8067417 9.0790005
2.3869882 1.8968488 8.9612131 9.0780001
2.5882893 1.9282463 8.9145823 9.0784998
2.2208951 1.9026196 9.1516237 9.0775003
1.8289263 1.8520989 9.329771 9.0764999
2.0559628 1.8868866 9.3069077 9.0769997
1.6576121 1.8376268 9.4904432 9.0760002
1.0300795 1.8675109 9.6582651 9.0745001
1.2497008 1.8667629 9.6703787 9.0749998
1.4601144 1.8611457 9.6100054 9.0754995
1.4763322 1.8356351 9.7242937 8.0754995
3.0559072 1.8722881 9.7047224 8.0790005
0.84855044 1.892048 9.9377546 9.0740004
1.0765661 1.8868282 10.018807 8.0745001
1.3263557 1.8753644 10.059526 8.0749998
1.7585371 1.8516701 10.136384 8.0760002
2.9862444 1.7794921 10.273984 8.0784998
2.5168738 1.7508181 10.376539 8.0775003
0.88730466 1.8117664 10.351016 8.0740004
2.023083 1.8552839 10.303496 8.0764999
2.2829738 1.840872 10.415596 8.0769997
2.8689876 1.8119432 10.744868 8.0780001
3.3517179 1.6884946 11.539472 7
2.5598264 1.7587306 11.704844 7
2.8242657 1.5982004 12.779634 6
3.9251425 1.5411875 13.543 6
4.9568419 1.3469387 17.06472 5
