# .PCD v0.7 - Point Cloud Data file format
VERSION 0.7
FIELDS x y z intensity
SIZE 4 4 4 4
TYPE F F F F
COUNT 1 1 1 1
WIDTH 297
HEIGHT 1
VIEWPOINT 0 0 0 1 0 0 0
POINTS 297
DATA ascii
4.2300444 0.076890349 -4.2370248 3
4.2216916 0.36727148 -4.2673864 4
4.5761919 0.57445133 -4.2991824 5
4.3281345 0.65631014 -4.257093 6
4.5069823 0.85453361 -4.28936 7
4.1548905 1.723114 -4.2281604 12
3.8180707 1.7664549 -4.1801887 12
3.8042407 1.9262801 -4.1631045 13
4.1439357 1.9164153 -4.0854692 13
4.1655707 2.0526013 -4.0534749 14
3.9488211 2.3468721 -4.143641 15
4.0580373 2.2226722 -4.1775022 14
3.973249 2.3679478 -3.8784299 16
4.0549979 2.3635674 -3.955034 15
1.0048717 0.13517456 -0.75638157 5.5
1.0382813 0.27582589 -0.6555956 9.5
1.0575987 0.26620185 -0.54553431 9.5
1.1083865 0.071190991 -0.34194624 4.5
-2.5139971 0.19269027 -0.044389516 4
-2.1182353 0.096969955 -0.08569596 4
-2.4841003 0.29921469 -0.060684774 6
-2.1092334 0.29513553 -0.12091018 7
-2.517509 0.58716244 -0.062471598 10
-2.3800001 0.45797402 -0.098689295 8.25
-2.0974598 0.52471107 -0.11574233 10.5
-2.4922297 0.73448688 -0.080622405 12.5
-2.0770123 0.72657597 -0.1167377 13.5
-2.462965 0.88016129 -0.07013768 14.5
-2.0395355 0.80099416 -0.042954169 15
-2.4322066 1.0061859 -0.039470583 17
-2.0194762 1.3197869 -0.069112889 21.5
-1.9932569 1.4511871 -0.068888009 23
1.1820176 0.14025722 0.11827082 6.5
1.1275127 0.30093604 0.077012494 9.583334
-2.3575249 0.6554271 0.102441 11.25
-2.3039598 0.84319735 0.19895458 14
-1.9905287 0.86315459 0.1763937 16
-2.2051742 1.5334773 0.13579819 23
-2.3587244 0.17977698 0.39327785 4
1.1786755 0.076838814 0.23201516 5.5
1.2486176 0.46925756 0.25713813 12.25
1.2686502 0.74920183 0.27338675 16.5
-1.9540911 0.97574317 0.33668 17
1.1972282 1.1912676 0.25919729 23
1.2341015 1.0791738 0.25402653 22
-2.220227 1.3860228 0.23485816 21.333334
-2.3136654 0.13193958 0.41680926 3
1.3098217 0.27282286 0.43436933 8.75
-2.2891133 0.79731894 0.40833679 13
1.3080521 0.66067219 0.51138973 14
1.2712278 0.83596724 0.43063274 17
-2.2459931 1.0569698 0.56063843 18
1.2401245 1.0191584 0.57743376 20
-2.1312349 1.2985891 0.56787848 21.5
-2.2753367 0.3431415 0.77397734 6
1.2906437 0.68585825 0.76059455 14.25
1.5287478 0.67108965 0.68706256 15
1.2851799 0.8167572 0.74107873 16.5
1.3742528 1.0841353 0.78523391 21
-2.063097 1.3227783 0.67637634 21
1.2761557 0.019006651 0.92652619 3.6666667
1.5893761 0.14505599 0.97068661 5
1.6065978 0.089584798 0.99690193 4
-2.2059126 0.31457964 0.97443742 6
1.2926736 0.21714756 0.93062031 7
1.58506 0.31174135 0.93000793 8
1.6033033 0.26919234 0.96911877 7
-2.1524687 0.55355024 0.90703571 10
1.31292 0.50430596 0.91248894 11
1.5913397 0.43434834 0.9280532 10
-2.1975813 0.71881741 0.84966719 12
-1.8506246 0.72849435 0.92657518 14
1.3476874 0.79081053 0.99602783 15
1.5804437 0.7083922 0.87338376 14.333333
1.6001241 0.77016145 0.98838395 15
-1.8278346 0.92837834 0.87568688 16.5
1.5716593 0.8033039 0.80939615 16
-1.8780329 1.0886885 0.93230927 18.5
1.5269352 1.1194593 0.94335258 21
-1.8590424 1.2868842 0.81855702 21
1.4876455 1.2930032 0.90267742 23
-1.7826364 1.4295527 0.82208413 23
1.2984958 -0.021886321 1.1025089 2
-2.0978484 0.091723412 1.170417 2
-1.8532997 0.0069786608 1.0560131 2
-1.7952813 0.080691591 1.1716689 4
1.5966128 0.016327295 1.0565581 2
1.4382389 0.24786475 1.1971794 7.4000001
1.6072556 0.30752835 1.070821 8
-2.0169907 0.49638861 1.1700411 8.75
1.3723996 0.41497028 1.1963969 9.5
1.6102979 0.53748012 1.1368706 11
-2.0623686 0.76063097 1.03499 12.5
-1.7712235 0.72180068 1.1574285 13.5
1.3637511 0.76026809 1.1473793 14
1.6098295 0.62042034 1.0750438 12.5
-1.7791302 0.89369583 1.1434395 15.5
1.3918588 0.99251592 1.0301409 19
1.5098835 0.8552295 1.0309546 16.5
-2.0310955 1.031925 1.0403888 17
-1.9776359 1.0836214 1.0727668 18
-1.74007 1.1972201 1.1520196 20
1.525377 1.113094 1.1117264 20
-1.9408438 1.2731526 1.1709825 20
-1.7058748 1.3511097 1.1367384 21.5
-1.9380245 1.4549376 1.082845 22.25
-2.0188766 0.088190891 1.2970078 2
-1.9713621 0.15258795 1.3841527 3
-1.7844468 0.07247901 1.2063792 3
1.3578051 0.077521935 1.2573428 4.5
1.4147022 0.047053408 1.2217858 4
1.6178901 0.13316704 1.2659349 4
-2.0298085 0.39472902 1.2197541 7
-1.9501059 0.23219164 1.3662138 4.5
1.3617398 0.23914814 1.2311856 7
1.436774 0.34327599 1.2308197 9
-1.9592474 0.41364458 1.3762122 7.5
-1.7390262 0.55224049 1.2577835 10.5
-1.9642148 0.68584186 1.2933738 11
1.5675724 0.70632094 1.3674315 13
-1.9233125 0.88533896 1.2485136 14.833333
1.5467529 0.90635681 1.2733119 16.5
-1.9115155 1.1819994 1.2929631 18
-1.8561323 1.3873979 1.2733626 21
-1.7556756 1.5064988 1.2359594 23
-1.8746544 0.19585198 1.5158708 4
-1.6797473 0.11892131 1.5977378 4
1.5132776 0.088580586 1.5111108 3.3333335
-1.8831437 0.3843638 1.4884576 6.75
-1.7061388 0.34739929 1.5410973 7
1.530091 0.26787949 1.4905384 6.5
1.5585394 0.55650395 1.4202425 10.5
-1.8558323 0.69920444 1.5590352 11.25
-1.6476465 0.78633291 1.5606097 13
-1.6310014 0.90336114 1.5496675 15.333333
1.587273 0.87832934 1.5270377 15
-1.6040577 1.0750854 1.5609436 17.5
1.5675988 1.0534756 1.5473444 17
-1.8409684 1.2031459 1.4750059 18.5
-1.7329611 1.3092251 1.5310683 19.299999
-1.5968598 1.2162269 1.5524845 19
-1.60541 0.020066086 1.738601 3
-1.5906675 0.0037000701 1.7529073 2
-1.7614318 0.39967492 1.7682251 6.5
1.6158283 0.29364192 1.658005 6.5
1.6076844 0.48242769 1.6410275 9
-1.7857087 0.75248873 1.6931362 12
1.5903883 0.62318611 1.6202896 11
1.592702 0.92605394 1.606599 15
-1.7221092 1.2195666 1.6970732 17.75
1.7356619 1.3804063 1.7761053 17.5
-1.7416512 0.29062396 1.8442612 5.5
-1.6487391 0.45818621 1.9256729 8
-1.6337153 0.67368412 1.9473934 10.2
-1.539091 0.76004201 1.8828608 12.333333
-1.6418897 0.94625843 1.8799713 14
-1.4451444 0.81568635 1.9417363 13
1.7790693 0.91255593 1.9703218 12.5
1.7561812 1.1252716 1.8590982 15.25
1.7049834 1.6404036 1.9077314 19
-1.6163293 0.19603568 2.0264618 4
-1.4603902 0.11532394 2.0373387 4
1.7507986 0.025445497 2.134218 3
-1.6362698 0.33880731 2.0175152 6
-1.5229113 0.35762054 2.0624876 6.25
1.7759684 0.24926332 2.137794 5.5
-1.5245712 0.50334787 2.0442619 8.5
1.776198 0.43223396 2.1283669 7.5
-1.4820613 0.66596365 2.0232687 10.5
1.7910537 0.66014367 2.1251621 9.5
1.7562584 1.2447399 2.1498685 15.5
1.7172588 1.4998989 2.120317 17.5
1.8331736 1.6537971 2.1605301 19.75
1.6992258 0.021325545 2.3229041 2
1.7650229 0.23753825 2.3649244 5
1.7551309 0.40957844 2.3822486 7
1.7685567 0.68412846 2.3378632 9.5
1.7788242 0.87286901 2.2367001 11.5
1.749077 1.0413506 2.2197659 13.5
1.8876215 1.3425202 2.3763311 16
1.8490063 1.470737 2.3156979 17.5
1.8412781 1.6706778 2.3658202 19.5
1.7828057 1.8757174 2.2779167 21.5
1.8140883 1.8347241 2.2370703 21
-1.5587935 2.168627 2.3713789 23
1.7700336 2.0443828 2.2826598 23
1.7508289 0.10931354 2.4577715 4
1.9003346 0.44143814 2.5387619 8
1.8944203 0.70273149 2.5683918 9.666666
1.8829699 1.0624795 2.5304046 13.5
1.8739938 1.2305706 2.4382162 15
-1.6075816 1.5608398 2.5723922 17.5
1.8171237 1.5681345 2.5969694 18
-1.5707505 1.6577274 2.5883901 19
1.7939463 1.7072963 2.4919946 19
-1.56933 1.9127209 2.5206308 20.5
-1.6002964 2.0312686 2.4385452 22
-1.455 2.1616156 2.5416453 23
1.9206485 0.34109169 2.7153282 5.5
1.9221772 0.52384835 2.7204394 8
-1.581615 0.70017481 2.7874169 9
1.9091096 0.64721632 2.7508178 9
-1.5782781 0.90705752 2.7231755 11
1.8971601 0.87859207 2.7163413 10.5
-1.5668322 1.0977584 2.7319105 12.833333
1.8788608 1.0812638 2.7247448 13
-1.6062734 1.3707249 2.6404328 15
-1.544641 1.296648 2.7564838 15.5
1.8507223 1.2692991 2.6882546 14.5
-1.5788292 1.5604174 2.6404748 17.5
1.8449837 1.4374597 2.6558704 16.5
-1.4935296 1.744362 2.6801276 19.5
-1.4505806 1.9201598 2.6995244 20.666666
-1.4569522 2.0729439 2.6665425 21.625
-1.533272 0.10749335 2.9184361 2.5
1.8965994 0.06872616 2.8935215 3
-1.5372891 0.33446729 2.8729887 5.583333
1.8885574 0.31801432 2.9556139 5.5
-1.5368483 0.52004617 2.8687396 7.25
1.8780982 0.47750461 2.9416392 7
-1.5175221 0.69313598 2.9111552 9.5
-1.4956671 0.86926657 2.9442623 11
-1.4874787 1.0059668 2.9186687 11
-1.4464526 1.2710712 2.9613149 15
-1.4200302 1.5191355 2.9065156 17
-1.3116162 1.5739422 2.9917808 16.5
-1.3755677 1.7624495 2.8645225 18.75
-1.4479749 1.9288372 2.8945725 20.5
-1.452589 0.047147948 3.0951316 1.5
-1.3746169 0.35179046 3.1619496 5
-1.4737455 0.56557137 3.0267093 8
-1.4675131 0.73915738 3.1241455 9
-1.3505926 0.61912942 3.1552978 7.5
-1.3356204 0.87770534 3.1412606 9.75
-1.4397986 1.166361 3.0786905 13
-1.3196121 1.1401657 3.1277301 12.5
-1.4349887 1.3295966 3.0387723 15
-1.2900546 1.2924606 3.156302 14.25
-1.3825099 1.4820826 3.061985 16
-1.3071342 0.16417521 3.2560358 3
-1.2729783 0.30009344 3.3240042 5
-1.2516733 0.45742604 3.381748 7
-1.2831992 0.67455536 3.3265667 8.333333
-1.2578969 0.94335181 3.3481157 10.75
-1.3031895 1.041324 3.2186074 12
-1.2697941 1.2844555 3.2596133 13.5
-1.2363242 0.04361717 3.4022186 3
-1.2403885 0.3413454 3.4014459 5
-1.2681475 0.54559392 3.4095585 6.5
-1.0976462 2.2352073 3.8690076 18
-0.14731622 2.3300314 3.9040709 19.25
-1.0469887 2.4055579 3.8510966 19.5
-1.0223322 1.5779752 4.1784744 13
-1.0086669 1.7852211 4.1391687 14.666667
-0.99313641 1.97788 4.1431613 16
-1.1414273 2.1173885 4.196424 17
-0.9749561 2.0997498 4.1040792 17
-0.96201921 2.2711761 4.0781751 18
1.1507266 2.2694044 4.116312 18.5
-1.1075773 1.3815179 4.3900189 12
-0.931072 1.5369886 4.3361845 13
-1.1599399 1.6452638 4.2732205 14
-0.92559946 1.772064 4.3247576 14
-1.1488492 1.8495948 4.2213845 15.5
0.70381188 2.2753277 4.2518268 18.5
0.80852407 2.2066047 4.3932824 17
-1.0943104 1.0270904 4.4839129 10
-1.0914739 1.2904788 4.4617653 11
-1.0354707 1.4642551 4.4830723 13
-1.0131961 1.7325407 4.5158968 14
-0.84013009 1.6826675 4.5822411 14
-1.0276283 1.9128827 4.4696379 15.5
-0.9620285 0.086675003 4.7331843 3
-0.96718323 0.29060823 4.7336588 4.5
-1.0127711 0.77335554 4.6179137 8
-0.98740047 0.69280386 4.7173977 7
-0.9239344 0.92455077 4.6729956 8.5
-0.90668428 1.1202643 4.7116842 10
-0.91274929 1.275172 4.6723537 11
-0.96391785 1.4824698 4.6406722 12
2.8136535 0.70486057 5.4246225 6.5
2.7990298 1.0924563 5.4588757 8
2.8291216 1.2298939 5.4664693 9
2.8441477 1.4556618 5.4624963 10
2.4868507 0.17794834 5.7342634 2
2.5327477 0.65298718 5.8132114 6
2.5444915 0.85993969 5.8099828 7
2.82551 0.064668469 17.276562 1.5
3.2833223 0.19955777 17.211863 2
3.1936693 0.74046028 17.282228 4
2.6072392 0.67528057 17.423996 4
2.6623816 1.3831874 17.502882 5
1.4989035 0.14513242 17.73963 2
1.3851769 0.78891081 17.785362 4
1.8306155 1.0771134 17.747137 4
1.8632064 1.176739 17.800268 5
1.2451452 1.2481377 17.891773 5
