# .PCD v0.7 - Point Cloud Data file format
VERSION 0.7
FIELDS x y z intensity
SIZE 4 4 4 4
TYPE F F F F
COUNT 1 1 1 1
WIDTH 1218
HEIGHT 1
VIEWPOINT 0 0 0 1 0 0 0
POINTS 1218
DATA ascii
-2.088304 0.34174195 -0.094337292 8.0349998
1.0427532 0.34713584 -0.060179055 11.113501
1.1620811 0.3156617 -0.023552462 11.1085
1.2016153 0.35404235 -0.025668496 12.1085
-2.522409 0.46627867 -0.097275227 8.0450001
-2.3835902 0.43634713 -0.084179059 7.75
0.96082777 0.41286317 -0.062122781 14.110625
1.0190227 0.48261797 -0.03009234 15.11
1.1399188 0.46526471 -0.047778487 14.11125
1.2058828 0.49185562 -0.026005842 15.1085
-2.517509 0.58716244 -0.062471598 10
-2.3738291 0.56821597 -0.017941508 10.0365
0.95520979 0.5627625 -0.055130128 17.777166
1.1628765 0.54916555 -0.075782344 17.109501
1.231727 0.56270516 -0.011266221 15.858875
-2.0729842 0.61928123 -0.049349114 12
1.2026027 0.63732296 -0.078360938 18.109501
-2.485137 0.73679411 -0.077488333 12.5
-2.0661919 0.74182206 -0.060981568 13.702
0.93994683 0.73806536 -0.095611989 21.11125
1.0813431 0.75702411 -0.057170287 20.277042
1.1431258 0.76661307 -0.094776571 18.114
1.2346785 0.78406101 -0.068318188 21.109249
-2.4694443 0.83115798 -0.065431088 14
-2.3268805 0.80962515 -0.017634556 14.0365
-2.0416698 0.83332193 -0.065979421 15.5175
1.1255813 0.80105287 -0.0069076046 21.109501
1.2579371 0.86509049 -0.055597235 22.109001
1.3246133 0.81186098 -0.011501271 19.109501
-2.4564857 0.92916459 -0.074844271 15
-2.2955155 0.99713624 -0.019129932 16.036501
-2.0344286 0.98529255 -0.056889217 17.2675
1.1521933 0.97211921 -0.069469839 23.110498
1.2888969 0.91247451 -0.042981058 22.608749
1.3077748 0.94048208 -0.0019842398 23.108
-2.4310112 1.011694 -0.051801801 17.022751
-2.0561662 1.026199 -0.0440116 17.702166
1.1860048 1.0538846 -0.02967748 22.363125
-2.3897223 1.1881105 -0.070505112 19.0455
-2.0365908 1.1690443 -0.091360554 20.035
1.1606802 1.1307511 -0.024178356 23.113001
-2.357914 1.2416177 -0.037592173 20.212584
-2.2927547 1.2339474 -0.063511133 19.035999
-2.0162189 1.2679904 -0.018798258 21.018
-2.2743778 1.3048918 -0.019216698 20.036501
-2.0211806 1.3157786 -0.056240328 21.26775
-2.3327718 1.4721204 -0.057124048 23.04575
-2.2513559 1.4492817 -0.06261614 22.035999
-1.9815464 1.4448385 -0.04819265 23.011833
0.97613388 0.15676545 0.085126385 8.1079998
1.1676097 0.14770328 0.060471263 6.7038331
1.2023752 0.11755733 0.040165205 6
1.121487 0.24204448 0.089969903 8.666667
1.2059762 0.25738001 0.078548282 9.1064997
0.89140064 0.33248356 0.0016699433 13.1095
1.01703 0.30632526 0.070404157 11.10825
1.1588262 0.34956843 0.057843842 10.970167
-2.361589 0.44606391 0.050250344 8.0372505
1.0622015 0.47581002 0.030659556 15.108899
1.1626135 0.45002529 0.049064487 13.609333
1.223736 0.41170663 0.067787692 13.10675
-2.3887787 0.55511177 0.028571162 10.037
0.97023541 0.58171368 0.080578364 18.108
1.1797364 0.53128111 0.081814915 14.11175
1.25299 0.56117272 0.03343628 15.733126
1.3070107 0.58014941 0.095190302 15.108
-2.4534993 0.68833661 0.091991454 11.857142
-2.3532028 0.65035009 0.06377086 11.268499
1.0833359 0.66807622 0.054042835 18.6085
1.1663496 0.65518755 0.00052049756 16.112751
1.2265325 0.62033355 0.039169185 18.10725
-2.0348401 0.75990009 0.02173624 14.53625
0.96179706 0.70574021 0.037197791 20.608749
1.193961 0.7682271 0.057149738 18.112
1.2693552 0.76420629 0.042754978 20.10725
-2.3157439 0.825432 0.073327467 14.0375
1.1364317 0.8604002 0.021724593 22.108999
1.3179224 0.86360967 0.087037124 21.606501
-2.3021359 0.92896777 0.06941399 15.0375
-2.0010204 0.91522586 0.088142589 16.037001
1.1934731 0.96136022 0.020767819 22.609001
1.3397065 0.95158374 0.02776834 23.1075
1.4172063 0.91838425 0.095358193 20.108
-2.3078327 1.0090165 0.06821543 16.0375
-2.0488942 1.0518563 0.003137643 18.035999
-2.0172505 1.166388 0.060171623 19.703333
-2.3356471 1.21728 0.094677836 20.047501
-2.2641444 1.2538452 0.06481196 20.0375
-2.0126736 1.27031 0.065402403 21
-2.2755363 1.3140504 0.076581858 21.0425
-2.0007367 1.3712053 0.04119692 22.036501
-2.326129 1.4401333 0.045357436 22.547001
-2.2232375 1.4635417 0.032430541 22.537125
-1.9566764 1.4365008 0.043257941 23.036501
1.1690805 0.15555863 0.19021386 7
1.2045178 0.19266841 0.13233216 8.1055002
0.92128819 0.25306162 0.13312116 10.107
1.1273625 0.26980835 0.10480353 9.4446669
1.2207372 0.2505542 0.17633672 9.1047497
-2.475266 0.30867204 0.11238214 5.8636365
-2.3750038 0.37963185 0.12976553 7
1.05918 0.34600866 0.17254756 12.1065
1.1680917 0.35292226 0.1393325 10.611
1.2340218 0.35383859 0.16238204 11.605
1.1968207 0.48044071 0.1328429 13.60925
1.2285819 0.47038183 0.16523218 13.27425
1.1298689 0.5401547 0.16526116 15.85675
1.2609727 0.55956703 0.1651751 16.105
1.3581803 0.58564365 0.15000531 15.10725
-2.3428557 0.6615535 0.13538744 11.369809
-2.0424466 0.6142146 0.19434191 12
0.99509937 0.69794405 0.16287461 20.106501
1.2404286 0.65588653 0.12053844 16.775166
1.1578395 0.70952588 0.13347477 19.10725
1.2024844 0.79648966 0.15297034 20.107
1.3057971 0.76015317 0.1439714 20.105499
-2.4042282 0.89933974 0.12837765 15.04775
-2.3500633 0.8676914 0.19417883 14.52425
-1.9905287 0.86315459 0.1763937 16
1.3254461 0.83133793 0.14535457 21.105499
-2.3964269 0.96118629 0.14839253 16.048
-2.0172014 0.96558821 0.16070442 17
1.286814 0.92005366 0.12185581 21.1075
1.3528104 0.96442235 0.16680068 22.106125
1.4447401 0.96625942 0.15339001 20.60725
-2.3938982 1.0064069 0.10281977 16.799999
-2.2780139 1.0371515 0.17487822 16.859083
-2.0035477 1.0581303 0.13032676 18.5375
-1.9895267 1.0554559 0.17355335 18.038
1.3736309 1.0250548 0.13431026 23.105751
-2.2586052 1.147038 0.15457311 18.0385
1.2040373 1.1446184 0.18426454 22.666666
-2.2559352 1.2303778 0.19825076 19.539
-2.2930498 1.3189311 0.13357005 21.5
-1.9645468 1.3375384 0.18990937 21.875
-2.2426417 1.4419726 0.1803637 22.782417
-1.9443763 1.4372071 0.16960791 23.038
-2.2051742 1.5334773 0.13579819 23
1.1786755 0.076838814 0.23201516 5.5
1.191469 0.16296571 0.24500883 6.8888888
-2.0716317 0.22558533 0.20422831 6
0.93492013 0.26974303 0.29737213 11.104
1.0666364 0.24674368 0.25355482 9.8552494
1.22928 0.26802224 0.25492907 9.30655
1.1145635 0.37341273 0.24224399 12.1055
1.2484682 0.36877117 0.25904286 10.940917
1.2599262 0.4621245 0.25917092 12.61184
1.1644599 0.55677992 0.24696389 15.605499
1.2314789 0.57048506 0.20981196 14.443501
1.3258392 0.59840065 0.26657671 16.1035
-2.0351119 0.64927793 0.26892179 12.039
1.2321413 0.60955375 0.25799409 16.105499
1.3276225 0.65348607 0.2528449 17.5037
1.4473631 0.61590695 0.29113537 14.6055
-2.3990226 0.74865526 0.23573056 13.049
-1.9926029 0.75817466 0.29391342 14.25
1.0122821 0.70043039 0.25013646 20.105
1.2607454 0.76465964 0.24359481 17.488625
1.3759949 0.78530431 0.27461335 19.1035
-2.2836146 0.85435134 0.24268581 14.2695
1.2540956 0.84022099 0.2581256 20.105499
1.3396428 0.82376039 0.20653053 20.1045
-2.3438716 0.92801166 0.22350496 15.344049
-2.2703898 0.94242936 0.20372099 16.039
1.2545053 0.96279866 0.23784956 20.702999
1.4079418 0.92774618 0.24634671 21.104
-2.2453756 1.0513895 0.2704486 17.333334
-1.9425504 1.0256492 0.25595686 18.039
1.2418778 1.040092 0.27683133 21.054501
1.3558884 1.0529577 0.26988676 22.105499
1.4547338 1.0442842 0.24927761 21.771997
1.1972282 1.1912676 0.25919729 23
1.3108116 1.1057079 0.2817421 23.105249
-2.2556427 1.2475731 0.24758363 20.0445
-1.9839667 1.2227669 0.23776546 20.53875
-2.2313762 1.3485093 0.26194748 21.18
-1.945383 1.3423033 0.27628744 22.039249
-2.2161677 1.4278375 0.25427586 22.544687
-1.9338191 1.4245962 0.25357407 23.039
-2.3587244 0.17977698 0.39327785 4
0.92906767 0.14830372 0.30203801 8.1040001
1.0658076 0.18067957 0.35908043 8.1035004
1.0933867 0.28836116 0.30114192 10.1045
1.1742969 0.29791009 0.35228261 10.104
1.2719109 0.23809339 0.32439482 8.1022501
-2.393682 0.32242417 0.37708101 6
1.286952 0.33353266 0.3680388 9.7729158
1.3083534 0.36159447 0.34810361 11.102
-2.4001594 0.47500688 0.37070772 9.0504999
1.1799281 0.40291432 0.31917134 12.1045
1.3272903 0.45493969 0.36386946 13.101875
-2.3155861 0.57446009 0.38360968 10
1.2465534 0.54322773 0.36302301 15.104
1.0914187 0.6000517 0.36106414 17.1035
1.2692249 0.6460495 0.33841744 15.108749
1.4651461 0.648004 0.34961507 15.10475
1.5048845 0.61455387 0.3789075 14.1045
-2.3689625 0.71479744 0.36583254 12.428572
1.2715282 0.73838985 0.33376646 17.356625
1.3917249 0.7913776 0.31001288 19.103001
-2.2458591 0.84466052 0.33097956 14.0405
1.2836063 0.81886232 0.33091059 19.1045
1.4259264 0.88371378 0.35129422 20.102501
-1.9593749 0.93836385 0.33935362 16.75
1.3180008 0.91824812 0.33683249 20.1045
1.4471213 0.92443037 0.35647175 21.102501
-2.3131413 1.0647908 0.32798108 17.799999
-1.9563097 1.0647478 0.33521435 18.6399
1.2498567 1.0438986 0.33037099 20.858624
-2.1629541 1.1969633 0.31953648 20.040501
1.3799186 1.1380028 0.3822667 23.104
1.4652495 1.1085678 0.35861611 22.6035
-2.2530737 1.2291286 0.34915361 20.300751
-2.1988149 1.2455852 0.39110479 20.04125
-1.9516214 1.2494783 0.34637249 21.040001
1.1976126 1.2110902 0.32021907 23.1085
-2.2180314 1.3247023 0.37460193 21.717834
-2.1774879 1.3627521 0.35300064 21.5205
-1.9429979 1.3749369 0.34595034 22.040001
-2.2083788 1.4124435 0.37819549 22.55125
-2.1999307 1.4192452 0.3073822 23.050501
-1.917147 1.4179304 0.36187163 23.040251
-2.1649432 1.5133319 0.35198396 23.040874
-2.3136654 0.13193958 0.41680926 3
1.2773539 0.20836495 0.40548792 7.5
1.3243257 0.27952063 0.4561646 8.6874161
-2.3286881 0.30308053 0.41478303 5.5999999
-2.0199878 0.35200152 0.45145416 8.0410004
1.0028236 0.30082503 0.43689042 11.102
1.2817374 0.34295905 0.45993063 10.1075
1.3394809 0.33028904 0.44460082 10.033667
1.2644048 0.45240256 0.4416891 13.103
1.4366381 0.47689828 0.46584845 12.103251
-2.0115099 0.54232007 0.47787371 10.666667
1.3852308 0.56269711 0.43380702 15.101
1.2702525 0.62730086 0.40229043 16.1035
1.3428338 0.69336969 0.49390957 16.102501
1.4253227 0.64914316 0.47149608 15.767334
1.5323553 0.66156876 0.46677965 14.6035
-2.2681081 0.78622371 0.44036254 13.027916
1.2928334 0.72201049 0.49370512 16.107
1.3762584 0.77794737 0.45029372 17.769835
1.438462 0.71150064 0.45436248 17.101
1.2713324 0.83912325 0.43417731 17.387085
1.3278503 0.83700824 0.41105902 19.1035
1.4611572 0.8207922 0.44446248 19.10125
-2.2320685 0.91382092 0.45974007 15.542
-1.9424481 0.93368453 0.47368604 17.0415
1.3419712 0.96731269 0.43490252 20.603251
-1.9324083 1.0786376 0.45042428 19.04125
1.2402729 1.0571524 0.44294801 20.60725
1.3405755 1.0926629 0.48738891 22.102501
1.5096816 1.0721966 0.47751978 22.101
-2.249301 1.1737851 0.45555058 19.052
-2.1751885 1.131641 0.4737843 18.79225
1.3427286 1.156177 0.40975335 23.1035
1.4680445 1.1734732 0.45968878 22.603251
1.5071298 1.1691111 0.45840186 23.10125
-2.1769471 1.2764267 0.4607842 20.547249
-1.9285721 1.2886782 0.45028207 21.04125
1.1932586 1.2242962 0.4486587 23.106876
-2.2027373 1.3009378 0.44032225 21.052
-2.1710761 1.3621794 0.44879517 22.045416
-1.8952655 1.3857809 0.46157905 23.0415
-2.163029 1.4738119 0.47326335 22.54225
-1.9149067 1.4045013 0.42795351 23.041
-2.1214111 1.5164061 0.48053068 23.0425
1.28256 0.16910625 0.55531609 7.1063051
-2.0137498 0.22108956 0.55193877 5.818182
1.2665153 0.29200929 0.51985681 9.1020002
-2.2694921 0.31042519 0.58770847 5.8461537
1.2890046 0.30032334 0.5252853 10.102
1.3892177 0.34705031 0.52229446 10.099751
1.1883869 0.44766369 0.56263769 13.101
1.3135319 0.47852963 0.54421926 12.35425
1.4540242 0.46201977 0.54592627 12.101501
1.3228796 0.53583562 0.55937135 13.176001
1.4336326 0.53897613 0.53912646 13.599751
-2.3194442 0.64527506 0.57178569 11.053
-2.2548611 0.64125454 0.54964066 11.111833
1.2994794 0.65915871 0.50026071 15.107
1.3396534 0.67922568 0.54786354 15.05075
1.4687667 0.65834326 0.5466345 15.7665
1.5449448 0.65646803 0.52552009 14.769501
-2.2249694 0.76669508 0.5485394 13.043
-1.9486843 0.79728347 0.56720191 15.0425
1.1296241 0.74566889 0.50285143 19.1015
1.3495092 0.73410028 0.50043899 17.102501
1.4164331 0.79789197 0.53387684 17.602249
1.5390797 0.77000117 0.59516484 16.101999
-1.924248 0.88448256 0.58674973 16
1.2689159 0.88091469 0.586043 17.727272
1.365705 0.84908509 0.51900226 19.102249
-1.9249171 0.91215158 0.5580765 16.0425
1.2664567 0.90272766 0.52812994 18.106501
1.3708079 0.94978577 0.55864745 20.101749
1.4913425 0.90805459 0.52294403 20.10025
1.5170346 0.94032508 0.57787466 19.433001
-2.2459931 1.0569698 0.56063843 18
-2.1521995 1.0789447 0.55925018 17.882353
1.2401245 1.0191584 0.57743376 20
1.363101 1.0998164 0.55172628 22.101749
1.5102084 1.0668597 0.50951713 22.1005
-1.9262444 1.1237757 0.51807201 19.042
-1.8985417 1.1500881 0.59628195 19.542999
1.3802607 1.175473 0.55646783 23.101749
1.5069877 1.1795077 0.52763975 23.10025
-2.1254404 1.266026 0.56426412 21.014502
-1.9038641 1.2296661 0.50596631 21.042
-1.8971673 1.2014242 0.55643505 20.0425
1.2126794 1.2688729 0.53234196 23.106001
1.4772589 1.2226497 0.52605546 23.102501
1.5227095 1.2012526 0.59110874 23.099501
-2.1445568 1.3576528 0.5478425 22.014334
-1.9200295 1.3134235 0.51588213 22.042
-1.8870885 1.3615675 0.55151784 22.375834
-2.1471078 1.429245 0.56047386 22.380083
-2.0888679 1.4875318 0.56344968 23.043501
-1.8696094 1.4396796 0.56633723 23.042749
-2.3089828 0.28867236 0.65279758 5.5416665
-1.9744074 0.22754012 0.65273702 6
1.3218963 0.24726738 0.62613088 8.6008749
1.4453169 0.37087968 0.63448495 10.0985
-2.2289972 0.47505581 0.64015543 8.5439997
1.5066721 0.46927914 0.67448932 12.101
1.3109645 0.59873343 0.64584744 13.1055
1.4429682 0.55115479 0.6521951 13.266334
-2.282104 0.67485046 0.64849913 11.7
-1.9608846 0.60656273 0.61114407 11.785714
1.4874545 0.61450064 0.62447399 14.6745
1.5435114 0.64656001 0.66917855 14.566667
-2.1712332 0.75004911 0.67125994 13.0445
1.1853542 0.76569557 0.62700248 18.1
1.2835859 0.75001347 0.63074386 16.105499
1.3869338 0.72959185 0.63092512 16.101
1.4336903 0.77811784 0.65586793 16.7675
1.5246352 0.74021804 0.67017215 16.598499
-2.2240725 0.87368733 0.68822002 14.0445
-2.1628683 0.88975799 0.69110262 15.04475
1.2930717 0.82695121 0.67476416 17.105
1.5442631 0.84206259 0.68220794 17.599751
-2.1371329 0.99557698 0.66342312 17.0445
1.2555817 0.99337375 0.65046632 19.105
1.3877897 0.95793289 0.64366728 20.10075
1.546559 0.93814886 0.66114312 19.098751
-2.213006 1.0607737 0.62003493 17.700001
1.239436 1.0504208 0.64559114 20.105
1.5347247 1.0623406 0.65315294 21.098751
-2.0909045 1.1310233 0.64850259 18.5445
-1.8933463 1.1596979 0.67375481 19.377167
1.3687949 1.1254289 0.63369834 22.35075
-2.1354098 1.214298 0.64570975 20.0495
1.2460862 1.2792649 0.61736274 23.105249
1.4736533 1.2425796 0.69124836 23.1005
1.5091153 1.2163106 0.6664806 23.098499
-2.076699 1.3310755 0.66676182 21.366583
-1.8680052 1.3340595 0.63417125 22.121876
-2.1232762 1.4445995 0.64113003 23.054626
-2.0623131 1.445749 0.61832136 23.04425
-1.8362675 1.4331911 0.64373052 23.043751
1.3249468 0.17384523 0.72942352 6.5555553
1.4489913 0.25266966 0.75176883 8.0984993
-2.2753367 0.3431415 0.77397734 6
1.5275438 0.3358818 0.79808849 9.0970001
1.3576696 0.40126845 0.74992728 11.0995
1.497214 0.41809481 0.73734838 10.5975
1.5362396 0.46982256 0.756185 11.10025
1.3106643 0.54561687 0.75089359 12
1.5294656 0.5566318 0.73486632 13.09775
-2.2297809 0.68528831 0.76474094 12.0555
-2.1944902 0.67079353 0.77263939 11.0455
1.2553737 0.63716656 0.73723853 14.2995
1.3014539 0.68130869 0.78819478 14.604
1.4205458 0.64369273 0.75786507 14.599625
1.5622618 0.64212859 0.73927939 14.265833
-2.1364868 0.74757463 0.75256878 13.0455
1.2815329 0.70940804 0.76457 15
1.4406168 0.7651099 0.75679094 16.599751
1.5493623 0.75339907 0.74035323 16.09775
-2.1611018 0.82543749 0.71625739 14.045
1.2851799 0.8167572 0.74107873 16.5
1.5453861 0.8690781 0.75701779 17.348875
1.3945436 0.96983492 0.75386524 19.599501
1.5579385 0.96677065 0.73851061 19.431166
-1.8537668 1.0907785 0.76689827 19.045
1.2829242 1.0782571 0.73908067 19.60425
1.3742528 1.0841353 0.78523391 21
1.5546879 1.063816 0.75260985 20.764334
-1.8715097 1.1588421 0.74364376 19.711334
1.2501175 1.1457313 0.76179618 23.098499
1.3461967 1.184773 0.74485934 22.599251
1.5397198 1.1444377 0.77777743 22.09725
-2.1025586 1.2440505 0.70638168 20.5555
-2.0543146 1.28958 0.77319717 21.056499
-1.8356172 1.2831391 0.76023889 21.045
1.2869105 1.2758543 0.75734782 22.104
1.4752102 1.2445525 0.73615676 23.1
1.5141797 1.2451959 0.74650055 23.097498
-2.0646343 1.3534492 0.71372598 21.550499
-1.8542243 1.3021533 0.72355396 21.0445
1.2405635 1.3556317 0.77878523 23.1035
-2.0725274 1.4605539 0.74286622 22.925812
-1.8139085 1.4392152 0.72766334 23.04475
-1.796468 1.4440919 0.7875011 23.0455
1.4372048 0.28438377 0.85697359 8.5987501
1.5539106 0.33489668 0.84990203 9.0965004
1.5357456 0.44641286 0.83605981 10.598
-2.1655264 0.53473401 0.87089419 9.7784996
1.2957009 0.57875848 0.85346138 12
1.4403017 0.59013629 0.85647392 13.432
-2.1894512 0.63754779 0.89576703 11.04675
-1.852958 0.68540817 0.85850227 13.046
1.4389138 0.69450682 0.8671515 15.0985
1.5808196 0.62937093 0.86416936 13.597876
-2.1512108 0.7250542 0.84387803 12.364334
1.2766287 0.71843857 0.82573271 15.1035
1.4556134 0.79791665 0.85963488 16.432001
1.5873178 0.71229279 0.87189806 14.714916
1.3289285 0.82465404 0.89977682 16.103001
1.4035294 0.8766101 0.8038519 18.099001
1.5794387 0.82923704 0.83956134 16.54825
-1.8278346 0.92837834 0.87568688 16.5
1.331081 0.96907312 0.8985287 18.103001
1.5538936 0.93815953 0.8276785 18.598125
-2.0612373 1.0639657 0.89040393 17.533333
-1.8077731 1.026742 0.86537117 18
1.3341373 1.0732331 0.8321681 20.100876
1.5635737 1.0624917 0.8332209 20.09675
-2.0341692 1.1929444 0.80341452 20.046499
1.2787148 1.1404032 0.85585839 20.934584
-2.0419464 1.265497 0.86769104 20.557501
-1.8492067 1.2553399 0.83651793 20.522999
1.5235868 1.2800431 0.86974138 22.098751
-2.0102198 1.3598148 0.80164498 22.046499
-1.8066016 1.3106782 0.89126915 21.046499
-2.0292103 1.4618059 0.84865654 22.71879
-1.7818699 1.4451414 0.84945428 23.023251
1.2909974 1.4335891 0.85741067 23.103001
1.2761557 0.019006651 0.92652619 3.6666667
1.6065978 0.089584798 0.99690193 4
1.5893761 0.14505599 0.97068661 5
-2.2066412 0.2620869 0.91849637 5
1.2926736 0.21714756 0.93062031 7
1.3051574 0.26915362 0.97127831 8.1025
1.4582837 0.28871027 0.98642236 8.0974998
1.5905356 0.21954986 0.98870653 6.2857141
1.6033033 0.26919234 0.96911877 7
-2.2059126 0.31457964 0.97443742 6
-2.1511369 0.31601003 0.94946337 6.0869565
1.58506 0.31174135 0.93000793 8
-2.1204567 0.47217456 0.94827712 8.5476246
1.330139 0.42985338 0.97151649 10
1.5691695 0.44840989 0.93944615 10.549125
-2.1685266 0.57670504 0.96942151 10
-2.0862386 0.54552925 0.92001182 10.0475
1.2677548 0.54766858 0.96288633 13.5965
1.4480834 0.52563709 0.9523806 12.09775
1.592465 0.56704748 0.94326478 12.59575
-2.148922 0.67754781 0.91033667 11.728261
1.3339868 0.60971177 0.96602082 13.1025
1.4421742 0.61611062 0.96553904 13.0975
1.592876 0.64428234 0.96614599 13.5955
-2.0682125 0.74608147 0.91187179 13.0475
-1.8506246 0.72849435 0.92657518 14
1.3441725 0.77608049 0.95668137 15.0515
1.4366944 0.78053808 0.9284184 16.097834
1.584374 0.72922701 0.9349215 15.09575
1.6004995 0.74062705 0.95452952 14.548
-2.0519528 0.87873876 0.90385538 15.0475
-1.8228611 0.8671487 0.9329896 15.7135
1.5659981 0.96612167 0.9350239 18.429001
-2.0553751 1.0549326 0.92584038 18.058001
-1.825899 1.0308815 0.95336175 18.047001
1.3789923 1.084133 0.92177087 21.0975
1.5480074 1.0456628 0.93717664 20.095501
1.6052346 1.0310014 0.96679425 18.598249
-2.0522099 1.1463195 0.92562687 19.058001
-1.9482927 1.150635 0.99924731 19
1.24823 1.1454396 0.93150932 22.096502
1.5258825 1.1487079 0.9561711 21.297501
-1.9559412 1.2695894 0.90913415 21.048
-1.8036994 1.2422011 0.93945473 20.547001
-1.7862828 1.2795936 0.9786123 21.047501
1.4882007 1.2838541 0.92431289 22.865
-1.7871144 1.3247094 0.9580611 21.71125
1.4752731 1.3082662 0.98398018 23.0945
-1.9719043 1.453775 0.93726271 22.551626
-1.7524629 1.4745963 0.93640101 23.047251
-1.9342115 1.5078036 0.95091009 23.0485
-1.8532997 0.0069786608 1.0560131 2
1.5966128 0.016327295 1.0565581 2
1.3322712 0.14663424 1.0497085 5.5555553
-1.8540188 0.20273124 1.0399002 5.4444447
1.6140339 0.23308702 1.0839926 6.25
1.3316801 0.37068635 1.0087411 9.1022501
1.4548764 0.30457214 1.0612359 8.0967503
1.6072556 0.30752835 1.070821 8
-2.0757391 0.4454309 1.0539259 8.3822508
1.3491875 0.45535058 1.0410674 10.625174
1.6035509 0.44430524 1.0466932 10.094749
-2.1484296 0.59407073 1.0503659 10.0485
-2.0652823 0.53918594 1.0736318 9.3824997
-1.8285753 0.58480626 1.0310233 11.421053
1.4288391 0.54136789 1.0622669 12.0965
1.6104112 0.56139529 1.0810143 11.54725
-2.1242621 0.67650628 1.0656568 11.04875
-1.7908183 0.69938165 1.0859081 13.0485
1.2734001 0.62431169 1.0620998 14.0955
1.5862815 0.67985106 1.0052193 13.857142
1.6092808 0.64006454 1.075416 13.04725
-2.040036 0.75192529 1.0360028 12.7294
1.2735767 0.78909481 1.0065224 17.096001
1.3441209 0.77791727 1.0309517 15.102
1.453429 0.76666898 1.0670475 15.5965
-2.030313 0.86613208 1.0413647 14.549
1.3595597 0.83727157 1.044029 15.551
1.4261041 0.85500288 1.0268855 17
1.5869379 0.86140305 1.0141735 16.547501
1.6026163 0.87001783 1.0805007 16
-1.801584 0.99441874 1.0195913 17.076923
-1.7717383 0.92101926 1.0782657 16.0485
1.2892852 0.96775621 1.0618262 19.095501
1.3878093 0.95032501 1.0515968 18.548
1.5575655 0.98042029 1.026403 18.166666
-2.037493 1.018612 1.0227007 16.52425
-1.8337442 1.0094637 1.0037352 17.047501
1.3266596 1.099635 1.0022562 19.101999
1.5952802 1.0843283 1.0365789 19.0975
-1.9599353 1.1720973 1.0468997 19.036499
1.2400084 1.1418341 1.0472245 22.095249
1.4238024 1.1159403 1.0896115 20.096001
1.5223061 1.1728798 1.0635666 21.094
1.1929746 1.2417266 1.0569637 23.094749
1.5073184 1.2339152 1.028193 22.09425
-1.7251794 1.3697386 1.0973122 21.549
-1.940991 1.4437214 1.0865754 22.18675
-1.854622 1.4351034 1.0485494 23.049999
-1.9483109 1.5411561 1.0372086 23.054501
1.2984958 -0.021886321 1.1025089 2
-2.0978484 0.091723412 1.170417 2
-1.7952813 0.080691591 1.1716689 4
-2.080152 0.27319002 1.1719519 5.1904764
1.4382389 0.24786475 1.1971794 7.4000001
1.3638495 0.34866494 1.1168588 8.1014996
1.4529605 0.33301046 1.1940738 9.0955
-2.030705 0.40278473 1.1489807 7
1.3621223 0.43985566 1.1511607 9.8007498
1.5382299 0.45762253 1.1271169 10.0965
1.611634 0.45323771 1.1821378 9.5935001
-2.0062959 0.58884525 1.1466751 10.274876
1.4285617 0.54738569 1.1515344 12.095625
1.6113253 0.53698897 1.161095 11.04675
-2.0532343 0.66036594 1.1531152 11.248751
-1.9950109 0.66254956 1.1872692 11.5
1.2803535 0.66041058 1.1402853 14.094749
1.369506 0.6569882 1.1068391 13.1015
-2.045537 0.71060437 1.1023962 12.0495
-1.7712235 0.72180068 1.1574285 13.5
1.3592887 0.76682496 1.1313392 14.217333
1.4045541 0.72679549 1.1206316 15.09575
-1.9929981 0.84321964 1.1502025 14.30025
-1.7646459 0.85639203 1.1570301 15.27475
1.4300945 0.85598648 1.161644 16.095501
1.502183 0.81213468 1.1494871 16.096001
-1.9600381 0.92441833 1.1568472 15.550501
-2.0047905 1.0244046 1.1037002 17.059999
-1.9694173 1.0380006 1.1355398 16.902143
-1.9559005 1.1386578 1.1242179 18.393835
-1.8370062 1.1828971 1.1405241 19.717751
-1.74007 1.1972201 1.1520196 20
1.4255486 1.1496809 1.1574016 20.595375
1.5183766 1.1410278 1.1092428 20.546749
-1.9366518 1.2534875 1.1707438 19.703917
-1.9372625 1.3335338 1.1283951 20.814611
-1.7058748 1.3511097 1.1367384 21.5
-1.6971344 1.3924712 1.1882275 22.049999
1.5159554 1.3440768 1.1632211 22.593
-1.8471005 1.450527 1.172619 22.382893
-1.7702968 1.4871575 1.1931063 23.052
-1.6645617 1.4311093 1.1698914 23.049999
-1.8483729 1.5072434 1.148035 23.051001
-2.0188766 0.088190891 1.2970078 2
-1.7844468 0.07247901 1.2063792 3
1.3578051 0.077521935 1.2573428 4.5
1.4147022 0.047053408 1.2217858 4
1.6178901 0.13316704 1.2659349 4
-1.9969463 0.2952376 1.2976338 5.5
1.3617398 0.23914814 1.2311856 7
1.4338484 0.20456441 1.217181 6.5999999
-2.0298085 0.39472902 1.2197541 7
1.4427449 0.34032458 1.2202594 9
-2.0159099 0.4421421 1.2397184 8.0509996
-1.9968222 0.44735008 1.2540771 8.0614996
1.3690375 0.44473115 1.2444082 10.0985
-2.0010738 0.54826581 1.2267064 10.051
-1.9746737 0.56380725 1.2946851 10.05175
-1.7403743 0.5650115 1.2641187 10.775249
1.4450274 0.50174505 1.2323378 11.095
1.6082072 0.5432843 1.2414622 11
-1.9660773 0.66377115 1.2639234 11.025625
1.2772913 0.6668601 1.2709773 14.0935
1.4212919 0.62128484 1.2399514 13.094749
1.5905836 0.64023042 1.2174489 12.593
1.7126837 0.6259988 1.2304623 12.0965
-1.8875408 0.74475366 1.2350714 13.05175
1.4100093 0.72492099 1.2627978 13.1005
-1.9117768 0.81289089 1.2724285 13.5
-1.7691387 0.81034303 1.2945615 14.0505
1.461628 0.8836385 1.2380034 16.094999
1.5254595 0.8306489 1.2747227 15.095
-1.9290804 0.92156297 1.2365561 15.5
-1.7346075 0.92126906 1.2692872 16.050501
1.5366402 0.93424737 1.2775266 16.796
-1.9637975 1.0549955 1.2439592 17.05125
-1.8173363 1.0823491 1.2714533 18.0525
1.4419415 1.0564883 1.2505277 18.427999
-1.9218003 1.1505259 1.2632929 18.041166
-1.8477449 1.1504667 1.2180722 18.55175
1.4403119 1.1894872 1.2612689 20.0945
1.5460829 1.1601529 1.2972363 20.091999
1.2334006 1.2971321 1.2671058 23.093
1.5283782 1.2545745 1.2815789 21.091999
-1.863687 1.3665563 1.2635834 20.900938
1.528688 1.3705113 1.2516007 22.592251
-1.6566406 1.4242741 1.2350949 22.384001
1.5256571 1.4173563 1.278836 23.091999
-1.7421117 1.5096805 1.25282 23.026501
-1.5978922 1.5263804 1.2767454 23.0515
-1.9713621 0.15258795 1.3841527 3
1.6103759 0.1879535 1.3163199 5.25
-1.9501059 0.23219164 1.3662138 4.5
-1.731915 0.23546945 1.3851049 5.8461537
1.5953153 0.3636283 1.3939887 8.0915003
1.6376746 0.30181789 1.3725166 8.0950003
-1.9664086 0.42483082 1.3485644 7.776
-1.7184478 0.41720322 1.382706 9.0515003
1.3573308 0.45643437 1.3265636 10.09675
1.5943097 0.41668007 1.3937138 9.0915003
1.6186967 0.47565624 1.3637524 10.095
-1.9354715 0.57677901 1.3580769 10.0525
-1.7404079 0.52647322 1.333957 10.051
1.5792447 0.52342272 1.3801636 10.0915
-1.9259195 0.62162316 1.3161377 11.05225
-1.7224253 0.65864033 1.3171948 12.051
1.4810355 0.61247569 1.3749052 12.094
1.5800356 0.6054461 1.3524978 11.666667
-2.0646839 0.7539252 1.343843 12.0515
-1.9217545 0.70382732 1.3574579 12.06275
-1.8492224 0.74968159 1.3169025 13.05275
1.2349361 0.77294117 1.3747002 15.342251
1.4660652 0.78486651 1.3612015 14.594
1.5675724 0.70632094 1.3674315 13
-1.9101679 0.85736054 1.3315086 14.3075
-1.8617492 0.80710185 1.3581742 14.053
-1.7323447 0.82917809 1.3610188 14.05125
1.5174887 0.87945884 1.3294648 15.5945
-1.9020107 0.92159271 1.3085575 15.05225
1.5155156 0.94124091 1.3897407 16.094
-1.9230742 1.0517286 1.3159173 16.557251
-1.7932365 1.0566403 1.3370757 17.053249
-1.6755614 1.03775 1.3963107 17.09091
1.5514141 1.0913662 1.3578225 18.091499
-1.9377544 1.113142 1.3739384 17.0525
-1.8607281 1.1138775 1.3972762 17.25
1.2680323 1.1789825 1.3557453 20.592499
1.5288525 1.196684 1.3460833 20.091499
-1.848382 1.2212403 1.342872 19.386168
-1.7944858 1.2583755 1.3743526 20.053499
1.2173717 1.2961242 1.3061255 22.092501
1.547397 1.264239 1.3557853 21.091499
-1.8191688 1.3790703 1.3477731 20.776375
-1.7690592 1.395571 1.3549552 21.200001
1.4631951 1.3029121 1.3304318 21.094
1.5375508 1.3436949 1.3458327 22.091499
-1.6200739 1.4698505 1.3293457 22.55175
-1.5762775 1.4918262 1.3835146 23.0525
1.5095326 1.4960389 1.3259698 23.091499
1.5855696 0.10471772 1.4759293 3.6666667
-1.9439503 0.25549409 1.415188 5
1.4802113 0.29495582 1.4476864 8.0935001
1.5900041 0.20578918 1.4029124 5.2727275
-1.8994679 0.37696981 1.4500141 6.5
-1.7256744 0.35361308 1.442243 8.052
1.5817143 0.31381986 1.4375054 7
1.6513004 0.3180708 1.4461057 8.0944996
-1.9119565 0.4592624 1.4303558 8.5583754
-1.8802471 0.41895461 1.4857957 8.0539999
1.4865022 0.40444866 1.4521745 9.0935001
-1.9144671 0.50528252 1.4078431 8.75
-1.8803041 0.5935185 1.4407771 10.053625
-1.7135735 0.56447601 1.4164482 10.5
1.4874175 0.51035351 1.4465724 11.0935
1.5585394 0.55650395 1.4202425 10.5
-1.8341292 0.65433645 1.4490787 11.027
-1.7895491 0.66216546 1.4696234 11.0545
-2.0214419 0.78156811 1.4481424 12.052626
-1.8408625 0.76155615 1.4558452 12.559
-1.7820227 0.74918884 1.4078238 13.054
1.4696052 0.78629589 1.4875547 14.093
-1.8685876 0.8374297 1.4433531 13.56375
-1.6860384 0.84911507 1.4432801 14.05225
1.4827914 0.84880441 1.4593587 15.09325
1.5773789 0.83014858 1.4411722 15.091
-1.9188666 0.9470768 1.4144108 15.026501
-1.8487978 0.94896126 1.4617134 15.064
1.4890928 0.94113451 1.4331648 16.0935
1.5728731 0.93927622 1.4323554 16.1455
-1.7405404 1.010017 1.4688747 16.55475
-1.8429499 1.123207 1.4757812 17.054001
-1.8218843 1.2173936 1.4728189 18.75
-1.7799586 1.2525582 1.4799013 18.532249
1.5546715 1.2712793 1.4553237 20.59075
-1.7758185 1.3688499 1.4566475 20.53455
-1.6644561 1.3097489 1.4519297 20.805126
1.2211876 1.3231356 1.4568436 22.091249
-1.7614102 1.4486291 1.4116418 22.054001
-1.7175848 1.5004904 1.4990408 22.055
-1.599534 1.5128586 1.4680754 22.052999
1.4409857 0.072443448 1.5462923 3
-1.8746544 0.19585198 1.5158708 4
-1.6797473 0.11892131 1.5977378 4
1.4710391 0.17822208 1.5333506 5.25
1.4784677 0.22193915 1.5435715 6
-2.0431979 0.30010054 1.5650623 5
-1.8515882 0.38241705 1.5353419 7
-1.7061388 0.34739929 1.5410973 7
-1.8467671 0.45926636 1.5139072 8.0594997
1.3519619 0.44241643 1.5967526 10.0915
-1.8678658 0.55997479 1.5475055 9.5594997
1.5886978 0.58044052 1.5179211 11.0905
-2.0126219 0.67205662 1.5161113 11.05325
-1.8579302 0.63018101 1.5533546 10.532249
-1.778147 0.67996013 1.5240684 12.055
1.4958925 0.60981262 1.5163281 12.093
1.5911865 0.6545651 1.5546956 11.59025
-2.0040615 0.74072778 1.5401474 12.0535
-1.854633 0.79045486 1.5517985 12.5
-1.7157478 0.72518623 1.5328609 12.8055
-1.6606581 0.75688052 1.546708 13.026501
-1.6022364 0.88890302 1.5984222 15.054
1.2564449 0.84363234 1.5486639 15.091
1.5841835 0.84645474 1.5518845 14.545
-1.8853238 0.9288826 1.5249418 14.804125
-1.6310014 0.90336114 1.5496675 15.333333
-1.6040577 1.0750854 1.5609436 17.5
-1.5996511 1.0113618 1.595847 16.054001
1.5675988 1.0534756 1.5473444 17
-1.817523 1.1971624 1.5902345 18.055
-1.5954639 1.1574874 1.51495 18.5
-1.7233984 1.2826196 1.5725178 19
-1.6037533 1.2175995 1.5492051 19
-1.5966094 1.2195911 1.5574484 19.026875
-1.7132797 1.3394591 1.5698398 19.466278
-1.6463746 1.3431511 1.5230048 20.528
-1.5841208 1.3687522 1.5429158 21.056499
-1.7393613 1.4520409 1.580936 21.0655
-1.5391483 1.4052576 1.5984807 21.557251
-1.6611106 1.5331738 1.5711528 22.056
1.6941706 1.5876596 1.5983614 20.099501
1.6553401 1.8637668 1.5137674 23.099751
-1.6281663 0.21424235 1.6983521 5.4285712
1.6149558 0.2524699 1.6513752 6
-1.8105134 0.31398275 1.6574717 5.7333331
1.5991957 0.4890371 1.6030586 9.0900002
1.6124152 0.45589888 1.6670959 8.5447502
-1.6275574 0.58901304 1.6600676 10.5
1.5314939 0.52870947 1.6868634 10.092
1.6094774 0.51830345 1.6240567 9.5
-1.8131992 0.66627014 1.6550345 10.889
-1.7882386 0.66595906 1.6786331 10.555555
-1.6925189 0.69689524 1.6095586 12.05625
1.5903883 0.62318611 1.6202896 11
1.6118177 0.64824116 1.6883901 11.0895
-1.9642944 0.76330876 1.6108785 12.05425
-1.7857087 0.75248873 1.6931362 12
-1.6321981 0.72104573 1.6458206 12.057
1.5960721 0.70874608 1.6614482 12.0895
-1.8267365 0.93170106 1.6180875 14.55525
-1.7626541 0.94897789 1.6836076 14.722833
-1.6634067 0.97330642 1.6553855 15.556749
-1.5918475 0.91025531 1.6603082 15.0545
1.592702 0.92605394 1.606599 15
1.6076664 0.93125755 1.6787043 15.0895
-1.7616013 1.0560962 1.6388642 15.938597
-1.573706 1.0307888 1.6442224 16.387835
-1.7292631 1.132388 1.6298503 17.056
-1.6007842 1.1982293 1.6014228 18.054001
-1.5625321 1.1402284 1.6678524 17.55475
-1.7682979 1.2312497 1.6779631 18
-1.5720385 1.2656765 1.6456409 19.054501
-1.7114342 1.3459632 1.621173 19.566
-1.6655618 1.3499929 1.6699818 19.396666
-1.5608702 1.4313672 1.6999034 21.057751
-1.4677501 1.4384227 1.6527811 22.05825
2.0578372 1.6647588 1.693444 21.0945
1.652871 1.8824235 1.6317912 22.599001
-1.60541 0.020066086 1.738601 3
-1.5906675 0.0037000701 1.7529073 2
-1.7614318 0.39967492 1.7682251 6.5
1.6126397 0.38604105 1.7611657 8.0889997
-1.7664443 0.44758734 1.7413216 8.0664997
1.3478136 0.4462634 1.7326567 9.0904999
-1.7734146 0.51893437 1.761704 9.0567503
-1.7815866 0.63753027 1.7015631 10.55625
-1.6978827 0.69487196 1.798126 11.0575
-1.5721865 0.70243371 1.7187856 12.058
-1.7301393 0.93260711 1.72957 14.05675
-1.6075022 0.96860093 1.7714041 15.058
-1.5332581 0.96592951 1.7542222 15.5555
-1.6777451 1.1452819 1.7166303 17.056999
-1.7489028 1.2534245 1.7329788 18.056499
-1.6735778 1.2433631 1.7263228 17.783501
-1.6452255 1.3588495 1.7434361 19.807377
1.7360322 1.3866549 1.7877715 17.5
-1.4272144 1.4790027 1.709659 22.059
1.7272054 1.44872 1.7224039 18.099001
-1.6510906 1.5099448 1.7007042 22.056999
-1.4027939 1.5140915 1.7574228 22.0595
-1.3702996 1.5407642 1.7942306 23.059999
1.7110149 1.6186658 1.7383868 20.098751
-1.6865541 1.7543122 1.7631854 23.054501
1.6459005 1.9668126 1.7483479 23.098249
-1.7505817 0.25750262 1.8390601 4.8214283
-1.5598694 0.21314768 1.8289058 5.2142859
-1.7274077 0.34120962 1.8624763 6.5
-1.7328787 0.52006435 1.8355802 8.5574999
-1.8874462 0.64299381 1.857049 10.0565
-1.6499703 0.67323768 1.8658081 10.918139
-1.5270165 0.64599168 1.8501997 10.760519
-1.562027 0.78218246 1.8765516 12.5
-1.4932188 0.71576107 1.8954791 12
-1.8688519 0.89525598 1.8534526 13.0565
-1.6357954 0.88468319 1.8915235 14.0585
-1.5263084 0.80507994 1.8415346 13
-1.6559234 0.95556593 1.8163439 14.486333
-1.5420727 0.96839172 1.8205376 15.057834
-1.4898839 0.96917045 1.8581612 15.0565
-1.6259236 1.0454204 1.8415066 15.068
-1.5156227 1.0026404 1.8022493 16.056
1.7572236 1.0613428 1.8778306 14.5
-1.6533568 1.198446 1.8060373 17.067499
-1.5986152 1.1019214 1.8970292 16.05875
1.7530485 1.1898896 1.8450249 16
-1.6958313 1.2873682 1.8241798 18.057501
-1.5792875 1.2413552 1.8629545 18.057251
1.7062835 1.6352894 1.8686229 20.098
2.0257936 1.6730877 1.8271866 20.0935
1.6954302 1.7349604 1.8437902 21.098
-1.7289357 1.8912007 1.8848099 23.055
2.0597851 1.8006777 1.8497005 21.0935
-1.6601597 0.35882559 1.9395515 6.1666665
-1.6487391 0.45818621 1.9256729 8
-1.8480203 0.64204276 1.9370271 10.05725
-1.6437267 0.64785677 1.9273816 9.9222221
-1.4749122 0.67372513 1.909875 11.06
1.7729467 0.63815469 1.9874817 10.098
-1.6228954 0.73445821 1.9613148 11.022916
-1.4940034 0.71280187 1.9506959 12.057
-1.6201565 0.89447957 1.9502679 13
-1.5083966 0.80865157 1.9428773 13.058374
-1.4451444 0.81568635 1.9417363 13
1.7769693 0.85015827 1.9779199 12
-1.6037 0.91206288 1.9078265 13
-1.591615 0.91814286 1.9863135 13.069
-1.4805709 0.98140079 1.9433594 15.059083
1.7811693 0.97495353 1.9627236 13
-1.5920653 1.3225476 1.9830565 18.056499
1.7289807 1.4010688 1.9683758 17.200001
1.8188601 1.46059 1.995297 19.091499
-1.6217164 1.5554371 1.9388144 21.056
1.7049834 1.6404036 1.9077314 19
2.0269015 1.6957411 1.9909954 20.092501
1.6897486 1.8052148 1.9274851 21.0975
-1.7262197 1.9062345 1.9667399 23.0555
-1.6163293 0.19603568 2.0264618 4
-1.4603902 0.11532394 2.0373387 4
-1.6922793 0.29386318 2.0217907 5.5
-1.4727216 0.23595345 2.0284851 5.5
-1.6362698 0.33880731 2.0175152 6
-1.5831486 0.36974868 2.0677094 6
-1.462674 0.34549242 2.057266 6.5
-1.5868337 0.47953403 2.0762515 8.0600004
-1.4565842 0.45379359 2.061142 8.2789993
-1.6233702 0.56415898 2.0018933 9
-1.5849296 0.56044805 2.0509095 8.7800007
-1.4575157 0.54271233 2.0393336 9.5289993
-1.617123 0.66542655 2.0213807 10.069
-1.5262527 0.62585187 2.0353799 10.06025
-1.4416523 0.65755332 2.0205932 10.780624
1.7846013 0.65051067 2.0997496 9.5974998
-1.58653 0.79071259 2.0412462 12.05975
-1.4291887 0.82932997 2.0267365 13.061
-1.4244905 0.99811548 2.032692 15.061
1.7516309 1.2564126 2.0698135 15.571428
1.8828652 1.2288284 2.0676184 16.091499
-1.6742803 1.3289566 2.0710809 17.068501
1.7512301 1.5830289 2.0305936 19.29425
1.8072565 1.6802005 2.050673 20.591
1.7970674 1.7302989 2.0776262 21
1.8247257 1.8081501 2.089736 21.088499
-1.7127433 1.9549522 2.04107 23.056
1.7584438 1.9694333 2.0756299 23.0905
1.7507986 0.025445497 2.134218 3
1.7759684 0.24926332 2.137794 5.5
-1.5154862 0.45016432 2.1047397 8.06075
1.7809761 0.44955462 2.121628 7.7987499
-1.4100828 0.50284624 2.1054955 9.0585003
2.0829287 0.58781904 2.1844897 9.092
-1.5355006 0.65026987 2.1269417 10.310625
-1.3023436 0.61508751 2.1590049 10.06275
1.7910537 0.66014367 2.1251621 9.5
2.2496815 0.74622178 2.1857674 11.092751
-1.3439608 0.86449254 2.1439443 13.06225
1.7743627 0.92234325 2.1118958 12.375
-1.3806448 1.0175657 2.1199284 15.06175
1.7562584 1.2447399 2.1498685 15.5
1.9032235 1.2657378 2.1655698 16.091
1.7181712 1.4716671 2.1277072 17
1.7163464 1.5281309 2.1129267 18
1.8346053 1.522279 2.1627748 18.54525
-1.7144784 1.6940503 2.1773765 20.068501
-1.6600286 1.6134237 2.1683273 20.056999
1.8331736 1.6537971 2.1605301 19.75
1.7894299 1.7644699 2.1211205 21.0905
-1.7428292 1.8460935 2.1116893 22.068001
-1.6964995 2.0008206 2.1153777 23.056499
1.7637738 0.13231161 2.2151175 4.25
-1.4400916 0.4949086 2.2497292 8.0620003
-1.4156797 0.59317654 2.2626216 9.0622501
1.7817076 0.5374006 2.2071493 8.5
2.0940187 0.59926039 2.2995899 9.0915003
-1.5160706 0.60100025 2.2190115 9.0612497
-1.4762213 0.60253996 2.2004738 10.0585
-1.3024817 0.89700657 2.2436442 13.063
1.7788242 0.87286901 2.2367001 11.5
1.749077 1.0413506 2.2197659 13.5
1.9648089 1.0913107 2.235415 14.091
1.8535156 1.1351087 2.2174497 15.0905
-1.6404917 1.2420975 2.2375491 16.0695
1.8985703 1.3047953 2.2705262 16.0905
1.8288262 1.5479066 2.2742722 18.59
-1.6646423 1.6878475 2.2786407 20.057501
1.5105584 1.6846293 2.2797749 20.087999
1.8514334 1.6032293 2.2983172 19.0875
-1.684891 1.731467 2.2720122 20.564499
1.8255076 1.7531986 2.264838 20.588749
1.7901995 1.849159 2.2545924 21.293751
1.8089203 1.842757 2.2419078 21.111111
-1.731873 1.9316202 2.2246883 22.068501
-1.685608 1.9366879 2.2708552 21.569
1.7930777 1.9370606 2.2362516 22.0875
-1.7356825 2.0549893 2.2915304 23.0595
1.7657082 2.0468802 2.2846074 23
1.7588054 2.2634883 2.2428844 23.096251
1.6992258 0.021325545 2.3229041 2
1.7607554 0.14290503 2.3479977 4.3333335
1.7650229 0.23753825 2.3649244 5
1.7623233 0.42001474 2.3693676 7.0999999
2.0894697 0.59972131 2.382956 9.0909996
-1.4952003 0.64274526 2.3477478 10.059
1.7595431 0.60687631 2.3755054 9
1.7775704 0.76138061 2.300221 10
1.8939776 0.72862947 2.3820291 11.09
1.7662746 0.8126291 2.3191185 11
-1.5484867 0.94959754 2.3450909 13.059999
1.8695884 1.0270631 2.3396227 14.09
-1.5730079 1.1498669 2.3573787 15.0585
1.8659234 1.1546766 2.3371077 15.09
1.9823029 1.1184821 2.3603013 14.0905
-1.6351585 1.2647215 2.3960781 15.07
1.8907735 1.3413553 2.36376 16.045
-1.6344013 1.4155351 2.3376501 18.058001
1.8556639 1.4409535 2.3375497 17.25
1.5413015 1.5488669 2.3356681 19.087999
1.8350172 1.5523763 2.3714943 18.0895
1.8412781 1.6706778 2.3658202 19.5
-1.6462346 1.7341036 2.3470228 20.058001
1.50225 1.7097701 2.3892889 20.0875
-1.6676828 1.8196442 2.3701887 20.0695
-1.6612071 1.9664327 2.3564506 22.0695
-1.6564698 2.0455675 2.3927324 22.560499
-1.5680451 2.1704097 2.3593502 23.035
1.6404349 2.2702882 2.3622026 23.094999
1.8627312 2.239779 2.3757887 23.0895
1.7409326 2.3218453 2.3733907 23.095501
1.7508289 0.10931354 2.4577715 4
1.7634844 0.46409196 2.4171379 8.0959997
1.7647215 0.60097027 2.4052124 9.0959997
1.8651434 1.1048782 2.4779949 14
1.8691419 1.2313359 2.4311297 15.166667
-1.6353474 1.6394324 2.4475591 19.064251
-1.6237503 1.79623 2.4292736 21.0585
1.4873655 1.722734 2.4643142 20.087
1.7939463 1.7072963 2.4919946 19
-1.6289018 1.8628083 2.443675 20.5655
-1.5897639 1.8439375 2.4981248 21.059
1.7822061 1.8619035 2.4412127 21.0865
-1.604277 2.0220709 2.424046 22.035
-1.5697429 2.1074724 2.4933815 23.061501
1.2103034 2.2441239 2.4894085 23.091999
1.3578879 2.255177 2.4717965 23.093
1.7743895 2.218118 2.4815125 23.088499
1.8121419 2.2278357 2.432307 23.089001
2.1814826 2.2874565 2.4030478 23.091
1.5584182 2.326262 2.4896402 23.094
1.6147596 2.3289065 2.4585664 23.0945
1.7416822 2.3072913 2.494683 22.094999
1.9003346 0.44143814 2.5387619 8
1.9029505 0.64669859 2.5447354 9
1.8887174 0.76206744 2.5852318 10.416666
1.8908197 0.8977859 2.5744882 11.0865
1.8834691 1.0552323 2.5737677 13.2945
-1.6240124 1.2871457 2.5350261 15.0705
-1.5903693 1.2581439 2.5043919 16.059
-1.5748143 1.3270246 2.5644286 16.062
1.8532532 1.3519634 2.5337667 15.877834
-1.6255603 1.4594501 2.5372944 16.570499
-1.6067696 1.5786569 2.5430269 18.279499
1.8171237 1.5681345 2.5969694 18
-1.7515965 1.6697536 2.5195923 19.060499
-1.6125081 1.6125197 2.5318727 18.070499
-1.5707505 1.6577274 2.5883901 19
1.5224357 1.6064813 2.5305281 19.087
1.8196731 1.6743057 2.5034709 18.5
1.4706841 1.7376705 2.5574183 20.0865
-1.5618176 1.9148324 2.5213532 20.583332
1.8051808 1.9051944 2.5887439 20.086
-1.6127534 2.0253503 2.5617237 22.061501
-1.4499419 2.0239432 2.5227768 23.0625
-1.4688656 2.1666737 2.5230672 22.875
1.1619507 2.2499647 2.5461841 23.091499
1.6370853 2.2613738 2.5707533 23.084999
1.7562599 2.2355249 2.571979 23.087999
1.4811202 2.310822 2.5094321 23.0935
1.6494306 2.3098187 2.5110495 22.0945
1.8780038 0.46403661 2.6100495 8.0889997
1.893043 0.56040007 2.6392658 8.5
1.9138869 0.52026558 2.6025648 8.0865002
-1.3888495 0.6273216 2.6879585 9.0640001
-1.569502 0.97027755 2.6770563 12.030001
-1.576756 1.0767545 2.6020713 14.0595
1.8957336 1.018501 2.6382384 12.4
-1.6019647 1.2811438 2.6309628 14.571
-1.5615106 1.2291095 2.6943414 15.061251
1.8507223 1.2692991 2.6882546 14.5
-1.6062734 1.3707249 2.6404328 15
-1.5561852 1.3360815 2.6800835 16.059999
1.50477 1.3389555 2.6401966 16.0865
1.8449837 1.4374597 2.6558704 16.5
-1.5788292 1.5604174 2.6404748 17.5
1.5040934 1.6301966 2.6237781 19.0865
-1.7278006 1.7135726 2.6115487 19.061001
-1.5402507 1.7356378 2.6068265 20
-1.5680256 1.9960366 2.6279616 21.5
-1.4505806 1.9201598 2.6995244 20.666666
-1.5615044 2.0010464 2.6307166 21.5
-1.4298815 2.0229282 2.6500466 21
-1.3859215 2.0885365 2.6129587 23.06325
-1.4114904 2.1790469 2.6180031 22
-1.3229222 2.1408732 2.6893275 23.063999
-1.7159042 2.274579 2.6294472 23.061001
-1.4176093 2.2739067 2.647646 23.072001
0.67046821 2.2354741 2.6199832 23.087999
1.1445373 2.2962339 2.6590352 23.091
1.5943532 2.2548606 2.6216607 23.084499
1.4096109 2.3210499 2.6910903 22.092501
1.9203565 0.27597055 2.7717178 5
1.9206485 0.34109169 2.7153282 5.5
1.6840167 0.5467658 2.7001362 8.0874996
1.9154419 0.55768085 2.7330401 8
-1.5544586 0.64420938 2.7902071 8.5302505
1.8830509 0.65539306 2.7146766 9.0885
1.9091096 0.64721632 2.7508178 9
-1.581615 0.70017481 2.7874169 9
1.8828065 0.74491519 2.7082484 10.0885
-1.5756603 0.85410798 2.7912412 10
1.8971601 0.87859207 2.7163413 10.5
-1.5646183 1.0640577 2.7326801 12.811999
1.8788608 1.0812638 2.7247448 13
-1.567367 1.1566997 2.7331834 13
1.4959626 1.1803815 2.7605793 14.086
1.867357 1.1052873 2.7830765 13.0855
-1.544641 1.296648 2.7564838 15.5
1.8656887 1.2006555 2.7901397 14.0855
1.4904773 1.3765894 2.7448344 16.086
-1.5387549 1.4507209 2.728045 16.25
-1.6458519 1.7840919 2.7480412 19.062
-1.448754 1.7675058 2.7468245 19.119047
-1.4922354 1.9859596 2.758261 21.063
-1.5423462 2.0096097 2.7097793 21.0625
-1.425499 2.0821671 2.7563248 22
-1.3697269 2.114737 2.798806 22.063999
-1.2691622 2.1688042 2.731035 23.064501
-1.3756748 2.2731113 2.7372925 23.0725
0.56255615 2.2466142 2.723444 23.087
-1.311584 2.3858554 2.7827203 23.073
-1.2372301 2.3624117 2.755384 23.0735
1.0476807 2.3678474 2.7781997 23.09
1.1138684 2.3636956 2.7445326 23.0905
1.3743547 2.3345876 2.7589068 22.091999
1.6052672 2.3060803 2.7066026 22.0935
1.8965994 0.06872616 2.8935215 3
-1.5121586 0.10493379 2.8675075 3.5
1.9007671 0.19601844 2.8972979 4.25
-1.5215118 0.28951901 2.840503 5.5
-1.5136839 0.44308046 2.8627512 7
1.8986068 0.46988219 2.8716803 6.5
-1.5600127 0.59701192 2.8747277 7.5
1.6670592 0.55237436 2.8039126 8.0869999
1.8955612 0.67832738 2.8454821 9.0854998
-1.5676862 0.71942806 2.8214781 9
1.8833325 0.84474283 2.8092721 10.0855
1.8912284 0.93904102 2.8210511 11.0855
-1.5515599 1.0559342 2.8177261 12.0315
-1.4984452 1.0603627 2.8841882 13.061
-1.8961716 1.2118261 2.8028767 13.56075
-1.4894979 1.2321823 2.845716 14.061
-1.2913451 1.2682742 2.8831615 15.065
1.4746888 1.2004174 2.8628688 14.0855
-1.4486712 1.6216782 2.8022602 17.5
-1.3785186 1.6882815 2.8707647 18
-1.4141982 1.7434385 2.8238583 19
-1.3755677 1.7624495 2.8645225 18.75
-1.6035604 1.8138113 2.8083179 19.0625
-1.5406272 1.8394728 2.8510435 19.063
-1.3548955 1.8815497 2.8921299 20.062
-1.463309 1.9224341 2.8953695 20.25
-1.385604 2.0888875 2.8134372 22.061501
-1.1682363 2.2372251 2.8292773 23.0655
-0.36377281 2.2945781 2.8197403 23.08
-0.23184621 2.2879872 2.8994043 23.080999
-0.034577549 2.2937491 2.8436961 23.0825
0.97038615 2.2701383 2.8070092 22.0895
1.0964496 2.2426715 2.8259625 23.083
1.1947751 2.2664917 2.8565698 23.0835
1.4556774 2.2923536 2.8485017 23.084
1.6389294 2.2654259 2.8972919 22.086
-0.89761037 2.3434384 2.8011699 23.076
-0.43564481 2.3165734 2.8645749 23.0795
0.54329562 2.3390481 2.8907318 23.0865
0.87121427 2.3152587 2.8365541 23.088749
0.98806131 2.3833108 2.8251874 23.0895
1.3142883 2.328546 2.810523 22.091499
1.5883819 2.3298736 2.8030281 22.093
1.810879 2.3088717 2.8970459 22.087
-1.5543853 0.11005291 2.9693644 1.5
-1.5530666 0.3794156 2.9054747 5.6666665
1.8885574 0.31801432 2.9556139 5.5
1.8780982 0.47750461 2.9416392 7
-1.8902552 0.67901427 2.9686587 8.0614996
-1.5175221 0.69313598 2.9111552 9.5
-1.4956671 0.86926657 2.9442623 11
-1.4869627 1.0504649 2.9532938 12.032
-1.2319021 1.1237164 2.9058349 13.0655
-1.8313017 1.2540301 2.9113643 14.0615
-1.7910233 1.257679 2.978569 14.062
-1.4464526 1.2710712 2.9613149 15
-1.442022 1.3784786 2.9121192 15.666667
-1.6217315 1.4246265 2.969202 15.063
-1.5187521 1.4063288 2.9158015 15.563499
-1.4736521 1.4306723 2.9817114 16.063999
-1.3826613 1.4670203 2.9547081 15.849182
-1.4200302 1.5191355 2.9065156 17
-1.3116162 1.5739422 2.9917808 16.5
-1.3734467 1.6036711 2.9468246 17.062
-1.3242332 1.7366364 2.9606812 18.0735
-1.4985735 1.872084 2.9062579 19.063499
-1.3617554 1.8060621 2.9048052 19.062
-1.3623232 2.175014 2.9304783 22.062
-0.66425276 2.2765677 2.9910228 23.066999
0.34101486 2.2977669 2.9779091 23.084999
-1.2819109 2.3502414 2.9232514 23.0625
-0.99633473 2.3430798 2.9916975 23.066999
-0.78807741 2.3392379 2.9765601 23.077
-0.0956586 2.3196993 2.9430356 23.082001
0.048921108 2.3071928 2.9183044 23.083
0.23404408 2.3459251 2.9548302 23.084249
0.40511835 2.3502853 2.9351523 23.085501
0.64188969 2.3161883 2.9621933 22.087
0.7060746 2.3789852 2.9092569 23.0875
0.94907546 2.3159111 2.9125819 22.089001
1.187714 2.3099403 2.9065166 22.0905
1.3816283 2.3060646 2.9013963 23.084499
1.4666508 2.3182724 2.9867435 22.0825
2.0405121 2.3413827 2.9379766 22.087999
-1.7394617 0.095798545 3.0461278 3
-1.452589 0.047147948 3.0951316 1.5
-1.4669753 0.16747516 3.0795987 3.625
-1.4408704 0.23001473 3.0946636 3.1875
-1.4737455 0.56557137 3.0267093 8
-1.4466889 0.66363919 3.0526297 8.3671322
-1.3679922 0.66074795 3.0234606 8.0649996
-1.4812779 0.74956441 3.0731072 9
-1.4436839 0.97715342 3.0070202 11.7
-1.3914464 1.0752916 3.0294349 11.846154
-1.4244473 1.1397886 3.0439758 13.031
-1.7447703 1.2831762 3.0537255 14.0625
-1.4042107 1.2362365 3.0246291 14.062
-1.4349887 1.3295966 3.0387723 15
-1.3973165 1.3964874 3.0662043 15.25
-1.2602732 1.3076024 3.006341 15.0655
-1.4278185 1.487695 3.0614939 16.064501
-1.3599036 1.4790889 3.0451875 16.03125
-1.3364216 1.5654403 3.0325453 17.0625
-1.284301 1.7383831 3.0801754 17.073999
-0.83213872 2.2947211 3.0916853 23.066
-0.34051427 2.2843571 3.0845888 23.072001
0.2739552 2.2734206 3.0822771 23.073999
0.33825135 2.2642832 3.0379343 23.074499
0.40577865 2.2789948 3.0602827 23.07625
-1.2754507 2.3612413 3.0071685 23.063999
-1.1485217 2.3481536 3.0935891 23.064999
-1.0590461 2.3236022 3.0994241 23.064501
-0.95495313 2.3173525 3.0406678 23.065001
-0.89424294 2.3002465 3.0499508 23.0655
-0.50002837 2.3868806 3.0220199 23.079
0.89220142 2.3079751 3.0728824 23.078501
1.049072 2.3538234 3.0922394 23.0795
