# .PCD v0.7 - Point Cloud Data file format
VERSION 0.7
FIELDS x y z intensity
SIZE 4 4 4 4
TYPE F F F F
COUNT 1 1 1 1
WIDTH 552
HEIGHT 1
VIEWPOINT 0 0 0 1 0 0 0
POINTS 552
DATA ascii
3.6305048 0.99450582 -4.6221666 8.6289997
3.5609443 1.2225064 -4.5437846 10.129
4.305666 1.5732965 -4.7432842 11.1275
3.4570744 1.663554 -4.4845257 12.62925
3.6738832 1.7134738 -4.4505973 13.1285
3.3490717 2.1042974 -4.423687 15.1295
3.6368279 2.1171763 -4.5728602 15.129
5.0677042 2.3248205 -4.4260521 13.1245
4.3300543 0.20886512 -4.2722321 3.5
4.3400898 0.63201821 -4.2658677 5.5
4.5088682 0.63769764 -4.2851849 5.5
2.8051672 1.0114237 -4.0158758 9.1300001
3.5972936 1.1100664 -4.1034331 9.1274996
4.1219778 1.0399013 -4.2066822 8.6262503
3.8208356 1.328228 -4.117301 10.327
4.1321912 1.3149118 -4.2120094 10.12625
4.7474031 1.4965217 -4.3395214 10.125
3.3239939 1.8512404 -4.0471087 13.62825
3.7282343 1.7917162 -4.2005482 12.658249
4.0825801 1.8799233 -4.1337099 12.813
3.1917164 2.1407421 -4.2147555 16.129499
3.3222828 2.152468 -4.1232486 15.878626
3.7958965 2.1765897 -4.1810126 15.272918
4.1594653 2.164295 -4.229423 14.251166
4.641499 2.311198 -4.2370515 14.125
4.8682265 2.3483269 -4.0900469 14.124
2.9261305 0.76543647 -3.9568448 8.1295004
3.3147364 0.73432893 -3.9035084 8.1280003
3.9135375 0.73349363 -3.986789 8.1265001
3.2167284 1.0752521 -3.9892039 9.1285
1.8212986 2.2953804 -3.6868401 19.466833
2.1518371 2.2482829 -3.7134004 18.932049
2.5988934 2.293494 -3.8813057 17.880562
2.9806461 2.2754428 -3.7654829 17.2955
3.3954282 2.3820949 -3.7876487 17.127251
3.8295515 2.2628944 -3.8671315 16.105249
4.125412 2.3409629 -3.8320873 15.3
1.9351728 2.4526486 -3.6327598 20.13275
2.0830774 2.4171054 -3.619132 20.132
2.648629 2.4000161 -3.6097255 19.129499
3.0252349 2.4027891 -3.9501128 17.129
-1.8151488 0.60346204 -3.3053157 8.0170002
-1.0101697 1.8249862 -3.3330841 19.512001
-0.73926818 1.8372854 -3.4266067 19.51
1.7072693 1.9777262 -3.2830355 19.132999
-0.51379442 2.239903 -3.4471955 23.008499
1.8431842 2.3600061 -3.4244287 20.846964
2.1997054 2.3316245 -3.4400103 19.686556
2.6250021 2.292223 -3.4002662 18.843355
2.995472 2.3175387 -3.3650773 18.127417
4.0489817 2.3605485 -3.5457001 16.1245
1.2528385 2.4396472 -3.2057548 23.13525
1.9001416 2.4693196 -3.4143293 21.465668
2.0682673 2.517504 -3.2446115 21.131001
-1.7758443 1.7546533 -2.9368217 18.012249
-1.3215828 1.9986917 -2.9920888 20.009501
-1.3015295 2.0003386 -2.9604681 21.009501
2.1857533 2.3625324 -3.0066082 21.632429
2.5871038 2.3330126 -3.028863 20.688
2.8954611 2.2089434 -3.0400574 18.927799
3.413044 2.316159 -3.1421943 18.125126
-1.5257852 2.4244351 -3.1620564 22.01
1.41136 2.4454579 -3.0680642 23.133999
1.7893877 2.4462824 -2.9386199 22.96475
2.1676028 2.4937897 -2.9543276 22.351723
2.6327527 2.4602807 -2.9725912 20.794041
2.8739696 2.4947903 -2.8210325 20.62575
-2.9945951 0.98803622 -2.6895838 11.026
-2.9491615 1.4023546 -2.6737564 14.026
1.8038665 2.3450282 -2.7386415 23.133667
2.1469054 2.3647351 -2.5976315 23.005562
2.5909295 2.3442435 -2.6904974 21.1315
3.0354514 2.3140893 -2.5300498 20.12425
2.241302 2.4681334 -2.549685 23.127451
2.6279078 2.4875653 -2.4906898 22.375374
2.9749269 2.4651222 -2.6850502 20.7915
3.2012975 2.4409988 -2.6887267 20.124001
-1.425643 1.0167092 -2.1426992 15.0135
-1.0317085 1.3557653 -2.2733493 19.008499
2.2944195 2.3912356 -2.3819256 23.126499
2.7068529 2.5063491 -2.3087752 22.790833
0.44580179 1.2405384 -1.7217081 22.38625
1.2454877 1.4716816 -1.80855 22.132999
-6.1661348 1.786836 -1.9326457 11.029
-6.0761976 2.5008619 -1.6846677 14.038
-7.1753163 1.8861716 -1.3495935 10.04
-5.213408 2.5935221 -1.4562057 17.038
0.6689465 0.28482392 -0.91246498 10.757275
1.0494621 0.1256974 -0.85816175 5.5
-0.38504443 0.52433699 -0.99108893 17.008499
0.37390614 0.66078377 -0.89819014 22.135
0.72427249 0.59627414 -0.97600037 16.752588
0.90608329 0.67126548 -0.86882341 17.62475
0.79972392 0.8171795 -1.0471865 20.127001
0.90664423 1.0017917 -0.9801721 22.340446
-8.764617 1.7698338 -0.84801233 8.0419998
-8.5720949 2.5639203 -0.84386086 11.042
-6.7634816 2.5859675 -0.99984282 14.041
-6.0606561 2.6141002 -1.1391129 15.0325
-4.8800693 2.6297951 -0.8689611 19.040501
0.74549878 0.26824197 -0.63071585 10.721762
0.97906452 0.28953439 -0.54508638 10.483971
0.76076907 0.46615827 -0.7345522 14.858984
0.95671976 0.62436354 -0.58247036 17.840034
0.99820536 0.92464942 -0.61929619 22.302618
1.2223344 0.96573555 -0.4854756 23.116625
-8.4036407 2.5769501 -0.48826519 11.043
-7.0045753 2.5968256 -0.58578199 13.0425
-6.5879955 2.558831 -0.56213027 14.0425
-5.8091712 2.5930424 -0.51103294 15.706666
-4.8952632 2.5772917 -0.47579768 18.0425
-4.6515169 2.601934 -0.65474224 18.7875
-4.1671753 2.5547934 -0.47716171 20.033751
-3.6284475 2.5306165 -0.552513 23.0415
-3.5668416 2.5020854 -0.40359405 23.0425
-2.5257344 0.15577084 -0.077815324 3
-2.0964904 0.26845908 -0.07268545 6.7674999
0.97517383 0.26672164 -0.20282634 10.400016
1.2016153 0.35404235 -0.025668496 12.1085
-2.4973679 0.56991863 -0.12712772 9.8689165
-2.2446034 0.59648174 -0.13484782 10.908136
1.0374372 0.59095764 -0.22212194 17.238859
1.2231323 0.64876145 -0.058743414 17.895144
-2.441988 0.97184622 -0.11347062 15.792625
-2.1559589 0.98930198 -0.068620861 16.949566
1.1028491 0.95839578 -0.2136078 22.403784
1.2579758 0.88228691 -0.12736596 22.256344
-2.8647456 1.474306 -0.15314476 18.0355
-2.2173328 1.3078157 -0.064608514 20.676281
-1.9756911 1.4416642 -0.037844971 23.01775
-2.576194 1.6607411 -0.33966908 22.033501
-10.107182 2.5686724 -0.33916894 9.0434999
-8.2443886 2.5663369 -0.30911246 11.0435
-7.4156122 2.5951223 -0.22167936 12.54375
-6.8197646 2.5664933 -0.17385617 14.044
-6.3368616 2.5412655 -0.28646758 14.0435
-5.9089923 2.5828722 -0.288425 15.0435
-4.8665614 2.5397234 -0.39249444 18.035
-4.636776 2.5906601 -0.27739894 19.043501
-3.4451802 2.4659164 -0.37412903 23.033501
-2.475266 0.30867204 0.11238214 5.8636365
-2.2801058 0.30921379 0.23702495 6.3333335
1.0653144 0.25980136 0.17852029 9.8739939
1.2475142 0.2943095 0.24355772 9.5920401
-2.4268293 0.58167171 0.23134959 10.453821
-2.2773209 0.62358767 0.16067222 11.192563
-1.9926029 0.75817466 0.29391342 14.25
1.1179931 0.57224745 0.12795253 16.233143
1.2936662 0.61326784 0.21471819 15.88655
-2.4042282 0.89933974 0.12837765 15.04775
-2.2410605 0.98765993 0.17326297 16.475792
-1.9632614 1.0117093 0.27668795 17.804226
1.1649524 0.91088021 0.021246206 22.359001
1.3484507 0.98237085 0.24149138 21.436455
-2.2215827 1.3535304 0.21722157 21.556141
-1.9489481 1.3603619 0.24717739 22.187418
1.1976126 1.2110902 0.32021907 23.1085
-2.1881802 0.29505384 0.53173637 6.1694002
-1.9744074 0.22754012 0.65273702 6
1.0028236 0.30082503 0.43689042 11.102
1.3503518 0.27727425 0.57874566 8.8382053
-2.2205205 0.66120493 0.60332602 11.477395
-1.9547844 0.70192313 0.58917296 13.414106
1.1677884 0.65300936 0.56416386 16.7675
1.4186199 0.61406237 0.60506117 14.4153
-2.1793666 1.0187354 0.58633178 16.9531
-1.9074923 1.054682 0.59639859 18.315971
1.4055932 1.0059693 0.60336387 20.311861
-2.1221528 1.3765043 0.59378374 21.933823
-1.8726 1.3463086 0.59646565 22.075741
1.1932586 1.2242962 0.4486587 23.106876
1.3958366 1.2552165 0.66433883 23.001728
-2.1459768 0.28376231 1.0133039 5.4258113
-1.8540188 0.20273124 1.0399002 5.4444447
1.428073 0.29002625 1.0083901 8.0132523
1.6140339 0.23308702 1.0839926 6.25
-2.0941486 0.62099928 1.0025827 10.802604
-1.8668406 0.65803641 1.0406758 12.253887
1.4307001 0.61963415 0.98724806 13.376688
1.608281 0.56109041 1.0818059 11.652391
-2.0425487 1.0162834 0.95309877 16.948315
-1.8937466 1.0192473 1.0976725 17.10261
1.4250426 1.0133992 0.97436255 19.103796
1.6043619 0.97734022 1.0046964 17.732166
-2.028168 1.4120893 0.84399366 22.246529
-1.859435 1.3910075 1.0399595 21.909908
1.1929746 1.2417266 1.0569637 23.094749
1.4700125 1.30835 0.9675439 22.65407
-2.0431979 0.30010054 1.5650623 5
-1.8469687 0.30257812 1.4167905 6.2796307
1.503189 0.26408884 1.3674698 7.0512886
1.6331171 0.2692807 1.378314 7.1464996
-2.0201764 0.67432195 1.3946874 11.052215
-1.849726 0.59519428 1.4112172 10.499058
1.4411638 0.58001977 1.3613479 11.797118
1.6465292 0.54831308 1.278559 11.063834
-1.8418772 0.9961217 1.3673476 16.116945
-1.5975575 1.0844246 1.5553985 17.277
1.4802018 0.98453271 1.3716789 17.14225
-1.7514248 1.3559942 1.4177648 20.681787
-1.582222 1.4213384 1.4720241 21.637415
1.4240183 1.3300112 1.3426899 22.008623
1.6941706 1.5876596 1.5983614 20.099501
1.6553401 1.8637668 1.5137674 23.099751
-1.6940713 0.31327814 1.8377587 5.8007941
-1.5598694 0.21314768 1.8289058 5.2142859
1.6133615 0.29866946 1.7029555 6.7944999
-1.7447131 0.64314914 1.7810313 10.456905
-1.519027 0.67618883 1.8559511 11.339208
1.5186439 0.54318899 1.6710068 10.0905
1.6528471 0.55851734 1.7482733 9.6942501
-1.6931453 1.0067288 1.7377098 15.236668
-1.5334184 0.95946121 1.8405495 14.956491
1.6813998 0.99664474 1.780597 14.79475
-1.6715771 1.3635144 1.7319207 19.514977
-1.505734 1.3860648 1.7742893 20.391111
1.7528622 1.4258205 1.8713785 17.972626
-1.7139031 1.8505825 1.8715783 23.055
1.6781641 1.8014543 1.7866818 21.598249
2.0425792 1.7085663 1.8403316 20.5935
-1.6922793 0.29386318 2.0217907 5.5
-1.4727216 0.23595345 2.0284851 5.5
1.7622646 0.13760832 2.2815576 4.291667
-1.6202466 0.61479276 2.011637 9.5345001
-1.4793491 0.58150721 2.1342301 9.5045118
1.8031113 0.56277341 2.2320607 8.8970003
2.1290247 0.6332556 2.2632008 9.5918121
-1.4327453 0.94667393 2.1953833 13.727749
1.8681108 1.0373733 2.2744155 13.68957
-1.646083 1.3128277 2.2605896 16.566502
1.5413015 1.5488669 2.3356681 19.087999
1.8356708 1.4265027 2.1930516 17.441076
-1.6880924 1.8039826 2.2408609 21.022541
1.5064042 1.6971997 2.3345318 20.087749
1.8067086 1.7884209 2.177913 21.047518
-1.6962172 2.0337925 2.266547 22.892166
-1.5772966 2.1721926 2.3473217 23.07
1.7538487 2.2347114 2.3139508 23.078751
1.9203565 0.27597055 2.7717178 5
-1.4992555 0.63858014 2.7561243 8.7081671
1.8463266 0.59137219 2.6121347 8.7632008
-1.5649654 1.0482031 2.7003856 12.935901
1.4959626 1.1803815 2.7605793 14.086
1.8770392 1.0433671 2.6077037 12.832199
-1.61417 1.3941345 2.5642004 16.06875
-1.5602714 1.3258444 2.6562397 15.829072
1.4976237 1.3577725 2.6925154 16.08625
1.8579084 1.2843622 2.5686574 15.335292
-1.6544451 1.7311834 2.513644 19.508003
-1.5172973 1.8820515 2.6489112 20.440969
1.4961447 1.6742705 2.5440097 19.58675
1.8023533 1.8138013 2.5111425 19.890833
-1.6456385 2.1042678 2.5335724 22.397501
-1.3969738 2.168967 2.6716032 22.729479
0.61651218 2.241044 2.6717136 23.0875
1.1170093 2.3194354 2.6819878 23.090752
1.4265784 2.2924118 2.5759909 22.805929
1.698877 2.2743688 2.5284317 22.715998
2.1814826 2.2874565 2.4030478 23.091
-1.7128056 0.10015038 3.1098337 3
-1.4582735 0.18832169 3.0846202 3.4791667
1.9007671 0.19601844 2.8972979 4.25
-1.846837 0.70273101 3.0447423 8.0620003
-1.4612223 0.69109088 3.0066559 8.5598526
1.8204092 0.56686133 2.840358 7.8908334
-1.4218102 1.0670158 2.9783483 12.293615
1.8872805 0.89189196 2.8151617 10.5855
-1.7458346 1.2858585 3.0016894 13.990892
-1.3950723 1.395869 3.0048673 15.430017
-1.1158503 1.3018652 3.1644571 14.7335
1.4746888 1.2004174 2.8628688 14.0855
-1.6035604 1.8138113 2.8083179 19.0625
-1.3868153 1.7942672 2.9402308 18.623037
-1.3161479 2.2673249 2.9363008 22.6628
-1.0110673 2.3173304 3.0101171 23.066612
-0.61322975 2.3327839 3.0725043 23.072472
-0.20377907 2.3004327 3.0309882 22.976851
0.17087951 2.294508 3.0460494 23.077845
0.56813216 2.3212919 3.0623505 22.749166
1.0183673 2.3195782 2.9477229 22.624483
1.4427586 2.3198686 2.9706521 22.26841
1.7249042 2.287149 2.8971689 22.0865
2.0768285 2.2350979 3.0281341 20.091249
2.5344818 2.1636744 3.1345098 19.0895
-1.1383159 2.4227061 3.1247532 22.074749
-1.3718185 0.21078795 3.2817166 4.0555553
-1.724705 0.78948772 3.2410157 9.0632496
-1.2807921 0.68257803 3.3360837 8.348238
-1.1576282 0.71541601 3.4519615 8.4014997
-1.2614889 1.0273119 3.3299978 11.279968
-1.046468 0.80712664 3.5166786 9.0679998
2.166873 1.1618133 3.4456887 11.094
-1.6562055 1.3938476 3.330575 14.06375
-1.2468327 1.3589151 3.2824512 14.0427
-0.96129638 1.315033 3.3022084 14.4681
2.1538758 1.471483 3.3242371 13.59425
2.2696311 1.7583097 3.5988283 16.087
-1.0185989 2.3874421 3.3359761 22.067875
-0.54990298 2.3319635 3.3912785 21.986166
-0.1989993 2.3555832 3.4462624 21.775
0.23170866 2.3660257 3.4023521 21.582375
0.64522529 2.3529317 3.3888435 21.333063
1.0115337 2.349324 3.4526381 21.02125
1.4019479 2.3211143 3.4638057 20.54604
1.7855345 2.2327845 3.4689453 19.088564
2.1604073 2.1763902 3.4165528 18.255541
2.4561119 2.1556556 3.2571516 19.088749
-1.5261177 2.5017772 3.5588481 21.064751
-0.9334268 2.4422982 3.428386 21.928785
-0.72475791 2.4204478 3.4756656 21.077749
-0.27126488 2.4018056 3.5518479 22.0725
1.521389 2.4116678 3.4490163 21.081499
-0.4563354 0.14048444 3.6729853 3
-1.1006137 0.76913142 3.7512848 8.0679998
-1.2325318 1.8283764 3.9338222 16.065001
-1.1114959 1.8965856 3.9668784 16.076
-1.2273245 2.3973212 3.7475843 20.564751
-1.0327935 2.3115206 3.8262661 19.353249
-0.62091327 2.3598516 3.8399789 19.852861
-0.18705931 2.3689971 3.8260734 19.926569
0.22252305 2.3536165 3.8019993 20.150679
0.57194424 2.3371034 3.7705107 20.080168
0.99774104 2.3106627 3.8663692 19.72294
1.4111822 2.2383068 3.8382645 18.750374
1.8100461 2.2280917 3.7844584 18.750393
2.1648843 2.1317475 3.8096902 17.421
-1.3314844 2.4663188 3.8124466 20.399666
-1.0401754 2.4247227 3.732404 20.694439
-0.60829741 2.4220874 3.7545907 20.574785
-0.22766311 2.4114242 3.6820853 21.324249
0.31805328 2.4022317 3.6459489 22.073999
-0.46705821 0.36315322 4.0753427 5
-1.1380185 0.7654469 4.246191 8.066
-1.0208758 0.83418036 4.2580328 8.0769997
-1.0451026 1.5055084 4.2309151 12.894125
2.2647514 1.5815918 4.3208613 12.092
-1.5232158 1.7518249 4.2806792 14.56625
-1.0651977 1.8529437 4.1764078 15.3131
2.1645832 1.6355608 4.3783345 13.0915
-0.97868019 2.2482898 4.1931138 17.923054
-0.57395381 2.2807 4.2204251 18.156752
-0.204696 2.291101 4.2395954 18.550726
0.21959803 2.3002384 4.1747499 18.857546
0.58249891 2.3047621 4.1541777 19.02825
0.98651665 2.2310991 4.2129397 18.095678
1.3809966 2.1890864 4.1732283 17.613735
1.7316908 2.1713934 4.1538777 17.082937
2.1275201 2.1539915 4.1952314 16.516964
-1.0004698 0.21585917 4.6962223 4
-0.49633896 0.33443415 4.793613 4
-0.98001289 0.71886575 4.7218904 7.5337501
-1.4791896 1.1135862 4.5741754 10.067
-0.91368181 0.98906952 4.6346622 9.064167
-0.93139994 1.3398991 4.6125393 11.47175
-0.7698223 1.4820256 4.7955647 12.0705
2.4823837 1.5640513 4.4886255 12.0855
-0.9674409 1.7846649 4.5167398 14.374034
-0.42557204 1.8080468 4.5700889 14.572
-0.32280278 1.9048419 4.6822367 15.0725
1.9543117 1.647426 4.7178965 13.081
2.213248 1.6656665 4.6068664 13.083249
2.4963396 1.6805928 4.4909801 13.0855
-0.96011901 2.1247962 4.479773 16.737167
-0.6696924 2.2702351 4.6097064 17.012062
-0.14347847 2.2966573 4.7694221 17.077499
0.28159401 2.2142122 4.6011505 17.218786
0.60642463 2.2119725 4.5542192 16.946749
0.97077745 2.1889729 4.6721539 16.534864
1.3949561 2.1439743 4.5629086 16.304527
1.784988 2.1541541 4.5413508 15.904409
2.2384577 2.1309938 4.6237698 15.47578
2.486722 2.0814757 4.5231299 14.8909
1.5199461 1.6517857 4.8007793 13.081
-0.89145112 2.1690888 5.0745978 15.568001
-0.54473197 2.2236052 5.0026188 16.182556
-0.17652683 2.2323747 5.0011225 15.826458
0.19870263 2.2228103 5.0576434 15.89591
0.63021946 2.2009437 5.04532 15.876551
1.0864494 2.2003374 4.9519906 15.914001
1.3996165 2.1756923 4.9966383 15.581749
1.8210224 2.1677613 4.9950218 14.982901
2.1912527 2.1247339 4.9400306 14.675091
2.4944835 2.0797944 4.9284935 15.0845
2.7370615 0.25481391 5.3661246 4
2.7756844 0.47196972 5.3778081 5.5
2.8080864 0.93222368 5.4135318 7.5
-0.48288167 1.2382519 5.3207312 10.072
2.8282814 1.3193448 5.4606438 9.5
2.6471744 1.9918541 5.2329907 14.0845
-1.2570215 2.3278356 5.3673859 15.0685
-1.0972645 2.2816739 5.389389 15.56925
-0.5991385 2.2404809 5.341465 15.073938
-0.19463898 2.182693 5.484838 14.644892
0.23067321 2.1846597 5.3798242 14.866834
0.61619121 2.1631889 5.4352145 14.678848
1.0213422 2.1907246 5.4031625 14.6355
1.392136 2.1566644 5.344348 14.445272
1.8087591 2.1091986 5.3792224 13.971111
2.1835308 2.1134217 5.372179 13.750751
2.4687653 2.0625701 5.4722629 13.0905
2.5148633 0.2027909 5.7422557 3
2.5289767 0.56901366 5.7696347 5.5
-0.50996518 1.1019077 5.8091388 8.0719995
2.4703808 0.92830014 5.790885 7.5415001
-0.50577676 1.2154772 5.8266029 9.0719995
2.5631006 1.4649253 5.8292165 9.5815001
-0.48401314 1.7337402 5.8450923 12.072
2.6497002 1.9833475 5.9824152 12.33675
-0.62570709 2.1898344 5.6409683 14.320084
-0.20071287 2.1958904 5.8553224 14.073001
0.17865118 2.1668692 5.7854624 13.746166
0.58162552 2.139179 5.7293549 13.953688
0.97555554 2.1137967 5.8008032 14.079
1.3920324 2.102634 5.7595115 13.6785
1.7580316 2.0990176 5.8094759 13.078751
2.1805835 2.0338314 5.813519 13.084334
2.3576174 1.9840655 6.1920505 12.082
2.4548473 1.9865044 6.0958371 12.0825
-0.15081544 2.1699541 6.2096782 12.747333
0.24173616 2.1107962 6.3105755 13.073499
0.62893045 2.1283422 6.2344694 13.079
1.0247765 2.1299016 6.110353 13.081833
1.2886599 2.1005187 6.1758571 12.8821
1.8907394 2.0232861 6.1823564 13.0805
2.3048735 2.0709684 6.3469419 12.08
2.0489123 1.9841315 6.6699219 12.0805
2.769083 1.9884073 6.7851214 11.0895
2.958565 1.9355398 6.5481219 11.085667
-0.490926 2.2086635 6.4822979 13.072
-0.16825776 2.117559 6.6407623 12.572
0.65553701 2.045198 6.7480941 12.07425
0.97840804 2.1065037 6.5625801 12.744416
1.4516907 2.066062 6.7717628 12.0785
1.7916212 2.0564644 6.5072303 12.087001
2.2165096 2.0878301 6.7316313 12.07925
1.8164948 1.9857379 6.9951572 11.412834
2.3841605 1.9443195 7.177269 11.088
2.6677907 1.9480095 7.0064654 11.085501
3.0155759 1.9743714 6.9031305 11.09
-0.45769268 2.1078858 6.8231916 12.0705
-0.0091837132 2.1136265 6.9245625 12.0765
0.21122646 2.1044683 7.047545 11.908084
0.45225006 2.0796006 6.9832468 12.0735
1.0709492 2.0664608 7.0767937 11.742667
1.3473011 2.0581317 7.0314965 11.6802
1.7354678 2.0522568 7.0169625 11.74475
2.0073826 2.0438068 6.8530016 12.0785
-0.87852454 1.7762041 7.4004612 10.071
-0.33152077 1.8141427 7.4233608 10.071
0.1066339 1.6814529 7.4571834 10.074
0.4200086 1.8022186 7.4471202 10.075
1.8429381 1.9642884 7.499876 10.58625
2.1606445 1.9602569 7.3239412 10.5855
2.5922539 1.957557 7.4445734 11.08125
3.1575694 1.9279482 7.2068582 10.09
-0.084707431 2.0391371 7.4918113 11.07175
0.1605853 2.0369339 7.3555703 11.0725
0.55870068 2.0697124 7.3414359 11.411167
0.92853886 2.0400264 7.4275808 11.0765
1.5134826 2.0344293 7.551981 11.0765
1.9431152 2.051487 7.2239704 11.078
2.6233611 2.0420556 7.4614043 11.07975
1.0827001 1.9895825 7.8477101 10.57675
1.7269961 1.9536781 7.8270979 10.085751
2.1515355 1.9146712 7.8268304 10.07975
2.7034118 1.9540452 7.8069139 10.0825
3.0742857 1.8823845 7.7043138 10.089251
3.2237365 1.9100364 7.794879 10.0825
0.30735266 2.0381036 7.94205 11.0745
0.68986213 2.039386 7.9204364 11.074
0.92790037 2.0279353 7.89399 10.741333
1.2794802 2.0189624 7.7109885 11.07575
1.7587981 2.0512309 7.9952145 10.077
0.18962717 1.9989274 8.0763893 10.0725
1.0092682 1.9725342 8.3077459 10.0835
1.4228985 1.9644868 8.0563879 10.08475
1.7914822 1.9221328 8.2272034 10.078501
2.2876329 1.9277542 8.2929153 9.5825005
2.879251 1.9066705 8.2036686 9.5839996
3.4302578 1.8331749 8.2899055 9.0895004
3.6212449 1.8241768 8.2073507 9.0900002
4.6177607 1.7288009 8.1953897 9.0852499
4.9148965 1.7056001 8.0881701 9.0860004
-0.0024764296 2.0218966 8.2026691 10.072
0.33046144 2.0174732 8.1092672 10.07375
0.55146694 2.032953 8.0693235 10.408917
0.80255806 2.0106196 8.2484703 10.083
1.362915 1.9556105 8.5490532 10.08075
1.6866456 1.8695691 8.7925138 9.085
4.5221653 1.6915405 8.6600151 8.5845003
2.685519 2.0008395 8.5534725 10.079
0.58455944 1.9441844 8.9468422 9.0822506
1.0503743 1.9350417 8.9896288 9.0762501
1.4884329 1.8929731 9.0640564 9.0796661
1.7654492 1.9110727 9.0071115 9.079833
2.2562227 1.8768648 9.0249186 9.0838337
2.4135118 1.8642495 9.0303249 9.0787506
2.9026489 1.7945715 8.8736973 9.0807495
3.3580499 1.7697814 8.8848915 9.0817499
3.7081513 1.7571162 8.928525 9.0825005
4.3855968 1.6873018 8.8357849 8.0839996
0.60581458 1.9387 9.334363 9.0742493
1.4104367 1.9260105 9.2020311 9.0754995
2.9224427 1.83304 9.2426729 9.0790005
3.3606739 1.7506338 9.4934225 8.0882502
3.9127984 1.6742649 9.4391956 8.0825005
0.60197943 1.8599898 9.916853 8.0777502
0.83075231 1.8760469 9.6000347 9.0740004
2.1415565 1.8324864 9.6271439 8.0769997
2.9935288 1.7225821 9.877737 8.0802498
3.7385235 1.6821446 9.7490759 8.0841665
2.6110377 1.7475718 10.144852 8.0785007
3.460721 1.6537563 10.095918 8.0810003
1.0668612 1.8122892 10.695427 8.0757504
2.2430768 1.7062922 10.577646 8.0782499
3.0988934 1.6397181 10.583457 7
1.9307945 1.7560893 10.844561 8.0775003
2.750807 1.8013294 11.182947 7
3.0194097 1.6766953 11.074508 7
1.3167415 1.7226228 11.853655 7
3.7375159 1.5376036 12.683503 6
2.8405166 1.6561772 12.483206 7
3.6526465 1.6536118 12.519987 7
3.5782361 1.5287921 13.040064 6
3.1412511 1.6103096 13.34915 6
3.9815924 1.6389338 13.728138 6
4.9891334 1.3299472 15.195922 5
4.3899708 1.29268 15.824051 5
4.7741656 1.3288374 15.70917 5
4.5273323 1.3284677 16.088411 5
5.9114451 1.198575 16.76004 5
4.3373671 1.2961979 16.937368 5
2.9705129 0.1396693 17.259607 2
3.2234082 0.18857069 17.206644 2
2.6696248 0.6872552 17.444967 4
3.0475056 0.72010344 17.38022 4
2.7245421 1.3827305 17.525303 5
2.9758811 1.3791817 17.392157 5
3.2017431 1.3742689 17.286659 5
4.0184035 1.301916 17.481647 5
1.3887613 0.15895112 17.780035 2
1.6449366 0.12482432 17.784485 2
1.5013708 0.7903201 17.811026 4
1.5854146 1.1514424 17.864918 4
1.7142534 1.1580976 17.764008 4.5
0.54528546 1.5315325 17.874287 5
1.4583929 1.2526634 17.838896 5
1.6421727 1.2214488 17.874531 5
7.086741 0.056746222 18.28801 2
2.1803632 2.1774266 18.290791 6
-0.0056210007 2.9351003 18.668118 8.0719995
5.8978009 0.72590417 21.195578 3
