# .PCD v0.7 - Point Cloud Data file format
VERSION 0.7
FIELDS x y z intensity
SIZE 4 4 4 4
TYPE F F F F
COUNT 1 1 1 1
WIDTH 322
HEIGHT 1
VIEWPOINT 0 0 0 1 0 0 0
POINTS 322
DATA ascii
0.51191199 1.748204 -2.5199361 20
0.46282196 1.9441286 -2.5071878 21.5
0.45021683 2.0733492 -2.4819059 23
0.45207238 0.57317376 -2.2088387 10
0.51287013 0.52582633 -2.0044508 10
0.63724953 0.1925955 -1.8010927 5
0.57906395 0.34661198 -1.9553169 7.3333335
0.64508682 0.2585049 -1.8007294 6.5
0.70976388 0.092362933 -1.660318 4
0.72270489 0.37806615 -1.6710302 8
0.72237861 0.44038698 -1.6702778 9.5
0.64897424 0.71090204 -1.7889485 13.166667
0.66302288 0.91070276 -1.701354 16.166666
0.59718782 1.1343262 -1.7194197 18
0.61530596 1.1597753 -1.6482394 18
-2.0705247 0.16698997 -1.4430307 4.5
0.69665176 0.58344042 -1.5983059 10.5
0.71598798 0.75036114 -1.5713327 14
0.67892784 0.89532727 -1.5277923 15.75
0.68554986 1.1429253 -1.4338105 19.5
19.380785 1.0623165 -1.4397835 4
-1.9734983 0.10216337 -1.247774 4
-1.9654931 0.32092929 -1.2470397 7
-1.9452882 0.56916505 -1.2236183 10.5
-2.0507481 0.72891366 -1.2991294 12
-1.9366536 0.69629729 -1.2237213 12.5
0.80199462 0.71964043 -1.3837097 13
0.75979906 1.1890985 -1.322577 21
0.86571616 1.0996956 -1.207823 20
0.73326272 1.3279486 -1.2873601 22.5
19.532238 1.6280737 -1.3895559 5
-2.0291295 0.11172192 -1.1063608 3.8
-1.9626919 0.075838141 -1.1006494 3.2
-2.0598567 0.2151306 -1.0130805 5.5
-1.9935489 0.22752538 -1.1304822 6
-2.005574 0.47625983 -1.0750464 10
-1.9771289 0.47288334 -1.0959322 9
-2.0328245 0.72269231 -1.1151652 12.5
-1.9557471 0.72241056 -1.0536723 12.5
0.88374466 0.7080915 -1.1967692 14
-2.0449662 0.86208051 -1.1556234 15
-1.9313693 0.91425484 -1.1405159 15
0.87740189 0.94112611 -1.1482751 17.666666
1.7034012 0.80115193 -1.0744044 15
-2.0022225 1.1620897 -1.1224536 19
-1.9062251 1.0373112 -1.0957611 17
1.5356469 1.141753 -1.0304009 21
-1.9327859 1.2774262 -1.0760708 20.5
-1.9397843 0.14277156 -0.99668109 5
-1.9327457 0.38534221 -0.84736151 8
-2.0107465 0.48876515 -0.90496033 10
-1.9138501 0.52772093 -0.85565984 10.25
-1.9183779 0.70094728 -0.87317693 12.916666
0.88973087 0.68255234 -0.86606961 15
-1.9259911 0.93847328 -0.91331816 16
-1.9069318 1.1000781 -0.87986541 18
-1.8533485 1.3516384 -0.90926224 21
-2.0041625 0.10073049 -0.73335332 4
-1.963535 0.0041578338 -0.72696877 2
-1.9252113 0.39058787 -0.64863878 8
-1.9347782 0.50572461 -0.67525721 10.5
-1.8938738 0.7733779 -0.74507523 14
-1.8895351 0.90807599 -0.65947366 16.875
-1.9234639 1.1153535 -0.6772297 19.5
-1.8577825 1.3226452 -0.72491348 21.5
-1.9532111 0.032055512 -0.49770424 2.5
-1.9042131 0.39166394 -0.49895078 9
-1.9907829 0.59786683 -0.52753848 12
-2.003994 0.71342945 -0.54781705 14.25
-1.9662275 0.94296557 -0.52264857 17.5
-1.8663496 1.0976833 -0.54303479 19.833334
-1.7913178 1.1877428 -0.47608009 21
-1.9047894 1.2193174 -0.52522111 22
-1.9108797 0.11859328 -0.29998147 4
-1.9273769 0.29235759 -0.25015074 7
-1.867602 0.4873493 -0.31182718 10.5
-1.9479675 0.74256891 -0.37386268 15
-1.8903993 0.89799517 -0.33617577 17.444445
-1.9004798 1.0476077 -0.328935 19.75
-1.824796 1.2441354 -0.32292259 22.5
-1.7734554 1.2953469 -0.28405362 23
-1.8708942 0.55594456 -0.12022308 12
-1.8275278 0.7503649 -0.046770401 16.5
-1.8424648 0.92091697 -0.079978883 18
-1.8470054 0.15153824 0.0010799407 5
-1.7344681 0.057294697 0.14220767 3.5
-1.7977856 0.59664279 0.12075323 13
-1.8166397 0.88464236 0.13748711 18.25
-1.7021575 0.10443578 0.30989662 4.3333335
-1.7651311 0.65897489 0.2198595 14
-1.7585646 0.95894647 0.38265693 19.5
-1.7331043 1.0549486 0.37543929 21
-1.6561929 0.22375363 0.5899626 7
-1.4678327 0.35118276 0.51961303 9.5
-1.6616492 0.5170697 0.46649706 12.4
-1.5868601 0.63882023 0.48681027 15
-1.7238826 0.93121868 0.5320316 19
4.161962 2.2757928 0.55053186 19
1.1345878 0.35258904 0.69782579 10
-1.4791864 0.5400601 0.74818832 14.5
4.0367112 2.3569434 0.60911024 20
-1.6594106 0.34740892 0.82663375 8.5
-1.6567184 0.47150946 0.8454802 10.5
-1.4847782 0.564116 0.94490856 14
1.4003016 0.52336776 0.99368334 11
-1.6055777 0.61497247 0.89396262 14
-1.4734776 0.63831842 0.93655443 16
1.378245 0.93433762 0.96474242 17.4
-1.6759115 1.01657 0.92890489 19.5
-1.6027583 0.050280817 1.0187025 3
1.385118 0.30299261 1.0023341 7
-1.4822139 0.59498203 1.0717015 15
-1.5263594 0.69642496 1.0518754 15.75
1.3846689 0.7405836 1.007218 14
1.4711466 0.78998464 1.1093962 16
-1.5735028 0.83413506 1.0209113 17
-1.6058085 1.1646484 1.0177164 21
-1.4743336 1.1339452 1.1546675 20.5
1.322252 1.0961063 1.1621145 19
-1.4521638 1.2822298 1.1181041 22.666666
1.2926569 1.2092146 1.0364722 21
1.4231305 0.15392406 1.2423681 4.5
1.3811331 0.3328113 1.3650266 7
1.4511509 0.29160386 1.2860273 6.75
-1.5013416 0.52219397 1.3602096 10.5
1.3864856 0.51266801 1.2661557 10
1.4686849 0.48200226 1.3475275 10
-1.4888618 0.69690937 1.3612654 14.416666
1.3492484 0.69634771 1.346772 12.75
-1.4823653 0.85615462 1.3151183 18
1.3133738 0.8771897 1.3487405 15.5
1.4645569 0.94177073 1.3191993 17.200001
-1.4870839 1.0947413 1.3662214 20
1.3686776 1.1070949 1.3893503 18
1.4295244 1.0447901 1.3459308 19
-1.4472015 1.224471 1.3894384 23
1.3529299 1.2906654 1.3696662 20
5.4866128 1.9288152 1.3914975 13
5.5196643 2.0779493 1.3592111 14
5.4117246 2.2454679 1.3049141 15
-1.4352759 0.039999828 1.5118554 2.5
1.3891395 0.1056611 1.461526 3.5
1.5165534 0.18073297 1.4678919 5
4.5068307 0.13221948 1.5382833 3.5
4.4821758 0.34486002 1.5364057 5
-1.4777534 0.68807137 1.4562492 13.75
1.4148369 0.75247103 1.5851376 13
-1.4480886 0.89980572 1.495706 17
-1.353629 0.95400095 1.5533688 17
1.4361007 0.87193066 1.5336454 15.333333
-1.3461185 1.1169593 1.4874458 19.333332
-1.338227 1.2429533 1.4981866 21.25
-1.3394696 0.067800336 1.6863308 3.5
1.4985167 0.16173382 1.6623986 5
3.3835592 0.077311441 1.7498312 3
4.1749663 0.15673275 1.7318603 3.5
-1.2972635 0.30468795 1.7488462 7
1.4444599 0.30172834 1.7336564 6.5
3.4047806 0.23925027 1.7572931 4
4.1816406 0.31879929 1.7392985 5
-1.4003844 0.57238209 1.6935077 12
-1.2940726 0.5107643 1.6938699 10
1.437536 0.4756009 1.7019963 9.125
-1.3169196 0.70520192 1.6768041 13
4.0873561 0.75058186 1.772189 8
-1.3031985 0.88127786 1.7613811 14.5
4.1637998 0.8939926 1.7801749 9
-1.3458481 1.0887189 1.6651621 18.75
-1.3125694 1.2875141 1.7090297 21.333334
-1.2161808 1.4359964 1.6710716 23
4.3077579 1.4678924 1.6275636 12.5
4.2681789 1.6137146 1.6313771 14
4.1135287 1.9337338 1.6787671 16
4.2047324 1.8331552 1.6329865 15
4.0816932 2.1301193 1.7002443 17.5
3.7300422 2.3553262 1.701893 20
-1.2526573 0.13293219 1.9327768 4
2.7601867 0.011020232 1.9409131 1
3.0225861 0.090380177 1.8403585 3
-1.2422686 0.30877137 1.9028583 6.5
3.0555899 0.26931491 1.8585317 5
-1.27554 0.4789151 1.8818398 9.333333
1.4864609 0.51881772 1.9272995 9.5
2.9347212 0.46185273 1.9379932 7
-1.2007362 0.73489875 1.971536 13
1.4886789 0.65010762 1.8645642 11.5
2.9249175 0.63699579 1.9112213 8
3.0394228 0.7656123 1.8759867 9
-1.1788112 0.96844423 1.9426178 16
2.8900616 0.89583969 1.9310118 10.5
-1.2192647 1.0837854 1.8842556 18.583332
-1.1716455 1.0667173 1.9460087 17
2.8034484 1.0790865 1.9439971 12
2.6660578 1.2886963 1.9996721 15
2.8390172 1.2130826 1.9624972 13.5
3.7993 1.2630523 1.877143 12
4.0169144 1.251578 1.8052382 11
2.74789 1.4681191 1.9586784 16
2.8225546 1.4117447 1.9500748 15
3.7472429 1.5409169 1.9046783 14
3.8015947 1.4592201 1.8769505 13
3.7500091 1.7679152 1.890862 15.5
3.5581217 1.934886 1.9792634 17
3.5250695 2.1393716 1.9604234 18
3.5042603 2.2742763 1.9529955 19
3.4398646 2.4185321 1.9033138 20.5
-0.96428752 0.080118358 2.1875176 3
2.1016695 0.0002098605 2.1828232 1
2.3717475 0.011482108 2.1424868 1
2.705792 0.00059757382 2.0081112 1
-1.2038652 0.2543717 2.1499889 6
-1.1596005 0.31589931 2.1574986 7
-0.98749375 0.22101824 2.161411 5.5
1.5100114 0.24366117 2.0302515 5.5
-1.2592199 0.5059188 2.0174234 10.5
-1.2611145 0.63363147 2.0144506 12
-1.149579 0.75549537 2.1004894 13.166667
-1.1565027 0.88878584 2.0578766 15.25
-1.186203 1.0890064 2.1240785 18.5
-1.165714 1.2044462 2.0742023 20
2.343287 1.5147343 2.1216788 17.5
2.3229706 1.6743695 2.0994189 19
2.0967789 1.9357219 2.1544747 21.5
2.3090215 1.8020451 2.0842268 20
-0.97195989 0.10633658 2.2177291 4
1.8260843 0.085671194 2.2261398 3.5
2.1715076 0.049556758 2.2545986 3
1.8698688 0.32111496 2.2621343 5.5
2.1532755 0.25298914 2.3004375 5
-1.0950127 0.48547101 2.2547116 9
1.7162814 0.55905914 2.3020344 9
2.1321914 0.50761974 2.2872217 7.5
-1.1252165 0.67701972 2.2671854 12
1.7256544 0.66531646 2.315834 10
1.8835992 0.77095062 2.3510299 11
-1.0430859 0.89296681 2.382663 15
1.8705598 0.88170397 2.3614838 12
-1.0599356 1.1163363 2.3231122 17.75
-1.0866903 1.2557203 2.2153692 20.5
1.7107364 1.7735001 2.3973236 20
1.8029535 1.81454 2.3323781 21
2.0238066 1.8478301 2.2281251 20
1.597201 2.0870907 2.3276212 23
-1.0869871 0.2843194 2.4436626 6.5
-1.0608931 0.42998075 2.4620051 8.5
-1.0813855 0.74234736 2.4217105 13
1.6847802 0.99926943 2.4175806 13
1.7213032 1.1131389 2.507021 13.5
1.7041402 1.2887973 2.4891677 15.25
1.6915989 1.5338223 2.4541559 17.5
1.6666142 1.6423911 2.4954593 18
1.5867301 1.9976925 2.4045448 22
1.6198835 1.8158292 2.4714 21
1.7696768 0.34106323 2.7238524 5.5
1.7483981 0.73686951 2.7211316 9
-1.1606644 0.90786046 2.6930611 12
1.7507663 0.89103544 2.7707922 10.666667
1.694785 1.0869452 2.6721232 13
-1.1903882 1.2750692 2.7190619 15.5
1.6831145 1.2176352 2.6640239 15
-1.1411271 1.4332628 2.7828465 17
1.6363118 1.4946086 2.6037474 17.5
1.7037092 1.7777306 2.6699107 20
1.7371489 0.15198411 2.8822362 3
1.7205136 0.24504894 2.8814299 4
1.8621601 0.51638275 2.9555905 7.5
1.8146467 0.73053592 2.893425 10
-1.0946791 1.1155844 2.9732184 13.5
1.8729205 0.090249389 3.046092 3.5
1.8293526 0.33874923 3.0627413 5.3333335
1.7895139 0.53163844 3.118856 7.5
-1.0809418 0.69191581 3.1054826 9
1.8114026 0.69793338 3.0157087 9
-1.0612227 0.94764125 3.0769229 11.5
1.7648242 0.99993914 3.0625658 12
1.7506973 1.1592578 3.0268812 13.5
-1.0347508 1.3427814 3.0734525 15
-1.0221549 1.5835631 3.0239284 17.5
-0.95753133 1.4669342 3.1303997 16.25
-1.0306443 1.773682 3.1098974 20
-1.0040298 1.8526411 3.0848329 21.5
-0.91122013 2.0692775 3.1388075 22.5
-0.89488208 0.19813499 3.3910093 4
1.7988933 0.15358485 3.270153 4
-0.95369661 0.2845248 3.344732 5
1.7925138 0.35007131 3.2743359 6
-0.91984451 0.71402764 3.3536549 8.5
-0.85910988 0.94627744 3.3765748 11
-0.89839453 1.0673342 3.2694895 12.5
-0.92151284 1.2995682 3.2167172 14.75
-0.98280048 1.5657262 3.2741232 18
-0.9325875 1.737885 3.3131976 19
-0.88395929 1.8751001 3.2821739 20.5
-0.91827595 0.16536975 3.4251494 4
-0.79322004 0.17013027 3.5302289 3.5
-0.8728562 0.28992811 3.4305494 5.25
-0.79825997 0.32049128 3.491729 5
-0.87597543 0.46184739 3.4117229 6.5
-0.85420454 0.70475709 3.4321997 8.5
-0.85493785 0.83290958 3.4028609 10
-0.92402679 1.0963593 3.4171567 13
1.870796 1.0161946 3.5329151 11
-0.93289119 1.2309213 3.4230371 14.5
1.8678128 1.2608612 3.5261557 12
-0.87683302 1.4477007 3.4537888 16.5
-0.75676447 0.73842549 3.6836562 10
-0.74462217 0.91271693 3.6739595 11
-0.74450999 1.0499712 3.6924548 12
2.0332386 1.4489621 3.9510598 12
0.58488393 2.4345856 3.9060016 22
2.0049157 1.5844411 4.0430102 13
1.987987 1.7106879 4.0328436 14
1.987214 1.8929189 4.0327301 15
-0.6805948 2.3523996 4.1239867 19
0.10057217 2.3526249 4.0814848 20
0.58559144 2.345417 4.0073481 21
0.61699456 2.3459785 4.0836668 20
-0.68742985 2.1554613 4.2722859 17.5
0.17581414 2.2727771 4.246069 18.5
5.1632886 0.44210848 17.917339 3
5.3700051 1.2225974 17.901848 4
4.4309506 1.0684977 18.069775 4
