# .PCD v0.7 - Point Cloud Data file format
VERSION 0.7
FIELDS x y z intensity
SIZE 4 4 4 4
TYPE F F F F
COUNT 1 1 1 1
WIDTH 596
HEIGHT 1
VIEWPOINT 0 0 0 1 0 0 0
POINTS 596
DATA ascii
0.27782422 2.6525669 -4.5691094 18.134001
-1.7452965 2.4799237 -3.7266059 20.01
-0.20428146 2.6024501 -3.6842105 23.135
0.040882811 2.6298318 -3.7144105 23.133499
-1.9681728 2.5016737 -3.4070566 21.011999
-1.3078723 2.5212572 -3.3532608 23.008499
-0.087107673 2.5332415 -3.4210057 23.134251
0.043743327 2.582505 -3.2705915 22.734699
0.33442217 1.5490564 -3.0226953 18.131001
0.25583291 1.7712741 -2.9923205 19.381939
11.489318 1.9563601 -2.9792972 8.1137505
0.3051036 2.0458586 -2.8710115 22.131001
0.3478176 0.5995248 -2.4244235 10.13
0.35474187 1.8200915 -2.7541513 19.465584
0.4621323 1.951202 -2.5393109 22.043249
11.564841 1.9624941 -2.5726383 8.1129999
0.3200767 2.0710158 -2.7857697 23.130751
8.6012936 2.1451592 -2.5354395 10.1145
9.330019 2.0848842 -2.723964 9.1145
10.173352 2.002733 -2.7453089 9.1140003
0.46519935 0.36361682 -2.1188242 7.5643334
0.43781954 0.58647287 -2.2167623 10.481125
0.45567 1.0727639 -2.0705478 17.528
0.16418557 1.2588304 -2.3596847 18.1315
0.56480384 1.5266711 -2.3357625 19.129999
0.54424781 1.8663936 -2.3507986 21.630125
-2.2599638 2.2633855 -2.2743814 23.007999
7.2298799 2.1714478 -2.1320999 12.1145
8.6906519 2.1027126 -2.352468 10.114
8.9780769 2.0894737 -2.1171575 10.11325
9.6955109 2.0556116 -2.2853727 9.1132498
10.477319 2.0123322 -2.0779822 9.1125002
10.830121 2.0352845 -2.1840503 8.1125002
0.58021957 0.28652224 -1.909073 6.5
0.62759322 0.59692842 -1.8008482 11.492491
0.61880696 0.99399978 -1.7394331 17.099884
0.5778026 1.3281775 -1.7431775 21.717306
-2.2901614 1.9661419 -1.8242828 22.51075
11.275064 1.9709435 -1.9861622 8.1120005
-2.1989105 2.0842571 -1.8561939 23.009624
5.0197315 2.3325071 -1.7229934 16.115499
5.5235915 2.2020352 -1.7283114 14.7149
6.2824035 2.2097168 -1.8410174 13.114499
7.4830599 2.1412849 -1.9246769 11.11375
7.8073268 2.1565104 -1.7597854 11.113
9.0763216 2.13027 -1.8203397 10.1125
10.495287 2.0425494 -1.8751248 9.1120005
4.9509454 2.4283209 -1.6827562 17.115499
-2.0592387 0.25098369 -1.4536572 5.8373337
-1.9756725 0.19181007 -1.228187 5
0.72432524 0.30738083 -1.5645142 7.1939445
-2.0217395 0.61696941 -1.4370699 10.803604
-1.9300337 0.59878808 -1.2618992 10.594612
0.7345354 0.67409062 -1.4996481 13.000621
-2.0201001 0.89213759 -1.2690442 15
-1.9360621 0.90411484 -1.2881333 15.18425
0.38214785 0.84261829 -1.4878986 16.129499
0.72446692 1.0285062 -1.4775373 18.980774
0.82569933 1.0823234 -1.3095939 20.649208
19.512775 1.068844 -1.3870009 4
0.70570612 1.3018736 -1.4269081 22.474293
-2.1536009 1.9595033 -1.5262725 23.011
19.634565 1.6662824 -1.334197 5
2.4908309 2.0041423 -1.2405735 23.1185
3.8712013 2.3786378 -1.4658726 19.616249
4.1985078 2.304508 -1.3904479 18.36525
4.672121 2.3258533 -1.2721004 17.114
5.014082 2.3455377 -1.537461 16.61475
5.274754 2.2993484 -1.3441628 15.780334
5.622963 2.2429802 -1.5242566 14.114
6.1480637 2.2667725 -1.3723493 14.113
6.5669937 2.1801658 -1.3943664 13.11275
7.9032755 2.1194363 -1.5978537 11.1125
8.1609325 2.1157999 -1.3672156 11.11175
8.7156534 2.1325345 -1.3479296 10.1115
8.9219608 2.1378877 -1.583778 10.112
9.9222565 2.0973086 -1.3214333 9.1110001
10.166185 2.0635698 -1.5843496 9.1114998
3.1213939 2.4360771 -1.2985232 23.117001
3.2905679 2.4543648 -1.250434 22.116249
3.7596889 2.4335411 -1.3624187 20.5159
5.0332079 2.4238079 -1.2522227 17.113501
-2.0421882 0.16495785 -1.0627564 4.5999999
-1.9635714 0.32340494 -0.97609901 7.1800003
0.71264261 0.32088387 -0.98250991 10.254933
0.85996276 0.35538459 -1.0634744 8.6215
-2.0269399 0.63653159 -1.1536517 11.523924
-1.9278206 0.63466686 -0.99596786 11.53033
-0.32861233 0.54446769 -0.97310346 19.0075
0.24603061 0.61159563 -0.92801493 16.129
0.73002046 0.61675268 -0.97910804 16.767504
0.86476487 0.63836521 -0.94357216 15.452333
1.7589562 0.61089295 -1.0889902 12.1206
-2.0053649 0.97374558 -1.1526343 16.414249
-1.8980958 1.0304629 -0.97801626 16.896519
0.7826317 0.87435657 -1.0973738 21.796333
0.84360307 0.98945218 -1.1003779 21.166199
1.5093353 1.0858408 -1.0513644 20.121874
1.6741885 0.89162314 -1.0527117 16.227085
-1.8829306 1.3323047 -0.9536491 21.439281
0.80478108 1.306392 -1.1503015 22.997688
1.4031616 1.2600999 -1.0133708 23.12225
10.639622 1.9381505 -1.0590501 8.1102505
3.1452963 2.3968742 -1.0070078 23.115
3.993134 2.352622 -1.0809419 19.114
4.1903543 2.3077984 -0.9920091 18.613251
4.7668862 2.291966 -1.072795 17.113001
4.9153013 2.3085001 -0.91595644 16.778833
5.373518 2.2769907 -1.0582001 15.44575
5.9441881 2.2566223 -0.92775929 14.1115
6.0307293 2.275419 -1.0789998 14.112
7.5094571 2.2045159 -1.0906034 12.11125
8.5882854 2.1357126 -1.0507054 10.11075
10.127662 2.0181384 -1.0209838 9.1102505
3.0677941 2.417871 -1.1654162 23.116249
3.3869183 2.4417536 -0.9902072 22.558889
3.7647872 2.4479761 -0.97905785 20.86375
-2.0099528 0.10497002 -0.74386203 4
-1.9458332 0.34567329 -0.56222975 7.9761252
0.76845074 0.31580243 -0.67747569 11.339986
0.83165717 0.25500512 -0.55622882 7.9944587
-2.007925 0.62817037 -0.7913568 12.331181
-1.9360039 0.59465194 -0.55995286 11.971919
0.77679384 0.5599618 -0.70278478 17.307753
0.8629179 0.62219638 -0.65273339 16.107767
-1.9055078 0.99878705 -0.61249262 18.098925
0.88083833 0.94263291 -0.70431262 22.174887
-1.859298 1.2905395 -0.5569557 22.163582
11.296485 1.9033346 -0.528328 8.1090002
3.1493468 2.3774767 -0.56622481 23.112
3.4135592 2.3974524 -0.68134296 22.112499
3.923882 2.3979414 -0.44197342 20.1105
4.228301 2.3121755 -0.64632702 18.711399
4.5275984 2.2730224 -0.60432881 17.777666
4.9900479 2.3245289 -0.67057997 16.861
5.2316246 2.2995975 -0.59279817 16.1105
5.8044629 2.2411265 -0.6487956 14.6105
7.2463193 2.1254501 -0.49761125 12.1095
8.7275181 2.1268468 -0.58464432 10.1095
8.9334431 2.1207242 -0.60309029 10.1095
9.9670582 2.011106 -0.43072498 9.1090002
10.08445 2.0204308 -0.67698669 9.1094999
3.1808317 2.4046485 -0.71221048 23.113001
3.4293056 2.4264615 -0.57933545 22.445084
3.8163297 2.4270158 -0.59828347 21.1115
-1.8539643 0.31719923 -0.20868741 8.1775503
-1.0313284 0.26549849 -0.34416127 9.7637501
0.88359046 0.31292444 -0.25306946 10.402988
-1.8662573 0.608527 -0.1893391 12.985465
0.93445158 0.64488971 -0.2149848 17.962685
-1.8601465 1.0057656 -0.22152431 19.034403
0.96866739 0.91568404 -0.30151102 22.786417
-1.7960321 1.26638 -0.19253184 22.669973
9.718894 1.9920442 -0.018095927 9.1079998
10.382671 1.9753054 -0.26285067 9.1084995
11.612259 1.889153 -0.28370306 8.1084995
3.2345135 2.3573089 -0.37010249 23.1105
3.9381368 2.3877606 -0.16455689 20.358875
4.2012014 2.3201549 -0.18059304 18.942249
4.6210113 2.2609732 -0.14870954 17.442001
5.0357637 2.2821217 -0.15440062 16.608625
5.3948774 2.2630229 -0.15617673 15.5086
5.8016348 2.2095878 -0.22564526 14.442166
6.6623359 2.2132287 -0.23437823 13.108749
7.6798525 2.1423476 -0.10154061 11.10825
8.8194256 2.1262224 -0.20599824 10.1085
3.4504263 2.4364045 -0.21888494 22.609375
3.8367093 2.4333088 -0.208101 21.109167
-1.7609464 0.29241863 0.10339627 7.9256921
-1.5541817 0.3401849 0.31670931 9.583869
0.97605228 0.33671206 0.10977481 10.988758
-1.738048 0.61232376 0.17695569 13.974887
-1.5277779 0.42229232 0.28111795 11.04025
1.0159901 0.61106056 0.13220231 17.110907
-1.7740997 1.0255505 0.22107537 20.430216
1.062758 0.90036124 0.099293582 22.530306
-1.7777781 1.2366438 0.18223672 22.656332
10.565003 1.9332463 0.20401034 8.1075001
3.9516091 2.3762176 0.076104932 20.1075
4.1012311 2.3385892 0.23147035 19.535215
4.4441276 2.2652578 0.18407993 18.107
5.0122271 2.2754924 0.20541739 16.607
5.5582423 2.2371483 0.22470862 15.106999
5.7750111 2.2032666 0.17989218 14.10725
6.196579 2.2021046 0.32639092 13.60675
7.7798123 2.1379471 0.23710196 11.10725
8.7869215 2.1077142 0.0874255 10.10775
8.8316288 2.101831 0.36835811 10.107
9.7348576 2.0033944 0.19865018 9.1075001
3.4758253 2.4708202 0.2046843 22.820858
3.6624386 2.4567077 0.23329814 22.106501
-1.6660725 0.26607469 0.62186998 7.2335386
-1.4850632 0.29667553 0.61899793 8.5021458
-1.0788989 0.18504526 0.65006387 7.7085309
1.1075478 0.27313748 0.53562063 8.1716709
-1.6742077 0.56738466 0.56057698 12.747845
-1.5156914 0.57212055 0.63622832 14.396942
-0.69675225 0.40357655 0.76241171 15.049749
1.1409411 0.61984664 0.47603476 15.931452
1.2361587 0.78663784 0.57635581 19.095501
-1.6981058 0.98431963 0.60082269 19.63414
1.1844827 0.89705801 0.457526 21.5975
1.2384939 1.0017381 0.45503205 21.795284
-1.6636424 1.273428 0.55471778 22.854708
-1.5939205 1.2528183 0.78544629 22.773251
1.3273158 1.2496482 0.64763373 23.0895
3.4704852 2.3920901 0.63561058 22.10375
3.8354852 2.3877752 0.64527982 20.604126
4.1675429 2.2759273 0.59590054 19.052376
4.5603085 2.2476606 0.58442551 17.105
5.1324067 2.2586327 0.58650732 16.105333
5.3881898 2.2408233 0.69163549 15.605
5.6736336 2.2292745 0.54015988 15.10575
6.1935096 2.1934719 0.52554572 13.772667
6.4321351 2.1560907 0.61810035 13.10575
7.4801874 2.1604342 0.48079982 12.1065
8.0829458 2.1024768 0.5021255 11.1065
3.4012768 2.4029658 0.59449995 22.604
3.7670875 2.4001915 0.56298727 21.1045
-1.6290436 0.28625593 0.90446711 7.380518
-1.4720544 0.30736634 1.0602844 8.2355156
-0.8671385 0.22445807 0.94303757 7.8987503
-0.52727598 0.25124058 1.1098396 8.5561256
1.3294932 0.34560126 0.95776349 8.4372129
-1.6280668 0.61252838 0.94445866 12.624084
-1.5321889 0.63072294 1.0157963 14.216882
1.3885952 0.66724175 0.977422 14.044568
-1.6343771 0.99865752 0.91317153 18.763983
-1.5312001 1.0035164 1.1285697 19.526361
1.3921868 0.99579871 0.98156756 19.047054
-1.6159873 1.2411282 0.84639704 22.448429
-1.490853 1.274471 1.1031621 22.554876
1.3408743 1.2825675 1.040423 22.937983
3.0503459 2.3272448 0.87562525 23.1015
3.8428705 2.3651216 0.94553137 20.302402
4.1577458 2.2582223 0.96882778 18.477686
4.6789217 2.2704587 0.86357129 17.10375
4.9825258 2.2676997 1.0456914 16.503201
5.3814011 2.2397065 1.1148146 15.103251
5.6590381 2.2058175 0.98083502 14.604
6.1965117 2.1964808 0.9450686 13.6045
6.5678592 2.1489449 0.84131932 13.105
6.8929005 2.1826663 0.90669495 12.105
3.5157058 2.4401636 1.0979445 21.601
3.6896067 2.4149363 1.0056416 21.101831
-1.450547 0.25525969 1.4186928 6.6621981
-1.0224009 0.13995467 1.4162966 4.6666665
-0.61058211 0.33283341 1.3875631 9.3895836
1.4420991 0.33568692 1.2849505 7.5741458
4.4797535 0.20153587 1.5577585 4
-1.4591733 0.66922247 1.3914781 13.797603
1.4214512 0.62317103 1.3535744 11.935803
-1.4412286 0.96463823 1.3938625 18.325977
1.3935076 0.97330999 1.3741306 17.019266
4.4815984 0.95100504 1.5612037 9.1002502
5.3458042 0.97531003 1.4099311 8.1020002
-1.3712052 1.2869828 1.5088879 22.175354
1.3571624 1.3358094 1.4308692 20.988768
4.3909588 1.2076179 1.5812713 11.1
4.4961472 1.3646481 1.5723588 11.85025
5.1143112 1.2772377 1.4828968 10.1015
5.4731688 1.2416558 1.3932291 9.6022501
4.7544432 1.9812185 1.5922784 15.1005
5.0170336 1.7012514 1.5250441 12.767833
5.4435568 1.8027945 1.4201202 12.801001
5.6266108 1.6603593 1.3524935 12.1025
2.6655922 2.2631128 1.4453176 23.0965
3.0487854 2.3705854 1.431958 22.597876
3.7783616 2.3555534 1.3636484 19.975
4.1625981 2.2331433 1.4290602 17.850374
4.5997691 2.280457 1.3317045 17.1015
4.955934 2.2683811 1.3570483 16.3018
5.4375386 2.1398444 1.3904119 14.384417
5.6978507 2.2116735 1.2526481 14.103
3.1513255 2.4142904 1.2889767 23.099001
3.2291276 2.4187624 1.2493085 22.099501
-1.3235223 0.27731341 1.7996455 6.9537086
-0.57926959 0.30227694 1.9547591 7
1.494833 0.29701966 1.7929088 6.4714289
2.7311766 0.0058880397 1.9704263 1
2.9751472 0.19338907 1.8994333 4.2222223
3.3721168 0.21407993 1.7928343 4
4.2592163 0.22940035 1.6860214 4.1666665
4.405242 0.22665714 1.6076361 3.5
-1.3038896 0.60743117 1.8208529 11.703668
-1.1986541 0.61314172 1.9691571 11.1522
1.4528141 0.54991233 1.7826172 9.9969978
2.8712306 0.63293445 1.9561729 8.25
3.2240105 0.69731456 1.8576834 8.0959997
3.9272738 0.76162165 1.8142483 8.0979996
4.1116562 0.7571519 1.7685367 8.0494995
-1.3058602 1.0229521 1.77887 18.162872
-1.1841654 0.99527091 1.9237127 16.091482
1.4530277 0.96496677 1.7770553 16.015726
2.7731049 0.98537135 1.9701284 11.5
2.9515424 0.95145178 1.9118615 11.047625
3.3552525 0.80494469 1.8272629 9.0965004
4.0989671 0.86052752 1.7739248 8.6327085
-1.2988656 1.2784456 1.6766603 21.526451
-1.1758595 1.4142065 1.8004667 21.773834
2.7239172 1.4849488 1.9723847 16.046749
2.8991575 1.3893343 1.9458318 14.714041
3.8658044 1.4914899 1.8568438 13.25
4.1429648 1.3794919 1.7306054 12
2.820821 1.8200486 1.9722393 18.094
3.5131736 1.8552141 1.9609935 16.798
3.7719765 1.7302784 1.8653724 15.215166
4.1649933 1.7848402 1.6718295 14.833333
2.6058643 2.2895818 1.6922232 23.094749
3.1899824 2.3910499 1.7384297 22.0965
3.5091655 2.2567418 1.9408514 19.048
3.7932858 2.2715187 1.7056746 18.981194
4.0952215 2.2011352 1.6775868 17.716333
4.7721143 2.2497303 1.6000516 16.1005
3.1429522 2.4452221 1.9968711 22.094999
3.3983107 2.4204454 1.9359851 20.797874
-1.2319869 0.32231727 2.0585201 7.2788215
-1.1107717 0.29495263 2.2592483 6.6037979
-0.64172423 0.079590447 2.1469798 3.5
1.9153801 0.20140223 2.2553582 4.5
2.2205021 0.16068174 2.2403064 3.8
2.5696716 0.20125942 2.144316 4.2142859
2.8129475 0.16720541 2.0053411 4
-1.2234107 0.56751764 2.0376215 10.6875
-1.137097 0.56023198 2.1545272 10.372411
1.8076501 0.68332094 2.3230321 9.9541206
2.2172089 0.61667037 2.2875745 8.5555553
2.6016588 0.59777129 2.1275735 8.1538458
2.8151546 0.57982409 2.0009501 7.6666665
-1.1433908 0.98482239 2.145704 16.20787
1.8643196 0.9418633 2.3715067 12.418375
2.2225044 1.033654 2.279192 12.6
2.5483205 0.96534127 2.122103 11.615385
-1.2315601 1.3355474 2.3878353 17.803625
-1.0719889 1.2583865 2.2608144 20.047262
1.8778971 1.4354724 2.3725908 17
2.2231877 1.3811129 2.2310858 16
2.6597633 1.4486749 2.0264392 15.73425
-1.3261964 1.850661 2.2024755 23.055874
1.5960325 1.9982382 2.3936343 22
1.6913829 1.8631651 2.2705305 20.8339
2.2234139 1.7967433 2.145781 19.767723
2.4615617 1.7239338 2.0520282 18.841999
1.5899863 2.0706265 2.3656936 23
1.6976056 2.060286 2.3152099 22.543625
2.204108 2.2345452 2.111387 22.8904
2.6083345 2.2296813 2.0552943 21.87039
3.1262596 2.1958406 2.0454321 20.094666
3.2239881 2.448657 2.0350132 21.094999
-1.0958558 0.27574146 2.4263706 6.5
0.0018553867 0.021545418 2.4690471 3
-1.0700518 0.57528031 2.4714313 10.194494
1.7545727 0.65636402 2.6777544 8.2887497
-1.0202026 0.93647772 2.5228484 13.770566
1.7364285 1.0171293 2.5851147 12.272666
-1.2140297 1.5957586 2.601336 19.062
-1.1493658 1.3902236 2.759449 16.639532
-0.31567043 1.4038038 2.7523766 19.5625
1.7086394 1.3948524 2.553993 15.991414
-1.2031567 1.8717077 2.5724633 22.062
-1.1345761 1.824538 2.7384415 20.892542
1.6907835 1.799922 2.5525498 20.259062
-1.2223232 2.0197899 2.483063 23.061501
-1.1381609 2.0282114 2.6490221 22.729334
1.1013281 2.299082 2.7525003 23.073
1.5566406 2.3451271 2.6620021 23.07625
-1.1104832 0.29854849 2.9093649 5
-0.31065854 0.24941614 2.8771574 5
1.8154832 0.25827768 2.9701872 4.5
-1.0591739 0.69416505 2.9787555 9.8775415
1.8230056 0.64257061 2.9977622 8.6643124
-1.0766796 0.99881917 2.9551127 12.345473
1.7540722 1.0500717 2.9989483 12.48804
-1.0243748 1.4488881 3.0550556 16.638041
1.7020037 1.3179873 2.8142378 14.0765
-1.0036501 1.7629105 3.0462348 19.944113
-0.88307065 2.1521618 3.105166 22.686401
-0.62080956 2.241071 3.1118557 23.062538
0.10814968 2.2994013 3.1376371 23.069
0.54147261 2.302758 3.043498 22.959806
1.0704799 2.2834039 3.0321829 23.076698
1.4221125 2.3034654 2.9611182 22.912617
1.6515213 2.3339598 3.0115998 22.083502
-1.0295894 2.4382288 3.1094301 23.056999
-0.87508816 0.25358659 3.4270639 4.6111107
1.7765231 0.24895082 3.2571206 4.5
-0.92578125 0.63498676 3.3435173 8.1695833
1.8451043 0.69020784 3.5418494 8.0830002
-0.89928305 1.0277629 3.3867931 12.295099
-0.78378785 1.118174 3.5239432 12.059166
1.8646801 0.98736346 3.4009042 10.412937
-0.88433135 1.4229686 3.3560772 15.787471
-0.77884966 1.2760367 3.5861752 14.393001
1.8544917 1.3273349 3.4173808 13.041875
-0.88107419 1.7241602 3.3053243 18.77775
-0.70373762 1.9207243 3.3793063 21.059999
-0.6491648 2.3283577 3.4775329 21.563875
-0.17065202 2.3097754 3.3735182 22.427076
0.1474396 2.2920275 3.399585 22.71965
0.56372368 2.3437717 3.4446974 22.320564
1.1329812 2.3365083 3.3556101 21.741417
1.5106159 2.3806856 3.4337814 21.298971
1.7964025 2.3209715 3.409482 20.202499
-1.3533189 2.6222546 3.3814402 23.0555
-0.512676 2.4328833 3.5929554 22.061001
-0.82602036 0.62091362 3.6600828 8.4593992
-0.74323839 0.74267238 3.7007854 10
1.8852397 0.78230304 3.6072333 9
-0.71157229 0.9874866 3.6744399 11.363334
2.0340569 1.4896193 3.9524713 12.5
-0.78099322 1.7488958 3.84394 16.0595
2.026123 1.6786063 3.9239283 14
-0.87085629 2.2202554 3.6711206 20.06275
-0.56596184 2.3192472 3.8270013 21.063063
-0.23511253 2.3887415 3.8190622 20.699999
0.066094279 2.3479323 3.7251124 21.568937
0.63376319 2.3765187 3.9294906 20.572374
0.95962799 2.3427916 3.7779865 20.845249
1.3661093 2.3201997 3.8583436 19.397066
1.8709465 2.2312207 3.7866268 18.535625
2.0749149 2.2336321 3.9454274 17.578999
-1.1577184 2.4658513 3.9280427 20.057501
-0.32434994 2.4023318 3.7141006 21.07
0.67915273 2.4223585 3.7710373 21.7155
2.035213 1.131971 4.0454316 10.0745
-0.77120692 1.4988869 4.2897444 14.0605
1.9942263 1.582242 4.0538001 13
2.0399795 1.4949119 4.2786303 12.074
-0.63775527 1.8124357 4.2779751 15.5345
-0.37723252 1.8500508 4.2488875 16.07
1.5736713 1.6763406 4.2841029 14.08
1.8877411 1.7316579 4.1192389 14.3906
-0.61639798 2.3002062 4.1657271 19.172718
-0.26018295 2.3098536 4.126792 19.924107
0.13184696 2.3275189 4.1685214 19.384155
0.5566327 2.3113229 4.1464257 19.564428
0.98191935 2.2605002 4.208076 18.437399
1.3842725 2.2550187 4.1584125 18.394228
1.8553684 2.2288067 4.1849422 17.651237
2.1479399 2.1523039 4.0997062 17.083
0.62995285 2.4013016 4.1234846 20.56875
-0.50033593 0.97245616 4.7563438 9.0614996
2.2346292 1.5174258 4.6548696 11.074
-0.64945024 1.7470338 4.7153578 15.061501
-0.95903075 2.3616719 4.6991816 18.809875
-0.54740888 2.2283113 4.5483117 17.286333
-0.19920205 2.2490084 4.5152907 17.827845
0.1745922 2.2017553 4.6121473 17.440163
0.66313863 2.2689638 4.6202984 17.514694
1.0024098 2.2187693 4.6013422 17.196438
1.4708385 2.2157717 4.5817447 16.656666
1.7569418 2.2033849 4.5977869 16.159584
2.1549613 2.0650294 4.5046 15.074
-0.46404189 1.0777519 5.1908112 10.0625
-0.53639752 1.26544 5.0445242 10.815875
-0.51570243 2.1231306 5.0213313 16.063938
-0.17686689 2.200547 4.8732867 16.317123
0.16068204 2.2412915 4.9402084 16.272701
0.5919863 2.1807146 4.975419 16.471199
0.99923652 2.2171245 4.9958944 16.0765
1.2522657 2.2323864 4.8936348 16.517166
1.8282287 2.1970654 5.0916471 14.95075
2.0854249 2.2112818 5.0045309 14.57275
-0.38812941 1.5833451 5.4785089 12.063
-0.34982008 1.618377 5.5502601 12.0705
2.3064191 1.7353778 5.4274769 12.073584
2.4237373 1.7639608 5.5756407 11.573
-0.69884694 2.2367513 5.4240208 16.061626
-0.1587552 2.1776974 5.3687215 15.399501
0.11149004 2.1669676 5.3744578 15.400666
0.58427161 2.1857874 5.420382 15.291554
1.0470111 2.1739254 5.4098921 14.870257
1.4226162 2.1722369 5.4423585 14.596975
1.7800064 2.1680334 5.385582 14.241833
2.2374222 2.1764364 5.4229851 14.851833
2.4490354 1.4087956 5.6277895 9.073
-0.33462471 1.9222783 5.7080727 14.06325
-0.64363617 2.1439242 5.8734021 14.0695
-0.1324048 2.1408203 5.7716737 14.594348
0.21745621 2.1437449 5.8158407 14.209768
0.72543848 2.1435547 5.8459539 13.969163
1.0688947 2.1227345 5.8100286 13.826125
1.265871 2.1589341 5.625803 14.077
1.8704799 2.1326473 5.6621418 13.881405
2.2124774 2.1149633 5.739419 13.07625
-0.12961616 2.1121821 6.0386229 13.0715
0.075640298 2.1499848 6.3046899 13.068125
0.55326366 2.1269913 6.1747689 13.069876
0.96110439 2.0874043 6.2232661 13.071875
1.4487408 2.1111012 6.2138662 13.198688
1.7916174 2.0885696 6.2397909 12.828375
2.2345464 2.0633929 6.1139035 12.407749
2.5197666 2.0496602 6.2178488 12.57375
0.10131022 2.0634995 6.6687469 12.405666
0.63092482 2.0535522 6.6456709 12.737167
1.1080244 2.0241675 6.6968503 12.07575
1.3838524 2.0319967 6.5445065 12.07675
1.8458989 2.0830014 6.5433645 12.447624
2.1730416 2.0821097 6.6156502 11.740749
2.4321713 2.0690336 6.7157302 11.826375
0.0051161209 1.3341597 7.1619201 8.0719995
2.6786001 1.5466738 7.1809673 9.073
0.19242635 2.1119671 6.8992262 12.564751
0.9855231 2.0495913 7.0566177 12.0715
1.4500668 2.0261567 7.1736069 11.56875
1.9988654 2.0006816 6.9078426 12.07125
2.0903511 2.0395966 7.032424 11.074375
2.4873097 2.0187864 6.8814111 11.0715
0.0051571205 0.46133867 7.2209339 4
0.0052011195 1.4598134 7.2842507 9.0719995
0.0052015088 1.8525603 7.2848115 11.072
1.7189691 1.9959254 7.3570094 11.07
2.4340127 1.9985118 7.4574404 11.072
0.29059726 2.0444765 7.3698106 12.0655
0.67363822 2.0655842 7.4160757 11.46775
0.92468578 2.0295668 7.4572754 11.321125
1.455585 2.026835 7.3659992 11.568624
1.8303772 2.0200994 7.4248872 11.077499
2.3037393 2.0215964 7.3290887 11.0705
2.5338924 2.0107713 7.3503056 10.571751
3.0707493 1.5377707 7.8529172 8.0719995
0.7742269 1.9987743 7.9679804 10.06575
1.5486869 1.9994065 7.7054577 11.0765
1.9692371 1.9588344 7.9457722 10.57025
2.9720185 1.8369113 7.6183004 9.5719995
0.34788767 2.0280273 7.6866751 11.073
0.52229559 2.0467858 7.7258043 11.0735
1.0582376 2.0411546 7.7895093 10.900333
1.3665186 2.0096426 7.8147531 10.404
2.2099924 2.0099492 7.8053207 10.32225
0.51689506 1.983905 8.1064119 10.065
0.99562466 1.9721143 8.1347313 10.07475
1.6651876 1.9647337 8.1711426 10.56925
2.153671 1.9705614 8.2183437 10.0705
3.0344079 1.953452 8.0571871 10.073
0.37521663 2.0327673 8.2892685 10.073
0.53571075 2.029067 8.291069 11.066
1.8627336 2.0204744 8.3133774 10.0685
0.75468445 1.4552516 8.5578003 8.0655003
0.94644809 1.4325423 8.6463909 8.066
0.5497753 1.9208618 8.4449759 10.066
1.0854743 1.9220655 8.7028179 9.5668755
1.3449066 1.9471452 8.5390911 10.067625
2.6929352 1.9179387 8.690505 9.4069166
2.9516928 1.9240955 8.6256552 9.1853333
0.57982093 2.020102 8.5777636 10.0735
0.79141569 1.966809 8.8395119 9.0655003
0.88912296 1.8914968 9.0230541 10.06675
2.1924291 1.9075996 8.9773293 9.0695
2.5205593 1.8745823 9.032649 9.072917
2.9328916 1.8731805 9.1664724 8.0705004
1.8090682 1.9000682 9.4081068 9.0684996
2.1336584 1.871536 9.5184269 8.5727501
2.5529923 1.8748033 9.352108 8.0695
2.8461158 1.860792 9.2007313 9.0714998
0.96200728 1.8692274 9.6468697 9.0742502
1.3800504 1.8639543 9.6302462 9.0752497
1.8099229 1.8758004 9.7805157 8.5718746
2.3690853 1.8685442 9.6383581 9.0775003
3.081208 1.8722881 9.6904745 8.0790005
1.1026672 1.8868282 10.009563 8.0745001
1.5885187 1.8713686 10.130946 8.0754995
1.6970878 1.8445239 10.176667 8.0715008
2.0499012 1.8552839 10.291858 8.0764999
2.5271902 1.8212408 10.221288 8.0732498
3.0061746 1.7962401 10.182306 8.0742493
3.4799063 1.7872014 10.089721 8.0710001
0.95260471 1.7842126 10.627222 8.0740004
1.4058161 1.8195497 10.488803 8.0696669
1.6629748 1.7906479 10.794293 8.0679998
2.3100746 1.840872 10.403299 8.0769997
2.8558996 1.8162502 10.543255 8.0780001
3.2856612 1.7734191 10.744173 7.5357499
3.6292672 1.7317915 10.743846 8.0719995
1.8576657 1.7441778 10.994618 7.5342498
3.3810036 1.6884946 11.524992 7
2.1248367 1.8113343 11.6695 7
2.6473505 1.7630301 11.791317 7
2.8567848 1.5982004 12.766341 6
3.4516776 1.7566502 12.430452 7
2.1490221 1.700011 13.177955 6
3.9593813 1.5411875 13.527099 6
2.4757779 1.6696501 13.29326 6
3.1549134 1.6408556 13.528699 6
4.1618743 1.590203 13.779282 6
3.9732492 1.5175334 14.28488 6
3.5761294 1.4887288 15.451193 5
4.999784 1.3469387 17.046257 5
4.9277806 0.46017918 17.993687 3
5.2615676 0.44339252 17.93474 3
4.9029551 1.1361783 17.998844 4
5.2466397 1.1947787 17.904812 4
4.5807509 1.3464029 17.981062 5
4.2609429 1.0537274 18.122355 4
4.565414 1.095499 18.057632 4
5.1544132 1.3043618 18.144754 5
