# .PCD v0.7 - Point Cloud Data file format
VERSION 0.7
FIELDS x y z rgb
SIZE 4 4 4 4
TYPE F F F U
COUNT 1 1 1 1
WIDTH 1114
HEIGHT 1
VIEWPOINT 0 0 0 1 0 0 0
POINTS 1114
DATA ascii
0.54990304 0.4469921 0.024463877 4283445810
5.3961997 -1.051736 2.7053854 4286085200
4.9628067 -0.079613358 2.683356 4286085200
4.7632456 0.63844115 2.7831008 4286085200
5.170578 -0.5243085 2.6844294 4286085200
4.9364772 -0.015836202 2.6894212 4286085200
6.0545359 -2.9063165 2.859832 4286085240
2.5629613 -1.7652351 1.4755919 4286085240
4.7746019 0.37634775 2.7206371 4286085200
4.7671223 0.39116263 2.7221503 4286085200
4.8499832 0.085651919 2.6772301 4286085200
2.4118969 -1.8364234 1.9959011 4286085240
5.9243488 -1.0653057 2.6130297 4286085200
4.7310781 0.48011351 2.726814 4286085200
4.6281152 0.84887195 2.7833149 4286085200
6.0705085 -2.7362819 2.873837 4286085240
5.3125877 -0.78104228 2.7056546 4286085200
6.1236715 -3.1353393 2.8833063 4286085240
5.0535011 -0.24337365 2.6895521 4286085200
5.8205142 -3.5445395 2.778003 4286085240
2.0464976 1.5166347 1.1572326 4286085240
5.0929298 -0.49993318 2.6545291 4286085200
5.627984 -1.5934104 2.7567713 4286085200
6.0875311 -2.6041639 2.888917 4286085240
7.1441221 0.88622987 0.38857797 4286085240
5.278461 -0.63811123 2.712204 4286085200
1.9801543 -2.2768199 1.3342019 4286085240
5.2588897 -0.6015355 2.7116508 4286085200
5.0148368 -0.11263686 2.6979847 4286085200
5.4090147 -1.0722573 2.7072744 4286085200
4.7202034 0.55569577 2.7435846 4286085200
5.9776473 -3.3822894 2.837724 4286085240
6.0773029 -2.48524 2.8913224 4286085240
0.56573153 0.46719992 0.012869656 4283445810
6.042953 -3.3428738 2.8509569 4286085240
5.6871758 -1.6694559 2.7772493 4286085200
1.9993763 -2.359396 1.3515608 4286085240
4.3513093 1.2480538 2.7639055 4286085200
4.3395867 1.2597846 2.7641656 4286085200
4.6938696 0.72915292 2.7784719 4286085200
4.5649977 1.0435833 2.8080738 4286085200
1.9740921 -2.2846105 1.3347759 4286085240
5.4009538 -1.1247883 2.6984308 4286085200
4.9547029 -0.14309824 2.66658 4286085200
1.9798368 -1.931988 1.2937558 4286085240
5.6627126 -1.7216414 2.7633841 4286085200
5.0558252 -0.34928104 2.665432 4286085200
4.7146716 0.46316063 2.7181156 4286085200
4.5188494 1.1250492 2.8083835 4286085200
4.58283 0.81777281 2.7493362 4286085200
3.9446638 1.711446 2.7481482 4286085240
4.4347115 1.1343918 2.7767479 4286085200
6.1039162 -3.0026417 2.8793366 4286085240
4.2725549 1.4209174 2.7821624 4286085240
5.1245685 -0.33751485 2.7000451 4286085200
4.2253408 1.4278514 2.764286 4286085240
6.1201415 -3.1832588 2.8840601 4286085240
2.5828929 1.5687171 2.177819 4286085240
5.4416752 -1.3352009 2.6987965 4286085200
5.2517724 -0.56660801 2.7117453 4286085200
4.4711485 1.1284304 2.7896347 4286085200
2.4389224 1.5463597 2.1180327 4286085240
6.0878239 -2.7206218 2.8830886 4286085240
5.0702267 -0.30127579 2.6843925 4286085200
2.0021882 -1.8920605 1.2971179 4286085240
3.9364002 1.6928643 2.7358456 4286085240
6.2631969 -2.2159841 2.9905021 4286085240
6.0263171 -3.3843508 2.8529418 4286085240
3.8601377 1.6895201 2.7058251 4286085240
2.3513103 1.5120653 2.0698409 4286085240
2.3399889 1.5154263 2.0710847 4286085240
2.3088038 1.5057739 2.0554447 4286085240
6.2851505 -2.246465 2.9965312 4286085240
2.5567698 1.5641103 2.1666009 4286085240
4.6189342 0.80892223 2.7662818 4286085200
2.5015535 1.5636406 2.148329 4286085240
4.4474134 1.1528668 2.7854159 4286085200
2.4088514 1.5381588 2.1035726 4286085240
2.0764546 1.4712658 1.9650884 4286085240
0.48612243 0.71493894 0.02906552 4283445810
3.9996803 1.6746159 2.7547839 4286085240
5.6590881 0 2.6610558 4286085200
2.0510485 -1.8708338 1.3124373 4286085240
2.5133092 1.554199 2.1466899 4286085240
4.5981112 0.85863721 2.7694483 4286085200
2.6460433 1.5723857 2.2007797 4286085240
2.2827637 1.4992594 2.043318 4286085240
4.9823613 -0.15989614 2.6746831 4286085200
2.0333054 -1.890824 1.3086849 4286085240
2.0158424 -1.8988518 1.3040466 4286085240
2.1265321 1.4761901 1.9834108 4286085240
4.0847216 1.648894 2.7786734 4286085240
4.9770026 -0.095813103 2.6853249 4286085200
4.081821 1.6629838 2.7844076 4286085240
5.048739 -0.41395071 2.6505506 4286085200
6.07335 -2.5292289 2.8904884 4286085240
1.9491485 -2.0876098 1.3033993 4286085240
4.5734658 1.1230656 2.8352194 4286085200
4.2923284 1.3513671 2.7720194 4286085240
4.7483487 0.49727339 2.7404809 4286085200
4.2803607 1.3627193 2.7678645 4286085240
4.2894468 1.3807952 2.7796323 4286085240
4.8061991 0.17753583 2.6805623 4286085200
5.3755403 -0.84322894 2.7212322 4286085200
2.6899915 1.5694114 2.2137566 4286085240
2.8091197 1.5494983 2.2430429 4286085240
2.7875745 1.5610434 2.242043 4286085240
4.0642233 1.6710489 2.7773399 4286085240
5.6275735 0.42464328 2.6649497 4286085240
4.2712455 1.3296721 2.7538152 4286085240
4.6141005 0.83099788 2.7703247 4286085200
5.3535552 -0.8750115 2.7093098 4286085200
5.9115977 -3.4458041 2.811065 4286085240
2.0332355 -2.430804 1.3716905 4286085240
3.7371953 1.6324314 1.8701956 4286085240
4.0161729 1.6966964 2.771832 4286085240
2.0002549 -1.9024184 1.2989194 4286085240
1.9899349 -1.9109325 1.2972593 4286085240
5.6704822 1.3322047 2.7367477 4286085240
5.3782554 -1.0841035 2.690851 4286085200
5.8371987 -3.452805 2.7783136 4286085240
5.0952387 -0.38486761 2.6745448 4286085200
4.2013197 1.382262 2.7404902 4286085240
2.6026447 1.5579249 2.1781735 4286085240
4.84519 0.14782849 2.6937978 4286085200
4.7862306 0.57905459 2.7814229 4286085200
2.2051432 1.4788762 2.0067096 4286085240
2.8389835 1.5541039 2.2558126 4286085240
5.3940973 -1.3602793 2.6726236 4286085200
5.0930061 -0.36827052 2.6823823 4286085200
1.9578954 -1.9352568 1.289583 4286085240
2.7258155 1.5611346 2.2211571 4286085240
2.715838 1.5670211 2.2210863 4286085240
6.069808 -3.0100863 2.8695121 4286085240
1.9828075 -1.9225072 1.2946827 4286085240
5.7735734 -1.7756013 2.800698 4286085200
1.9663581 -1.9561332 1.2937146 4286085240
0.56832492 0.54903913 0.012875314 4283445810
4.8863349 0.13338256 2.7082431 4286085200
5.3896556 -1.1766682 2.6884475 4286085200
5.8843422 -1.3331439 2.6181438 4286085200
6.1001205 -2.8562896 2.8845267 4286085240
6.0973191 -2.8311639 2.885577 4286085240
5.4068441 -1.2350556 2.6955597 4286085200
4.8792977 0.054831821 2.6815157 4286085200
2.1602235 -1.8113307 1.3388225 4286085240
2.17219 -1.7977548 1.3437636 4286085240
4.5370269 0.91525453 2.7581885 4286085200
4.7812352 0.70346957 2.8100612 4286085200
2.1236835 -1.8157862 1.328395 4286085240
4.9374952 8.6329908e-07 2.694458 4286085200
4.6141248 0.88464469 2.7797363 4286085200
4.8984323 0.039318364 2.685719 4286085200
2.5170336 -1.7695589 1.4611292 4286085240
6.0834932 -2.4650204 2.8963594 4286085240
5.751812 1.7066469 2.8059685 4286085240
4.4201193 1.1761324 2.779345 4286085200
4.7771697 0.65592742 2.7955961 4286085200
4.41959 1.1608101 2.7726421 4286085200
4.3877697 1.1901855 2.7695839 4286085200
6.3915915 -2.1695347 3.0432973 4286085200
4.8130293 0.27070916 2.7038431 4286085200
2.3684168 -1.8293256 1.4099851 4286085240
4.5545955 1.102939 2.8188894 4286085200
4.1647758 1.5428314 2.7762389 4286085240
4.6240554 0.97925329 2.8166718 4286085200
4.2468247 1.5114923 2.8024893 4286085240
6.3370814 -2.1737297 3.0179389 4286085200
6.3036332 -2.1848841 3.0071287 4286085200
4.2009964 1.4497467 2.7602768 4286085240
5.3593516 -1.0981969 2.6843739 4286085200
4.7422957 0.72109008 2.7969527 4286085200
1.9749166 -1.9772935 1.3002557 4286085240
5.2780805 -0.79327613 2.6871235 4286085200
3.0301056 1.5712755 2.3331513 4286085240
3.9993594 1.7047459 2.7652073 4286085240
6.0954461 -2.5614083 2.896976 4286085240
5.1810632 -0.47504157 2.6963947 4286085200
4.6490126 0.73747879 2.7616975 4286085200
2.4458828 -1.7728535 1.4346371 4286085240
2.407382 -1.7745637 1.422087 4286085240
2.0588024 -1.8538532 1.3137565 4286085240
0.55711806 0.43176055 0.016900286 4283445810
2.4442387 1.5387504 2.1153128 4286085240
2.0629086 -2.5819461 1.3955119 4286085240
4.5729146 1.0608537 2.8139601 4286085200
5.8561277 -3.4894109 2.7904201 4286085240
5.2814646 -0.67288685 2.7104864 4286085200
5.0546441 -0.17845041 2.7028298 4286085200
4.6200151 0.99390656 2.8162212 4286085200
1.9971614 -2.3263531 1.3462026 4286085240
4.6097336 0.96076697 2.8031433 4286085200
3.4715261 1.6541802 2.541389 4286085240
4.200768 1.4799221 2.769731 4286085240
4.3261313 1.2709525 2.763495 4286085200
3.2855842 1.6373818 2.4602575 4286085240
2.4816613 -1.7746053 1.4472344 4286085240
5.1620693 -0.49000496 2.6840301 4286085200
4.4059901 1.2179335 2.7823958 4286085200
2.1641936 1.4716479 1.9923134 4286085240
2.7752788 1.5658834 2.2405417 4286085240
4.1415582 1.5493703 2.7702899 4286085240
2.2566431 -1.7779303 1.3707733 4286085240
4.1191988 1.5560999 2.7604666 4286085240
4.7682233 0.51483691 2.7554865 4286085200
4.8946123 0.070721269 2.6932325 4286085200
6.1407995 -3.2694747 2.8928277 4286085240
5.1861038 -0.54269737 2.6871951 4286085200
4.7815018 0.60965973 2.7901371 4286085200
4.7602649 0.59142643 2.7741449 4286085200
4.9827332 -0.19191885 2.6615703 4286085200
4.9912114 -0.2082838 2.6656554 4286085200
5.7459121 -3.5625951 2.7477615 4286085240
5.3004847 -0.7618987 2.6994116 4286085200
6.0887442 -2.4444368 2.9010413 4286085240
2.2559915 1.5024992 2.036798 4286085240
5.3597221 -0.89368302 2.7082405 4286085200
4.6197433 0.79378533 2.7653899 4286085200
5.6933126 -1.552878 2.7827373 4286085200
4.8948107 0.023573255 2.6794543 4286085200
0.55542904 0.52656764 0.02267459 4283445810
3.3134091 1.6379896 2.4704893 4286085240
4.7796488 0.33045632 2.7078905 4286085200
4.9470134 -0.04761304 2.6851623 4286085200
2.0842321 1.466748 1.9646831 4286085240
5.752646 0.92034519 2.7371159 4286085240
6.0601077 -3.0295377 2.8636377 4286085240
5.3765402 -3.0735817 3.1844862 4286085200
4.3920655 1.2444965 2.7836108 4286085200
4.9129529 0 2.6832025 4286085200
5.3468657 -0.97107357 2.6938062 4286085200
4.755475 0.62186396 2.7782638 4286085200
5.8372712 -0.76214665 2.5649574 4286085200
2.4144852 -1.7917832 1.4248178 4286085240
3.5349457 1.6566316 2.5617681 4286085240
4.6010618 1.0052959 2.8126225 4286085200
4.1183109 1.5708921 2.7628055 4286085240
5.1523929 -0.40581286 2.700284 4286085200
4.7268915 0.44904312 2.7233346 4286085200
5.1668401 -0.44032583 2.6983633 4286085200
4.5893927 1.0802157 2.8288975 4286085200
4.6492748 0.75283092 2.7630293 4286085200
4.0914326 1.6059494 2.7648747 4286085240
5.4655561 -1.2761716 2.7126656 4286085200
4.270658 1.3898951 2.7717726 4286085240
3.7362432 1.6783574 2.6503336 4286085240
4.8528128 0.10907714 2.6855488 4286085200
4.3306417 1.3101213 2.7759295 4286085200
4.7622924 0.40616331 2.7249532 4286085200
6.0898356 -3.2926641 2.8748364 4286085240
5.3908286 -0.99693352 2.7088282 4286085200
4.2111392 1.514042 2.7852569 4286085240
2.036221 -2.4663577 1.3750445 4286085240
2.0495651 1.467077 1.95701 4286085240
2.0223465 1.4623878 1.9458952 4286085240
4.8010478 0.23911977 2.6929033 4286085200
2.3175209 -1.8019145 1.3913128 4286085240
4.1871071 1.4600147 2.7594995 4286085240
4.3535261 1.2941991 2.7805009 4286085200
4.5321155 1.0821029 2.8052645 4286085200
6.1874175 -2.3241189 2.9482653 4286085240
4.0343714 1.6739373 2.767499 4286085240
2.8666265 1.5572953 2.2670681 4286085240
5.2563248 -0.65255147 2.7035265 4286085200
2.9192302 1.555657 2.2860374 4286085240
4.8216739 0.22463052 2.7022734 4286085200
2.0660102 1.4440289 1.9452107 4286085240
2.740319 1.5577782 2.2241879 4286085240
5.3953977 -1.1417034 2.6926787 4286085200
2.677521 -1.7691343 1.5192046 4286085240
0.40193164 -0.42156449 0.029271483 4283445810
2.6691141 -1.7882724 1.5163133 4286085240
5.4300117 -1.2495158 2.7011175 4286085200
2.9837277 1.5655111 2.3172171 4286085240
6.0714808 -2.8905206 2.8687336 4286085240
3.672451 1.6638919 2.6195915 4286085240
6.0898418 -2.9714913 2.8698509 4286085240
3.5513892 1.650452 2.5684776 4286085240
2.3084772 -1.759497 1.3829587 4286085240
2.2553711 1.4916553 2.0301344 4286085240
2.2853532 1.502809 1.2656586 4286085240
4.3153548 1.3282211 2.7754812 4286085240
4.9454098 -0.031730905 2.6889565 4286085200
6.0850973 -3.3407364 2.8695157 4286085240
1.9960386 1.4679059 1.9427762 4286085240
4.1307049 1.5151458 2.7499762 4286085240
2.1976643 1.4841118 2.0102696 4286085240
5.7088947 -1.576823 2.7912548 4286085200
3.2578135 1.6366205 2.4499876 4286085240
4.2341504 1.4459916 2.7717054 4286085240
5.3956771 -1.1961308 2.6876183 4286085200
5.9246311 -3.4026599 2.813349 4286085240
5.3976994 -1.3980838 2.6728337 4286085200
4.1385837 1.6091416 2.7844558 4286085240
5.6880374 -1.6499069 2.7754083 4286085200
2.5775375 -1.7874933 1.4838727 4286085240
2.6462719 1.5610471 2.1944335 4286085240
5.1479616 -0.45535707 2.6859825 4286085200
4.5733843 1.0146438 2.8044806 4286085200
2.2249854 -1.7879614 1.3598595 4286085240
4.767509 0.68581939 2.7975302 4286085200
2.0681732 -2.5715747 1.3941097 4286085240
5.3097796 -0.93796635 2.6810238 4286085200
4.6083903 1.0379453 2.8243735 4286085200
5.0421438 -0.26715279 2.6803775 4286085200
6.1404524 -2.3741615 2.9267733 4286085240
5.2608523 -0.68741941 2.6928995 4286085200
5.2249141 -0.61463714 2.6929688 4286085200
4.5162706 0.89598715 2.7416253 4286085200
5.3182168 -0.72965062 2.7146745 4286085200
0.542068 0.38764697 0.022767484 4283445810
5.4469066 -1.290258 2.7015901 4286085200
6.1216516 -2.4121556 2.9195991 4286085240
6.0962133 -3.2708809 2.8731713 4286085240
2.0038257 -2.3493237 1.3501329 4286085240
3.2074838 1.5632281 1.653254 4286085240
5.0667014 -0.2847572 2.6870694 4286085200
4.7839055 0.67250812 2.8045881 4286085200
4.7080612 0.53129339 2.7341084 4286085200
6.1249652 -2.390789 2.9235818 4286085240
2.3483617 -1.778015 1.399568 4286085240
1.9622691 -2.0286939 1.3017898 4286085240
2.7915046 1.5514922 2.2381136 4286085240
5.4184604 -1.3849269 2.6845884 4286085200
3.3815427 1.6514544 2.4999983 4286085240
5.304822 -0.74515969 2.7050834 4286085200
5.0661139 -0.22769293 2.6948533 4286085200
1.9751922 -2.372359 0.66610157 4286085240
2.1687946 -1.8928907 0.58806264 4286085240
2.2754357 -1.8244381 0.5721941 4286085240
1.973729 -2.401799 0.67016423 4286085240
3.4552591 1.6600623 2.5385547 4286085240
1.9226391 -1.8679538 1.9969182 4286085200
2.1042047 -1.9091605 0.59475392 4286085240
2.144908 -1.8903146 0.59028327 4286085240
4.931087 -2.9948912 0.56944948 4286085240
4.9236455 -2.9687722 0.56455576 4286085240
2.2969074 -1.8295683 0.57316804 4286085240
4.9065599 -2.9370315 0.56383044 4286085240
4.93332 -2.9101865 0.5508582 4286085240
4.9269171 -2.8639243 0.54587477 4286085240
4.8301954 -2.7458017 0.53018063 4286085240
2.0907512 -1.9153823 0.59878647 4286085240
2.0910451 -1.8850145 0.59324878 4286085240
2.163425 1.4813054 1.9979136 4286085240
2.2452664 -1.8420777 0.57829416 4286085240
5.355598 -0.9283523 2.7040718 4286085200
4.8494434 -2.4070261 0.45284438 4286085240
1.9858437 -2.0888891 0.62821031 4286085240
2.0139458 -2.0123298 0.61482096 4286085240
2.0268428 -1.9675305 0.61011368 4286085240
2.2906322 -1.8006517 0.56981295 4286085240
4.8868017 -2.8196518 0.54038799 4286085240
2.5731997 -1.7078043 0.53073186 4286085240
4.8459358 -2.65274 0.50417459 4286085240
4.8502684 -2.5349309 0.48248404 4286085240
2.2075636 -1.8651515 0.5820148 4286085240
4.8567114 -2.4790392 0.47392559 4286085240
4.836606 -2.4103377 0.4569484 4286085240
4.8681378 -2.7880886 0.53545773 4286085240
1.9879299 -1.9523754 1.3000147 4286085240
5.0089607 -1.8464189 0.30096582 4286085240
2.0316343 -1.9407479 0.60373801 4286085240
2.1405828 -1.9048997 0.59174681 4286085240
4.9840608 -0.063961297 2.697515 4286085200
4.9648452 -3.0372567 0.57514673 4286085240
4.8933301 -1.9844503 0.35099968 4286085240
4.9824862 -1.8548514 0.30557585 4286085240
4.8277569 -2.6026402 0.49522215 4286085240
4.8634238 -2.1007929 0.37919414 4286085240
4.840662 -2.5101569 0.4781093 4286085240
4.8916678 -2.0480802 0.36693683 4286085240
4.9565301 -2.9453697 0.55608362 4286085240
6.9708424 -1.7712113 0.057214707 4286085240
4.9647222 -1.902884 0.32189161 4286085240
2.5348284 -1.7356069 0.53845978 4286085240
5.3178797 -0.71223027 2.7184002 4286085200
4.7879086 0.30786577 2.7088413 4286085200
6.9648762 -2.0219057 0.12101713 4286085240
4.7775364 0.36114874 2.7169623 4286085200
2.0546892 -2.4725275 1.382612 4286085240
4.8583541 -2.7002285 0.51742446 4286085240
4.8531632 -2.2082396 0.40341139 4286085240
6.9805741 -0.68575954 -0.16062266 4283445810
4.8337855 -2.6662967 0.5125913 4286085240
7.102716 -0.72078949 -0.16563463 4283445810
1.9569972 -2.1786134 1.3173587 4286085240
7.0344086 -0.73668206 -0.15463746 4283445810
6.9237771 -0.42288616 -0.18626565 4283445810
3.3931358 1.6436448 2.503854 4286085240
6.9417386 -0.6144973 -0.162193 4283445810
6.5794621 -0.10562934 -0.18514711 4283445810
6.7324214 -0.15133068 -0.19431436 4283445810
2.0650756 -1.928789 0.60255754 4286085240
1.9469256 -2.2635052 0.65374225 4286085240
6.9902506 -2.0902519 0.13597798 4286085240
6.7649684 -0.21727224 -0.19226098 4283445810
1.9625711 -2.3115554 0.65958077 4286085240
2.6383922 1.0186887 -0.0018351674 4283445810
6.8594413 -0.26440668 -0.19578391 4283445810
6.9170375 -1.6163628 0.023565233 4286085240
4.873332 -2.2363296 0.40737504 4286085240
2.5535061 1.0475267 -0.0044311881 4283445810
2.0085728 1.4672107 1.9460795 4286085240
6.745801 -0.23833898 -0.18534356 4283445810
2.4834411 1.0655764 -0.0038634837 4283445810
2.4563999 1.0679846 -0.0042486787 4283445810
2.4224854 1.0671095 -0.0012384355 4283445810
2.5781958 1.0384036 -0.0031212568 4283445810
4.868875 -2.2532361 0.41559428 4286085240
2.3698068 1.0895625 -0.0031346381 4283445810
2.0261073 -1.9858541 0.61417317 4286085240
2.3430061 1.109241 -0.0076405853 4283445810
4.8465352 -2.1864696 0.39940673 4286085240
7.2673049 -1.357074 -0.072716653 4286085240
2.2382972 1.1262779 -0.0098389089 4283445810
2.0111551 -2.0289855 0.61765879 4286085240
7.168128 -0.91396296 -0.14498734 4283445810
6.8035483 -0.37171036 -0.18060905 4283445810
6.8176374 -0.35053024 -0.18176937 4283445810
7.2449923 -0.97108334 -0.14035547 4283445810
4.591063 0.89551461 2.773932 4286085200
1.9921433 -2.1090338 0.62951386 4286085240
1.9856284 -2.1569672 0.63613898 4286085240
1.9698343 -2.1536455 0.63746661 4286085240
2.168221 -1.829915 1.3446522 4286085240
6.9938064 -0.58517742 -0.17181158 4283445810
2.7595632 1.0149814 -0.0097192824 4283445810
6.5618467 -0.084275022 -0.18347174 4283445810
1.666808 1.138274 0.013100654 4283445810
4.8544898 -2.5570161 0.4826183 4286085240
4.60672 0.7687242 2.7502062 4286085200
6.9926777 -1.9692627 0.10374326 4286085240
4.9148731 -3.0284135 0.58283311 4286085240
6.9337168 -1.9767067 0.11174163 4286085240
6.9330578 -1.9404644 0.10113549 4286085240
4.9644785 -3.0810127 0.58916861 4286085240
4.863842 -2.5819244 0.49125949 4286085240
2.1655042 -1.8717316 0.58496237 4286085240
4.8404961 -2.5894852 0.49528158 4286085240
1.5343307 1.1869632 -0.000251472 4283445810
1.5038106 1.1984047 -0.0026899874 4283445810
1.5098563 1.2111528 -0.005543828 4283445810
1.5346792 1.2149845 -0.0088717341 4283445810
4.8686051 -2.1216042 0.3831442 4286085240
1.4890051 1.2141558 -0.0054188967 4283445810
1.4457189 1.2179341 -0.0060425699 4283445810
4.8776565 -2.0698764 0.37105501 4286085240
1.4489844 1.228644 -0.0097477138 4283445810
2.2165155 -1.848454 0.57959074 4286085240
6.9756346 -1.5123944 -0.0058737993 4286085240
6.9459624 -1.4826252 -0.0091890097 4286085240
6.9499536 -1.4718181 -0.014763266 4286085240
1.9615989 -2.2007375 0.64637929 4286085240
1.9554442 -2.1797032 0.64266896 4286085240
4.8990765 -2.0235081 0.35883272 4286085240
7.2198901 -1.0859644 -0.12277555 4283445810
1.9837641 -2.1899734 0.64232147 4286085240
1.2654344 1.3568428 -0.040158898 4283445810
1.5376132 1.1816467 0.0014525652 4283445810
1.5309726 1.1648735 0.0079678595 4283445810
2.129416 1.4680834 1.9793689 4286085240
6.1040816 -3.3257184 2.8848262 4286085200
1.561034 1.1333935 0.016089708 4283445810
2.7250483 0.9874441 0.0010873973 4283445810
2.881222 0.96636796 -0.0054229796 4283445810
1.5563718 1.1491598 0.011014491 4283445810
1.5373528 1.1542609 0.011342078 4283445810
6.9873319 -2.0527749 0.12532675 4286085240
1.3421657 1.2140834 0.00082305074 4283445810
1.3672688 1.2447798 -0.011474937 4283445810
2.6414397 1.0344801 -0.0053698719 4283445810
2.3414614 1.1269298 -0.012792766 4283445810
2.0443699 -1.9403989 0.60429347 4286085240
6.615921 -0.12746201 -0.18859094 4283445810
2.0506859 -1.9339166 0.60213083 4286085240
6.9688907 -1.6049018 0.02082327 4286085240
2.7389526 0.99744946 -0.0036378205 4283445810
2.2909775 1.1436017 -0.015419662 4283445810
2.5763772 1.0472777 -0.0055631399 4283445810
2.4085507 1.0933944 -0.0071665496 4283445810
6.6461844 -0.19209948 -0.18127507 4283445810
2.4026904 1.1140209 -0.011882931 4283445810
2.210124 1.1298873 -0.0076759607 4283445810
6.9335933 -1.7380681 0.054008603 4286085240
1.9980848 -2.0484314 0.62237906 4286085240
1.9831289 1.1414328 0.0011467636 4283445810
4.9800749 -1.8904506 0.31760123 4286085240
1.9867929 1.1605539 -0.006728977 4283445810
1.7417834 1.1489973 0.0073465407 4283445810
6.9359527 -1.8694283 0.079774976 4286085240
1.7310221 1.1498752 0.0057455599 4283445810
1.122799 1.4066242 -0.051144391 4283445810
1.9447922 -2.2102926 0.64608651 4286085240
2.2112255 1.1846303 -0.022255033 4283445810
1.9692532 1.46532 1.9325736 4286085240
1.9668097 -1.9818525 1.2947831 4286085240
3.421869 0.92031533 -0.036160886 4283445810
1.7662262 1.1570168 0.0040031075 4283445810
5.3158035 -0.90389746 2.6859314 4286085200
6.9678411 -0.56048036 -0.16941935 4283445810
0.54599988 1.3462739 -0.045118362 4283445810
1.7034439 1.1394387 0.0099737942 4283445810
2.9532337 1.5616238 2.3010912 4286085240
1.9677472 -2.2219563 0.6478433 4286085240
0.99164557 1.4697036 -0.069565639 4283445810
1.134663 1.4355805 -0.060683578 4283445810
1.1112444 1.4388328 -0.060495079 4283445810
0.97072434 1.470697 -0.069696747 4283445810
0.94558883 1.4664413 -0.069614179 4283445810
2.4499629 -1.7938496 1.4398441 4286085240
0.92975509 1.4727787 -0.071599036 4283445810
6.9765849 -2.0617874 0.13124272 4286085240
2.5181303 1.0614055 -0.0044265389 4283445810
6.6273837 -0.17026269 -0.18462145 4283445810
2.204886 1.1721574 -0.0182105 4283445810
0.88537711 1.4747336 -0.072525859 4283445810
0.8875044 1.4500742 -0.064806074 4283445810
0.86914927 1.4582713 -0.067378461 4283445810
0.86818653 1.4673256 -0.070935965 4283445810
0.87603033 1.4382002 -0.06057784 4283445810
6.959044 -1.6497589 0.031796545 4286085240
2.3027794 1.1219739 -0.0095250607 4283445810
2.2836452 1.1262655 -0.0099193007 4283445810
2.0188212 -1.940942 0.60533094 4286085240
6.8028369 -0.2841008 -0.19069993 4283445810
4.9542189 -1.8624599 0.31425828 4286085240
7.2172184 -1.3717146 -0.063892633 4286085240
6.8918109 -0.39872903 -0.1886422 4283445810
1.9334848 1.1713552 -0.0044739246 4283445810
2.0553994 1.1482149 -0.0037885308 4283445810
1.9016665 1.1688027 -0.0043276548 4283445810
3.3439496 0.91085804 -0.028646082 4283445810
3.3511848 0.92437309 -0.032756537 4283445810
2.1874685 -1.8104111 1.3489935 4286085240
5.7479286 0.75965756 2.7260699 4286085240
1.3159093 1.2774756 -0.018311143 4283445810
7.2347865 -0.94607717 -0.14494163 4283445810
4.8403354 -2.3255146 0.43618026 4286085240
1.9291705 1.1435379 0.0025526583 4283445810
1.935334 1.1555871 -0.0014237165 4283445810
1.9370576 1.1398418 0.001616478 4283445810
2.5926244 -1.7673404 1.4855523 4286085240
3.7495947 1.669908 2.6509984 4286085240
1.54594 1.2138541 -0.0091143101 4283445810
1.2738247 1.3354962 -0.033918276 4283445810
1.273831 1.3100609 -0.026088217 4283445810
1.4145851 1.2470038 -0.012605071 4283445810
6.968143 -1.5342097 -0.00021663308 4286085240
1.4319443 1.2260807 -0.0086486936 4283445810
0.55022216 0.41520634 0.021026343 4283445810
1.3469037 1.2501265 -0.011740327 4283445810
1.3721883 1.225345 -0.0032769144 4283445810
2.8830137 1.5482626 2.2694645 4286085240
2.1232078 -1.9016876 0.59308803 4286085240
6.9209509 -1.547133 0.013311595 4286085240
5.6987438 0.63268298 2.7006645 4286085240
1.3938763 1.2287745 -0.0053823739 4283445810
1.4198647 1.2355791 -0.010247052 4283445810
4.1190577 1.6320742 2.7879777 4286085240
1.3301239 1.2464858 -0.0089303851 4283445810
4.8691235 -2.1404574 0.38715383 4286085240
0.9469505 1.5000048 -0.080868185 4283445810
1.3766464 1.2614077 -0.017319828 4283445810
1.3940648 1.252932 -0.012967825 4283445810
1.6821595 1.1487678 0.0092550814 4283445810
2.1957581 -1.8733771 0.5851531 4286085240
1.3074505 1.2856404 -0.01971814 4283445810
1.4402791 1.2452571 -0.013797194 4283445810
2.2127757 -1.8574122 0.58196229 4286085240
3.2134504 0.91970909 -0.022768885 4283445810
1.4962063 1.2522924 -0.018481106 4283445810
3.0897822 0.96521485 -0.022403374 4283445810
0.63112032 1.3873043 -0.053606302 4283445810
3.2896311 0.91874665 -0.027327746 4283445810
4.942306 -1.9307798 0.33025661 4286085240
6.9288168 -0.44553009 -0.18147051 4283445810
0.69148791 1.4106156 -0.057886213 4283445810
2.0169187 1.1480205 -0.004043892 4283445810
2.0994055 1.1816399 -0.015783817 4283445810
2.5769744 -1.7342474 0.53608483 4286085240
2.401484 1.0762858 -0.0028650463 4283445810
0.81034809 1.4754581 -0.075131267 4283445810
0.83369893 1.4729414 -0.072938703 4283445810
1.9585689 -2.2549849 0.65152538 4286085240
2.4566281 1.0915613 -0.010053962 4283445810
0.82863992 1.491742 -0.079923749 4283445810
0.85656983 1.4909682 -0.078085363 4283445810
0.86824256 1.4890854 -0.077893496 4283445810
4.3412595 1.2150569 2.7542822 4286085200
4.869298 -2.1685777 0.39319605 4286085240
2.6543438 1.0493554 -0.010290504 4283445810
7.223268 -1.2291991 -0.096484482 4286085240
7.015141 -0.64370036 -0.1686281 4283445810
1.487834 1.2331767 -0.012630448 4283445810
1.5064434 1.2364323 -0.014819205 4283445810
1.5204328 1.2316928 -0.011874646 4283445810
1.5718462 1.2240555 -0.013472706 4283445810
5.6512094 0.44464591 2.6748908 4286085240
3.2112947 0.94139749 -0.023305833 4283445810
3.3772058 0.88513559 -0.026569456 4283445810
4.8620234 -2.4621058 0.46554002 4286085240
5.0225945 -0.3146188 2.6590312 4286085200
7.0214977 -1.4281815 -0.029631108 4286085240
7.0217495 -2.3352115 0.18295808 4286085240
3.8273268 1.6898221 2.6896677 4286085240
7.0329013 -2.2514729 0.17212763 4286085240
2.4254422 -1.7479492 0.54818237 4286085240
7.2331891 -0.86331588 -0.1552555 4283445810
2.5607076 1.0218368 0.0025349557 4283445810
0.9191401 1.476833 -0.073851824 4283445810
1.072806 1.4265045 -0.056466799 4283445810
1.7173891 1.1567488 0.0039680898 4283445810
4.7488971 0.43575373 2.7288105 4286085200
2.6046383 1.5704992 2.1860001 4286085240
1.1278389 -0.6685397 -0.019477576 4283445810
1.1585954 -0.67428839 -0.026122481 4283445810
2.4090729 -1.771656 0.55510455 4286085240
0.63278854 1.4028791 -0.059626311 4283445810
1.1689117 -0.64564186 -0.016380727 4283445810
1.9936218 -2.4101892 0.66922832 4286085240
1.2085841 -0.64250523 -0.020547181 4283445810
2.4617438 -1.7265133 0.54424036 4286085240
5.8188224 -1.1235374 2.5792768 4286085200
7.2612085 -1.211681 -0.10464132 4286085240
1.2863938 1.3061223 -0.025584012 4283445810
1.3071408 1.3060927 -0.026954904 4283445810
6.9284163 -1.9152002 0.09612307 4286085240
0.78882855 -0.67981136 0.023146033 4283445810
1.7064422 1.1814461 -0.0020189583 4283445810
4.832396 -2.4276414 0.46111688 4286085240
1.014695 -0.64170659 0.0087784529 4283445810
4.8183532 0.19347769 2.6910439 4286085200
2.1941323 1.1574389 -0.013303906 4283445810
7.0076833 -2.1445835 0.14593381 4286085240
6.9367032 -1.5740547 0.017537236 4286085240
1.4616135 -0.62160033 -0.052596092 4283445810
1.0703306 1.4471936 -0.06379807 4283445810
1.792276 1.1254467 0.013147146 4283445810
1.8327824 1.1427108 0.0063006282 4283445810
1.9958909 1.1573073 -0.006077826 4283445810
1.6392511 -0.49770987 -0.042090327 4283445810
4.9540014 -1.9170393 0.32606816 4286085240
2.2663884 -1.7974222 1.3747783 4286085240
4.8877993 -2.3002143 0.42378366 4286085240
2.0111899 -1.99033 0.61368728 4286085240
6.95889 -2.1786168 0.15855521 4286085240
1.3522022 -0.65347534 -0.047802508 4283445810
4.8294725 -2.7045076 0.52555519 4286085240
1.3211763 -0.61772168 -0.029079914 4283445810
1.4633305 -0.58393389 -0.039490402 4283445810
1.2494231 1.3879316 -0.049333632 4283445810
1.2136521 1.3924313 -0.050153285 4283445810
1.3144841 1.3261176 -0.034025222 4283445810
1.7521706 -0.36442232 -0.028630599 4283445810
2.2988472 -1.7951981 0.56771886 4286085240
2.2730901 -1.7986993 0.56909394 4286085240
0.37051404 1.1566967 0.010479957 4283445810
1.6402147 -0.40749443 -0.016259789 4283445810
1.8359795 -0.24856901 -0.025903553 4283445810
0.37693906 1.1639047 0.0084801912 4283445810
4.9969254 -1.823781 0.29734358 4286085240
7.2859011 -1.3121891 -0.084822774 4286085240
2.064918 -1.9100972 0.59960735 4286085240
1.7688813 -0.27131 -0.01473102 4283445810
1.8431122 -0.1926246 -0.019980103 4283445810
0.79332441 1.4610753 -0.069591254 4283445810
0.80162805 1.4877158 -0.079233468 4283445810
1.8660504 -0.1017433 -0.014685839 4283445810
1.5023721 -0.61070263 -0.055972606 4283445810
1.5381809 -0.5854156 -0.052195638 4283445810
1.5235178 -0.571464 -0.044699505 4283445810
1.2293453 1.3878282 -0.049420338 4283445810
0.87210041 1.495729 -0.080157578 4283445810
1.3132448 1.2506201 -0.0096121728 4283445810
2.4544342 1.0438312 0.0038894713 4283445810
1.8509958 -0.20243448 -0.023650303 4283445810
3.1101027 1.4134922 -0.051457793 4283445810
1.8617392 0.035831843 -0.0040359199 4283445810
0.57386929 1.3404261 -0.040059417 4283445810
6.8669648 -0.47476858 -0.17620683 4283445810
1.5934912 -0.53730059 -0.045229003 4283445810
1.571717 -0.53838605 -0.041566432 4283445810
7.1215935 -1.4247464 -0.041477084 4286085240
1.5538505 -0.53783542 -0.039448023 4283445810
1.5590643 -0.50077838 -0.026661336 4283445810
7.2687192 -1.0694559 -0.12624836 4283445810
1.8116798 -0.26303956 -0.023456246 4283445810
2.1937599 0.61713791 -0.015244216 4283445810
2.480638 1.477643 0.11980319 4286085240
1.8882052 -0.090805843 -0.019051969 4283445810
2.3316591 1.4922297 0.15406418 4286085240
1.7715757 -0.13079061 0.002984345 4283445810
1.9358326 0.17431752 -0.015198052 4283445810
7.0244641 -2.2239337 0.16138023 4286085240
7.0708008 -2.3263395 0.17577869 4286085240
4.8585348 -2.3727787 0.44451922 4286085240
0.98307317 -0.65303099 0.0091358721 4283445810
0.97286606 -0.64926159 0.012229939 4283445810
0.9455809 -0.64574331 0.017711967 4283445810
2.3332715 -1.8040562 0.56585717 4286085240
2.334522 -1.7871268 0.56203747 4286085240
2.5329528 0.8913632 -0.03392531 4283445810
6.9416165 -2.3333435 0.19676368 4286085240
2.5157456 0.90804482 -0.024703264 4283445810
2.4944329 0.90035647 -0.020846128 4283445810
1.7904716 -0.25263745 -0.016419128 4283445810
3.1341319 1.4365596 -0.050494432 4283445810
2.5576727 1.4903772 0.10508493 4286085240
2.5350902 1.4881301 0.10963109 4286085240
1.9523565 0.087725252 -0.022376359 4283445810
0.67679727 1.4266226 -0.065699995 4283445810
0.31924185 1.1120584 0.021417439 4283445810
1.3090856 -0.66397715 -0.045687139 4283445810
1.3263038 -0.65147263 -0.043448716 4283445810
3.1817622 1.4769558 -0.053394645 4283445810
3.1952901 1.4957107 -0.053418636 4283445810
1.2802186 -0.63905442 -0.030063748 4283445810
2.4804697 1.0268623 0.0053258836 4283445810
2.493572 1.0416576 0.0025134385 4283445810
6.9628997 -0.6614598 -0.15894449 4283445810
1.0128897 1.4164295 -0.052732795 4283445810
1.0526469 1.4522665 -0.064273685 4283445810
1.0150425 1.4290954 -0.055938542 4283445810
1.1744217 1.4100578 -0.054556623 4283445810
2.4366188 1.4726797 0.12855089 4286085240
2.4535143 1.4936558 0.1303252 4286085240
1.860617 0.10753697 -0.001403749 4283445810
1.8724644 0.12630941 -0.0028958619 4283445810
1.2787973 -0.65895146 -0.0386464 4283445810
2.0777752 -1.8469348 1.3167956 4286085240
3.6503811 1.6680391 2.6136031 4286085240
1.1887425 1.4072756 -0.053905379 4283445810
1.180831 1.4223616 -0.058128536 4283445810
4.8786592 -1.9967637 0.35517818 4286085240
5.9455109 -3.4400644 2.8202672 4286085240
6.9608102 -1.8282638 0.068050027 4286085240
4.9020891 -2.8705883 0.54986674 4286085240
2.3718104 -1.7737675 0.55845785 4286085240
2.3873942 -1.7439291 0.55141544 4286085240
2.3743877 -1.7579219 0.55586654 4286085240
1.9770344 -2.3591273 0.66541529 4286085240
7.0360804 -2.1780035 0.1445007 4286085240
-0.12302981 -0.74992913 0.021051347 4283445810
1.2479599 1.3210317 -0.027545303 4283445810
6.9396529 -1.4463731 -0.019264102 4286085240
4.8531418 -2.4968903 0.47815344 4286085240
7.2394524 -1.1126869 -0.11889237 4283445810
2.2511852 -1.8288654 0.57363999 4286085240
2.2438326 -1.8109647 0.57279915 4286085240
0.98996633 -0.67141372 0.00033581257 4283445810
0.96950805 -0.67123377 0.0033676922 4283445810
2.2957292 1.5110973 0.16668773 4286085240
2.3443036 -1.7827069 0.56000257 4286085240
3.4257588 0.90960115 -0.036291331 4283445810
0.28354448 1.0853992 0.027041942 4283445810
0.63918328 1.4292568 -0.068115205 4283445810
1.8284261 -0.21184525 -0.01844275 4283445810
0.73016304 1.4253963 -0.06064415 4283445810
4.8344393 -2.2561729 0.41976744 4286085240
6.9481812 -1.6707665 0.037612051 4286085240
1.9584363 -2.291729 0.65590942 4286085240
0.50304914 1.2936311 -0.02924335 4283445810
0.48570314 1.2731173 -0.023167521 4283445810
0.48794711 1.2851255 -0.026580811 4283445810
1.9773563 0.30684698 -0.015428275 4283445810
3.2223086 1.60395 -0.032290995 4283445810
1.8509818 -0.23251393 -0.028295726 4283445810
1.8246402 -0.22918564 -0.021026149 4283445810
7.3458204 -1.3473437 -0.083603084 4286085240
2.6455657 1.0226022 -0.027597845 4283445810
1.3293335 1.2822598 -0.019981354 4283445810
1.8929048 1.1384958 0.0072235763 4283445810
2.4159551 1.5028411 0.13977858 4286085240
2.0102429 -2.0477018 0.62291569 4286085240
6.9320698 -1.714051 0.048897326 4278779699
1.7088729 -0.43036944 -0.036759347 4283445810
1.6941653 -0.41225815 -0.0289637 4283445810
7.2546458 -1.1627564 -0.10926366 4286085240
2.0988853 -1.8536798 1.3256299 4286085240
2.1766486 1.4884008 0.18757731 4286085240
2.1523302 1.481925 0.19177906 4286085240
0.81793326 -0.66043514 0.029456049 4283445810
1.7540575 -0.29209256 -0.014807075 4283445810
1.9752976 -2.064482 0.62649506 4286085240
4.8829861 -2.32674 0.42792496 4286085240
1.9235379 0.09879788 -0.015836507 4283445810
2.595891 -1.7348951 0.53423584 4286085240
1.9925271 1.45059 1.9296167 4286085240
3.2681754 1.6072086 -0.046279371 4283445810
1.9301671 0.018572699 -0.019926369 4283445810
1.9026246 0.0091536259 -0.015029877 4283445810
0.6309458 1.3752133 -0.048816442 4283445810
1.6350631 -0.49072155 -0.037611902 4283445810
1.6023518 -0.45860246 -0.022417098 4283445810
1.9038532 -0.11604454 -0.025408894 4283445810
2.7100773 1.0575414 -0.034761816 4283445810
1.666484 -0.42821771 -0.027856886 4283445810
1.6508195 -0.43832266 -0.026609391 4283445810
3.5067132 1.6571528 2.5518038 4286085240
2.5923629 0.96873885 -0.027383149 4283445810
2.2386098 1.5045699 0.17785391 4286085240
1.2378463 1.344432 -0.036085546 4283445810
6.9860616 -1.9070132 0.082505703 4286085240
3.1102927 1.3895755 -0.055428952 4283445810
0.90771049 -0.64581358 0.023081899 4283445810
1.6579579 -0.48603341 -0.041834623 4283445810
1.7523088 -0.34690446 -0.025582552 4283445810
2.9082873 1.5719826 0.038876474 4286085240
6.0818815 -2.6480393 2.8876586 4286085240
1.9735529 -2.1300941 0.63417512 4286085240
1.8868732 -0.0090714293 -0.012110457 4283445810
1.2106607 1.4070879 -0.054806158 4283445810
3.2815635 0.92783809 -0.029280365 4283445810
3.2799702 0.95012802 -0.032567948 4283445810
0.82774693 -0.65964144 0.028587371 4283445810
4.1638169 1.5121419 2.7658343 4286085240
4.9705658 -1.9602368 0.33366001 4286085240
1.5404295 -0.59192932 -0.054867715 4283445810
1.8255608 -0.10540297 -0.0065980256 4283445810
2.6370766 1.5253375 0.093255281 4286085240
6.9450121 -1.6936092 0.042987019 4286085240
1.8805968 0.078457817 -0.0056884885 4283445810
2.6834381 1.0570759 -0.02623564 4283445810
7.2717686 -1.2614882 -0.09462148 4286085240
3.563741 1.6423 2.5688224 4286085240
1.9702204 0.13925299 -0.025597036 4283445810
7.0336285 -2.3894327 0.1991197 4286085240
1.3333488 1.30273 -0.025672197 4283445810
4.8572726 -2.7405977 0.53055924 4286085240
0.67522067 1.4000605 -0.054036736 4283445810
1.8400482 1.1390698 0.0071906149 4283445810
1.5518061 -0.5524599 -0.043701485 4283445810
3.0195525 1.5700849 0.011457443 4286085240
4.7885852 0.25391406 2.6918981 4286085200
2.3018894 1.5045925 0.16227713 4286085240
2.8555591 1.5791727 0.051555127 4286085240
0.86477488 -0.6536234 0.02553764 4283445810
2.2199132 1.5023627 0.18149281 4286085240
1.7298658 -0.3511191 -0.021623492 4283445810
1.3804616 1.2730641 -0.019882619 4283445810
2.4773374 -1.7493442 0.54755437 4286085240
2.5571344 0.94157177 -0.026810318 4283445810
2.3805532 1.502084 0.14724267 4286085240
2.8752596 1.1754701 -0.04916656 4283445810
4.7896986 0.42399472 2.7388043 4286085200
1.7727767 -0.31080329 -0.023152033 4283445810
1.8884544 0.30857772 0.0055949092 4283445810
1.3106711 1.2970933 -0.023753077 4283445810
1.6723862 -0.44978976 -0.034394622 4283445810
2.4245415 -1.7355006 0.54786634 4286085240
1.6533666 -0.47894037 -0.038669914 4283445810
4.866137 -2.3571699 0.44037068 4286085240
4.8688235 -2.3971937 0.44873607 4286085240
4.9024024 -1.9698224 0.34690109 4286085240
2.3342533 1.5150837 0.15907958 4286085240
0.98974973 -0.68056661 -0.0035360157 4283445810
2.230593 -1.8300221 0.57732236 4286085240
1.782424 -0.3291983 -0.0278375 4283445810
1.0487317 1.432327 -0.057731152 4283445810
4.8728642 -2.0863326 0.37509906 4286085240
2.9104702 1.5852458 0.040479302 4286085240
7.2006788 -1.1778312 -0.10553044 4283445810
-0.080944762 -0.79294002 0.022913992 4283445810
1.9020605 -0.030473851 -0.016489565 4283445810
3.2472889 1.629401 -0.036622196 4283445810
3.2747657 1.5974267 -0.049334437 4283445810
1.004436 1.473358 -0.070228577 4283445810
1.411549 -0.61368382 -0.042190015 4283445810
0.75138235 1.4496319 -0.069540605 4283445810
2.6527078 1.5230452 0.087133169 4286085240
0.9264971 -0.663661 0.011725932 4283445810
1.9237366 0.21061838 -0.011703938 4283445810
1.9370793 0.15565568 -0.016688943 4283445810
1.6933025 -0.46123871 -0.04061076 4283445810
0.67845058 1.3953139 -0.053144753 4283445810
4.9141512 -1.9562424 0.33869097 4286085240
1.8872498 0.02421356 -0.009938091 4283445810
6.9783359 -1.856837 0.07238391 4286085240
7.249063 -1.1380026 -0.11423498 4286085240
1.732383 -0.32857189 -0.016822875 4283445810
2.1136761 1.4753783 0.19900218 4286085240
4.1178508 1.6469121 2.7946699 4286085240
1.5587159 1.1393554 0.014188617 4283445810
1.0163524 1.4406952 -0.060229838 4283445810
1.8393482 -0.076658674 -0.0065606236 4283445810
1.8378475 -0.08839722 -0.0063298941 4283445810
1.9129958 0.22186971 -0.0080015361 4283445810
6.9578938 -2.1049395 0.14264247 4286085240
2.6372378 0.99998629 -0.031701267 4283445810
1.2707324 -0.63941377 -0.02979821 4283445810
5.3574409 -0.82278812 2.7221782 4286085200
1.5792633 -0.5636875 -0.052917153 4283445810
1.1481532 1.4242966 -0.058320135 4283445810
2.4107976 0.80947274 -0.022435814 4283445810
2.0919347 -1.8356287 1.3201463 4286085240
3.0323687 1.589125 0.011642426 4286085240
1.8499029 -0.068192899 -0.0089833885 4283445810
1.4556091 -0.60259151 -0.043403029 4283445810
3.2178164 1.5441734 -0.047898203 4283445810
1.9525468 0.16951112 -0.020497233 4283445810
6.8063431 -0.3061437 -0.18583578 4283445810
2.1456351 1.1583544 -0.011528522 4283445810
5.724411 1.579414 2.7816677 4286085240
2.4814811 -1.7642369 0.54801917 4286085240
1.1077555 -0.63995767 -0.0042033792 4283445810
4.0475225 0.70069426 -0.052786261 4283445810
0.54810441 1.3269975 -0.037717164 4283445810
1.1507702 1.4089657 -0.05408743 4283445810
1.8672627 -0.050878312 -0.010700099 4283445810
-0.1010369 -0.76000243 0.029484212 4283445810
2.9729543 1.2714267 -0.051018685 4283445810
4.1214685 1.5872729 2.7718077 4286085240
0.851399 -0.65212816 0.028909743 4283445810
2.4505098 1.4703654 0.12519991 4286085240
6.707304 -0.32326984 -0.17177254 4283445810
2.5721514 -1.7430277 0.53850293 4286085240
1.3720043 -0.62814343 -0.041799501 4283445810
1.471426 -0.61281109 -0.051192194 4283445810
1.0875969 1.4175798 -0.053530306 4283445810
1.2628113 1.3627582 -0.042321175 4283445810
7.1057186 -0.87124878 -0.14516485 4283445810
1.9282873 0.12386352 -0.015707433 4283445810
1.3883859 -0.64373326 -0.050424635 4283445810
1.4574544 -0.63089073 -0.056543261 4283445810
3.2581234 1.5763922 -0.048980772 4283445810
1.5564835 -0.57531512 -0.052032918 4283445810
1.6172633 1.1663239 0.0037732422 4283445810
2.4748898 1.463485 0.1188789 4286085240
1.8909621 1.6565366e-07 -0.012296841 4283445810
1.9261132 0.030891178 -0.019018352 4283445810
1.8838966 1.149581 0.0023311675 4283445810
1.892688 0.11548249 -0.0073911548 4283445810
1.9271833 0.29273421 -0.0039123297 4283445810
1.7499014 -0.30293763 -0.015684456 4283445810
0.88010412 -0.66078979 0.021282971 4283445810
1.9091337 0.14418274 -0.010080472 4283445810
1.6824644 -0.44095859 -0.033539444 4283445810
1.2633865 1.3459747 -0.036286503 4283445810
2.2333229 1.1507989 -0.014988914 4283445810
1.6979609 -0.39593709 -0.025365636 4283445810
6.3814178 -0.061467305 -0.17152047 4283445810
0.98048276 1.4283671 -0.054584265 4283445810
1.9340101 0.071361788 -0.017978877 4283445810
2.9450493 0.96682507 -0.011696637 4283445810
1.6156197 -0.48770642 -0.032975301 4283445810
3.2027929 1.5117649 -0.049749762 4283445810
1.3753644 -0.60059655 -0.031038791 4283445810
2.4302509 1.490198 0.13479522 4286085240
0.45788234 1.2479898 -0.015498608 4283445810
1.0528096 -0.65641046 -0.0027970672 4283445810
2.6849766 1.5301429 0.081197798 4286085240
2.9352994 1.2220497 -0.052978963 4283445810
2.9305723 1.2421981 -0.043514222 4283445810
7.2710218 -1.2854221 -0.089170039 4286085240
3.2224207 1.5336869 -0.050636053 4283445810
1.2648665 1.3871038 -0.04953362 4283445810
1.5342847 -0.54209769 -0.037278354 4283445810
1.9977924 -2.0679696 0.62552392 4286085240
1.0987558 -0.64655155 -0.0048744678 4283445810
2.5140185 -1.7451692 0.54392385 4286085240
2.1215241 1.4707669 0.19666477 4286085240
1.7671456 -0.34103411 -0.027538031 4283445810
1.8927053 0.091128647 -0.0086201429 4283445810
1.2586712 -0.64348567 -0.028114766 4283445810
1.8168831 -0.15757185 -0.0098675191 4283445810
1.4753374 -0.59421253 -0.04527986 4283445810
2.358088 1.4985046 0.14934158 4286085240
2.3910756 1.4980229 0.14437839 4286085240
1.9289583 0.30884743 -0.0032829344 4283445810
2.3496635 1.0985955 -0.0048212707 4283445810
3.2219119 0.0051690051 2.8164871 4286085200
3.2700984 0.073430628 2.8199096 4286085200
4.8316317 -2.6247842 0.49960744 4286085240
2.6485031 1.0139858 -0.029773891 4283445810
1.9927649 -2.1233089 0.63250244 4286085240
6.9489722 -1.8013254 0.063446134 4286085240
3.1818144 -0.051030535 2.8270209 4286085200
3.2872105 0.089639679 2.8230464 4286085200
1.1179279 1.42847 -0.056410015 4283445810
3.6817269 0.60160249 2.8761156 4286085200
3.7512796 0.65628403 2.8979216 4286085200
1.5896248 1.1309783 0.017668843 4283445810
2.2692008 1.5093317 0.17206471 4286085240
3.587559 0.41608593 2.8903236 4286085200
3.5916519 0.46920034 2.8711627 4286085200
3.6213603 0.49080008 2.8786869 4286085200
0.68704689 1.4363256 -0.067151278 4283445810
3.2582099 0.020900682 2.8337533 4286085200
2.3564923 1.5187984 0.15489402 4286085240
3.8718483 0.96953827 2.854394 4286085200
4.1973042 1.6767983 2.8310225 4286085240
1.9782705 -2.2629499 0.65293074 4286085240
3.4534161 0.27750224 2.8568931 4286085200
3.8995793 1.24703 2.7686796 4286085200
3.8683734 1.2507409 2.7440917 4286085200
4.0434756 1.4668111 2.791656 4286085240
1.0368367 -0.66505492 -0.0039441884 4283445810
3.8876345 1.0400182 2.8365293 4286085200
3.8332129 1.0717101 2.7894585 4286085200
3.5012536 0.30396271 2.8797927 4286085200
3.6990941 0.53763026 2.9139085 4286085200
3.4868126 0.33654135 2.855902 4286085200
4.0728183 1.5070885 2.8014002 4286085240
3.4416161 0.25434572 2.8553064 4286085200
3.0989368 1.3964425 -0.051693052 4283445810
3.7710729 0.67221916 2.9040112 4286085200
3.7431467 1.665118 2.5263398 4286085240
3.0921118 1.5329603 2.1067369 4286085240
3.068207 1.5333883 2.0931809 4286085240
3.2051802 -0.020560602 2.8213177 4286085200
3.0540056 1.5508536 2.077879 4286085240
3.1696434 -0.040667504 2.8101268 4286085200
3.8721385 1.1094218 2.8010757 4286085200
3.3863301 0.17393067 2.8520663 4286085200
3.3436756 0.13949694 2.8399272 4286085200
3.3309114 0.12826385 2.8343041 4286085200
3.7203221 0.67549103 2.8680155 4286085200
3.4958372 0.3260991 2.8654277 4286085200
2.2679467 1.487594 1.5696586 4286085240
6.9095793 -0.74604362 -0.13909149 4283445810
3.7072637 0.57529467 2.902303 4286085200
1.3408368 1.2768708 -0.018087685 4283445810
2.6227055 1.5679722 1.7834558 4286085240
4.1911016 1.7212651 2.8145986 4286085240
2.1149588 1.5428348 1.4620879 4286085240
3.4972267 0.31491765 2.8736684 4286085200
3.6743171 0.50998378 2.9114668 4286085200
3.1640632 1.5560088 2.14973 4286085240
3.7136326 0.62210751 2.8886404 4286085200
2.2867467 1.4842488 1.5804248 4286085240
3.9347684 1.0121602 2.8850238 4286085200
3.222301 -0.010335593 2.8302076 4286085200
2.720546 1.5736179 1.8481183 4286085240
2.164984 1.1332104 -0.0047447681 4283445810
2.7167213 1.583056 1.8400626 4286085240
3.8117042 0.87046111 2.8544087 4286085200
3.7021999 0.59276289 2.8966758 4286085200
4.114747 1.7208353 2.7599373 4286085240
3.831578 1.0845149 2.7823315 4286085200
3.0083735 1.5520347 2.0458212 4286085240
4.0183673 1.4431354 2.7828088 4286085240
3.5480108 0.39420584 2.8699081 4286085200
3.0706093 1.360049 -0.053810984 4283445810
2.1362932 1.5271224 1.4769366 4286085240
2.8099458 1.5775692 1.9049287 4286085240
3.9527824 1.4052849 2.7501559 4286085240
3.4254475 0.19797856 2.8729608 4286085200
2.174258 1.5228648 1.5024989 4286085240
0.46853656 1.252167 -0.016344011 4283445810
3.5115662 0.36737466 2.8571062 4286085200
2.9279735 1.5705097 1.9909971 4286085240
1.7634377 -0.28495401 -0.015378222 4283445810
3.8610265 1.1803215 2.7610002 4286085200
3.814553 0.80058402 2.884279 4286085200
3.9265084 1.3113996 2.7653303 4286085200
3.7860873 0.78194004 2.8726299 4286085200
4.1370687 1.6220393 2.8080773 4286085240
3.006882 1.5634966 2.0445142 4286085240
3.4281001 0.24229431 2.853107 4286085200
3.9500492 0.86878455 2.9551044 4286085200
3.399405 0.21288812 2.8452625 4286085200
3.2159014 1.5687127 2.181963 4286085240
3.2902672 0.063325912 2.8383641 4286085200
3.1902173 -0.030696971 2.8178434 4286085200
2.8334377 1.168993 -0.04041189 4283445810
3.4375985 0.23188749 2.8632426 4286085200
2.9092515 1.2221682 -0.044383615 4283445810
3.7023067 1.6754811 2.4898124 4286085240
2.0722651 1.537299 1.4403811 4286085240
3.830586 0.82963824 2.8853891 4286085200
3.0792196 1.5512545 2.0953097 4286085240
1.7006499 -0.37936792 -0.021519572 4283445810
3.2213156 1.5585834 2.1924028 4286085240
3.0247722 1.5482315 2.0583601 4286085240
3.2523158 0.052160934 2.8142841 4286085200
2.8965607 1.5776697 1.9672754 4286085240
3.1896532 5.5769669e-07 2.8020747 4286085200
3.4766417 0.29059428 2.8658864 4286085200
3.8621244 0.91461349 2.8700328 4286085200
2.2470365 1.494591 1.5542123 4286085240
2.3569629 1.4977895 1.6236172 4286085240
3.2843671 0.031603254 2.8453393 4286085200
2.1608481 1.5238262 1.4935732 4286085240
0.96143454 1.4498619 -0.062349498 4283445810
4.0575976 1.5460048 2.775207 4286085240
2.0608234 1.5185881 1.4346879 4286085240
1.9724989 -2.338424 0.66161919 4286085240
1.9164016 0.10459515 -0.014257938 4283445810
3.9550583 1.0038661 2.9042168 4286085200
2.0506475 1.5314833 1.4277041 4286085240
2.3827403 1.503464 1.6393392 4286085240
2.7497568 1.5787656 1.8665571 4286085240
3.7218287 0.56533623 2.9190872 4286085200
2.6440041 1.569216 1.7974899 4286085240
4.1782985 1.7316893 2.8016067 4286085240
2.9415216 1.5656487 1.9986567 4286085240
3.6322579 0.45080912 2.9069757 4286085200
6.9972968 -2.2648678 0.1788165 4286085240
1.8700913 -0.017976591 -0.0089490414 4283445810
1.8845294 -0.030187184 -0.012376547 4283445810
4.6180768 0.94704515 2.8013279 4286085200
2.9920392 1.5679902 2.0328817 4286085240
2.3140004 1.4914116 1.5967023 4286085240
3.865093 0.94154054 2.8588836 4286085200
1.4102777 -0.6320557 -0.049090397 4283445810
4.1044626 1.5488037 2.8037603 4286085240
3.8224335 0.89227641 2.8514433 4286085200
3.9442818 1.3738281 2.7525151 4286085240
3.8918579 0.8298496 2.9271979 4286085200
0.41038409 1.1886803 0.0021191835 4283445810
2.4100389 -1.7486322 0.54999298 4286085240
3.8782563 1.0241916 2.8370407 4286085200
2.9114795 1.5737081 1.9786921 4286085240
