# .PCD v0.7 - Point Cloud Data file format
VERSION 0.7
FIELDS x y z rgb
SIZE 4 4 4 4
TYPE F F F U
COUNT 1 1 1 1
WIDTH 1079
HEIGHT 1
VIEWPOINT 0 0 0 1 0 0 0
POINTS 1079
DATA ascii
3.3818729 -3.8398788 0.92814159 4286085240
3.4844666 -3.758085 0.91702545 4286085240
3.5813987 -3.6697779 0.89745414 4286085240
3.5965576 -3.6152902 0.88699794 4286085240
3.6214857 -3.6171479 0.88869381 4286085240
3.6579185 -3.5499017 0.87890959 4286085240
0.54479414 -0.2468702 0.018502235 4283445810
3.7038336 -3.5261209 0.87246704 4286085240
4.1961184 -3.3006861 0.8342011 4286085240
4.2160769 -3.2946231 0.83510709 4286085240
4.2416334 -3.2495615 0.82630485 4286085240
4.3378263 -3.2145498 0.81794798 4278779699
4.3560162 -3.1637688 0.80854106 4278779699
4.4348321 -3.0928466 0.79349446 4278779699
4.4276986 -3.0668807 0.78795338 4278779699
3.9431417 -3.4149995 1.7178442 4286085240
3.6448772 -3.5599449 0.88264263 4286085240
4.8266358 2.5887313 3.044348 4286085200
2.4003301 0.28913215 1.3810112 4286085240
3.8205445 -3.3893213 0.85610652 4286085240
4.3297038 -3.1235647 0.80538481 4278779699
4.3656135 -3.1283009 0.80762923 4278779699
4.4235482 -3.0223391 0.78192055 4278779699
4.5324702 1.7206925 2.5862858 4286085200
5.4144673 -2.0555305 0.56109488 4286085240
4.6369433 -2.8587379 1.9446232 4286085240
3.4560823 -3.7756038 0.92038524 4286085240
4.8762069 -2.5952811 0.69081688 4278779699
3.5562317 -3.6909065 0.90120524 4286085240
4.1502028 -3.3031001 1.7827849 4286085240
6.4574523 -0.86173612 0.22251612 4286085240
6.7408223 -0.57240719 0.14697868 4286085240
4.9642439 -2.5211699 0.67148948 4286085240
4.9651399 -2.5016913 0.67114282 4286085240
4.3750205 -3.0679057 1.8540969 4286085240
6.4508586 -0.881854 0.22763802 4286085240
4.6401224 -2.8032038 0.74018145 4278779699
3.6355669 -3.5850747 0.88361609 4286085240
2.6783776 -0.025686357 0.27468246 4286085240
6.788496 -0.53276378 0.12942511 4286085240
3.6111145 -3.5838029 0.88592684 4286085240
2.649178 0.0042294604 0.27026519 4286085240
2.5969567 0.020723276 0.2694084 4286085240
6.4937115 -0.84545559 0.21640937 4286085240
2.5651746 0.053227622 0.2654162 4286085240
2.5415084 0.044621415 0.26890248 4286085240
2.5239623 0.060432632 0.26610374 4286085240
2.5172865 0.076354362 0.26262796 4286085240
4.6708336 -2.760962 0.72792315 4278779699
2.4738834 0.086899787 0.26358038 4286085240
2.3491361 0.15016654 0.26085988 4286085240
4.6736078 -2.7424791 0.72753942 4278779699
2.3014431 0.18403815 0.26054224 4286085240
4.0839963 -3.3412488 0.84579062 4286085240
4.7507095 -2.767345 0.72765315 4278779699
4.1683989 -3.3881149 0.84913194 4286085240
2.2443812 0.22280419 0.25749969 4286085240
4.1349959 -3.3390703 0.84469795 4286085240
4.997972 2.7634919 3.1668379 4286085200
6.527308 -0.7650876 0.20050092 4286085240
3.7851195 -3.489893 0.86749876 4286085240
3.3323293 -3.9332163 0.94783878 4286085240
5.205205 -2.188427 0.59682715 4286085240
5.2752175 -2.1585641 0.58964694 4286085240
4.9686098 -2.4439757 0.6616503 4286085240
4.3846831 -3.0787535 0.79431766 4278779699
6.2871943 -1.023883 0.27114138 4286085240
6.3664503 -0.99504989 0.25940919 4286085240
2.6054103 0.78913403 1.5972737 4286085240
2.694366 -0.043070104 0.27789074 4286085240
6.7931843 -0.55498689 0.13961822 4286085240
2.533777 0.036396135 0.27135235 4286085240
2.4181905 0.11973502 0.26162988 4286085240
2.6572826 -0.0084941434 0.27182066 4286085240
2.3947544 0.1262383 0.26138544 4286085240
2.4907134 0.067591749 0.26633006 4286085240
4.4876375 2.1896119 2.7642636 4286085200
4.629571 -2.7766643 0.73472643 4278779699
5.632328 -1.89447 0.51434565 4286085240
3.9199719 -3.323802 0.84291494 4286085240
4.6918116 -2.7936394 0.7340318 4278779699
2.1416011 0.27492347 0.25819391 4286085240
2.3806949 0.14074245 0.25863811 4286085240
2.3417943 0.1797443 0.25761425 4286085240
2.5328012 0.91398394 0.13758795 4286085240
2.1933489 0.27089858 0.2541486 4286085240
6.4908843 -0.80291957 0.21165283 4286085240
2.1352513 0.28450793 0.25776386 4286085240
4.2917762 -3.2124171 0.81933779 4286085240
2.6291659 0.7313562 0.16326331 4286085240
6.3724318 -0.97512656 0.2543844 4286085240
4.0594425 -3.34288 0.84437662 4286085240
2.2649357 0.18839626 0.2614336 4286085240
2.4266896 1.0139749 0.12191238 4286085240
2.4105105 1.0207931 0.12029693 4286085240
2.3829308 1.0316133 0.12077215 4286085240
2.1355467 0.31582606 0.25322503 4286085240
4.1544509 -3.3328962 0.84146798 4286085240
2.1057105 0.33204788 0.25379324 4286085240
2.0829909 0.3284682 0.25487855 4286085240
4.697485 -2.6962657 0.71906459 4278779699
5.3126149 -2.1146178 0.58137751 4286085240
6.53053 -0.72317022 0.18541327 4286085240
4.7324524 -2.6862502 0.71204841 4278779699
2.5758526 0.69553244 1.5534954 4286085240
6.5842853 -0.70782417 0.17839789 4286085240
5.1013093 -2.3888514 0.64401555 4286085240
2.6347873 0.83226228 1.4561443 4286085200
3.7371795 -3.46786 0.86717701 4286085240
4.8386245 -2.675385 0.70806837 4278779699
4.8137136 -2.6215672 0.7014519 4278779699
4.2444057 -3.2732701 0.83167487 4286085240
4.2173786 -3.2739801 0.83010554 4286085240
2.3269584 1.7556088 -0.060955912 4283445810
2.5155301 1.1759313 0.086346418 4286085240
2.2634084 0.36117786 1.3478746 4286085240
2.2358053 0.37879533 1.3441738 4286085240
2.3718879 1.6848251 -0.039384246 4283445810
4.5111008 -2.9775293 0.77256215 4278779699
4.517179 -2.9505482 0.76779264 4278779699
3.4600408 -3.7557509 0.91924083 4286085240
5.060967 -2.3897157 0.64694303 4286085240
2.3786461 1.6782281 -0.035077333 4283445810
2.0709276 0.3571113 0.25223559 4286085240
2.6349053 1.3998656 0.032823712 4286085240
3.7069302 -3.5517282 0.87419105 4286085240
2.6106715 1.4084293 0.031653687 4286085240
2.4691384 1.5873183 -0.012430653 4283445810
2.4507987 0.10567074 0.2594099 4286085240
2.5967407 0.92303407 0.13178846 4286085240
2.6251616 1.3679413 0.038261682 4286085240
6.4654799 -0.82076991 0.21242025 4286085240
2.3856578 0.97898436 0.13093063 4286085240
2.2709377 0.49698931 0.22167352 4286085240
2.2584884 0.5018242 0.22088051 4286085240
3.5516245 -3.6626198 0.89509374 4286085240
4.5421734 -2.8542182 0.74933052 4278779699
1.9633259 1.9562883 -0.12697017 4283445810
4.2721105 -3.2297766 0.82308418 4286085240
5.1008601 -2.3194149 0.6299808 4286085240
5.0714774 -2.3256469 0.63340563 4286085240
1.9105985 1.9405617 -0.1237824 4283445810
1.8313975 1.9327841 -0.12316328 4283445810
2.5767937 0.028787917 0.26866555 4286085240
4.2667532 -3.2213161 1.8241191 4286085240
2.4215498 0.11215433 0.26142174 4286085240
3.7216008 -3.5204248 0.87324291 4286085240
3.4921048 -3.7841737 1.5886695 4286085240
4.7234206 -2.7312636 0.72119635 4278779699
2.1149325 0.29555103 0.25678134 4286085240
4.9963112 -2.4377964 0.65830529 4286085240
2.4952838 0.96398497 0.12807861 4286085240
2.7309916 -0.069857694 0.27999675 4286085240
2.321775 0.1558601 0.26279497 4286085240
2.4773026 0.97525907 0.1274381 4286085240
2.6889887 0.79442579 0.1483421 4286085240
2.5884197 0.91078097 0.13307944 4286085240
2.5499122 1.2319077 0.072910279 4286085240
2.5399988 1.2071871 0.079767406 4286085240
4.802042 -2.5953417 0.69612694 4278779699
6.3534927 -1.0138415 0.2646102 4286085240
2.1380641 1.8743402 -0.098388553 4283445810
2.1099818 1.867677 -0.095891297 4283445810
2.236428 1.8257965 -0.08135134 4283445810
2.1008406 1.9018495 -0.10562539 4283445810
2.513773 0.66050166 0.18099299 4286085240
1.4824852 1.8685718 -0.11633885 4283445810
6.570612 -0.68511438 0.17900532 4286085240
3.4383833 -3.780462 0.92354262 4286085240
2.4218018 1.6514262 -0.02908197 4283445810
2.016494 1.9214203 -0.11418736 4283445810
3.7920558 -3.4295948 0.86052847 4286085240
3.7698071 -3.4535446 0.86445057 4286085240
1.3541198 1.8666035 -0.11685449 4283445810
2.3685696 1.6995755 -0.043772265 4283445810
2.3635547 1.7131921 -0.047855943 4283445810
1.3131814 1.8596694 -0.11540407 4283445810
2.3535666 1.7289774 -0.052660584 4283445810
2.3330679 1.7024797 -0.045064121 4283445810
2.0884004 0.37731689 0.2480212 4286085240
2.0840449 0.34569192 0.2521168 4286085240
5.1868505 2.9551494 3.3076382 4286085200
1.2189226 1.8486966 -0.11309183 4283445810
6.5081334 -0.78393853 0.20612277 4286085240
1.1875074 1.8263135 -0.1042785 4283445810
1.7829639 1.9366519 -0.12848049 4283445810
1.17141 1.8269721 -0.10403794 4283445810
2.5423594 0.9404332 0.13247031 4286085240
1.7681899 1.9329498 -0.12578255 4283445810
2.5360446 0.94961679 0.13066527 4286085240
2.5916605 1.4088726 0.032718107 4286085240
2.5020475 0.95285594 0.13093507 4286085240
2.6319776 0.85123575 0.14355043 4286085240
4.578968 -2.9183393 0.76158351 4278779699
0.8592025 1.6472574 -0.054472119 4283445810
2.4642699 1.6009213 -0.014080852 4283445810
2.0482917 1.9085107 -0.11140585 4283445810
2.1967516 1.8287373 -0.083048224 4283445810
0.7834509 1.6535333 -0.059150577 4283445810
2.0316882 1.9174103 -0.11357805 4283445810
0.7677592 1.6753469 -0.064180121 4283445810
6.0090899 -0.72308201 2.5257154 4286085200
4.3538823 -3.0988777 0.80163598 4278779699
5.1872826 -2.2396705 0.60994959 4286085240
4.2965283 -3.1415913 0.80834645 4278779699
3.7274103 -3.4922075 0.86798859 4286085240
0.70574623 1.7178601 -0.080249965 4283445810
0.5514698 1.7215233 -0.09360528 4283445810
1.9329356 1.9383416 -0.12447208 4283445810
4.8744197 2.4278853 2.4523487 4286085200
2.6703396 -0.017072402 0.27309665 4286085240
2.6594326 -0.034008462 0.27782261 4286085240
2.372299 0.13264899 0.26110578 4286085240
0.47731024 1.632357 -0.071113229 4283445810
1.5434569 1.9327205 -0.13453543 4283445810
4.6165171 -2.8395479 0.74428284 4278779699
0.8615703 1.7458477 -0.085662782 4283445810
1.4901292 1.890569 -0.12332082 4283445810
3.5278876 -3.6849928 0.89900804 4286085240
2.3732722 1.0500001 0.11690784 4286085240
0.50927329 1.6817168 -0.084810615 4283445810
0.17069945 1.3424411 -0.014869288 4283445810
0.097975023 -0.86534649 0.014306307 4283445810
6.4405856 -0.92243391 0.24276714 4286085240
2.3386228 0.54317975 0.2092745 4286085240
2.3208349 0.52345628 0.21311364 4286085240
5.2527714 -2.1886919 0.59812659 4286085240
4.9370346 -2.5471871 0.67949384 4286085240
0.013772334 -0.88628781 0.023887917 4283445810
2.5085106 1.2317251 0.075435638 4286085240
2.5926082 0.70782328 0.17044348 4286085240
5.4332156 3.1649137 3.4788742 4286085200
0.11747769 1.2821971 -0.0047994256 4283445810
4.3205743 -3.197427 1.8404424 4286085240
0.66827512 1.7277799 -0.085853457 4283445810
3.4912567 -3.7293777 0.90953875 4286085240
1.2871362 1.835189 -0.1070168 4283445810
0.69272518 1.7331986 -0.085896581 4283445810
0.68646914 1.717545 -0.081234217 4283445810
0.015005329 1.1396037 0.023578942 4283445810
0.033528239 1.1508284 0.023415416 4283445810
2.5241914 1.5001798 0.011580259 4286085240
0.58827102 1.7221668 -0.091083407 4283445810
0.60647792 1.7040365 -0.082650453 4283445810
2.5512013 1.4779036 0.014481008 4286085240
2.5684032 1.4715041 0.01514712 4286085240
2.5802503 1.4673721 0.016313761 4286085240
2.4152391 1.0318995 0.1172246 4286085240
5.2760363 -2.1196213 0.58489323 4286085240
2.3696709 0.58237445 0.19999585 4286085240
0.23168948 1.3663377 -0.013245225 4283445810
4.9643521 -2.461622 0.66181755 4286085240
2.5228863 1.477692 0.015656978 4286085240
3.3469915 -3.8745639 0.93638515 4286085240
0.10144491 -0.81867081 0.018210083 4283445810
0.13036434 -0.83319819 0.017075062 4283445810
2.4454007 0.097619154 0.2635811 4286085240
0.21076587 1.4059646 -0.030742764 4283445810
2.4958487 1.5267884 0.0016237795 4283445810
3.4139388 -3.8513913 0.93104845 4286085240
5.3092241 -2.0936322 0.57670844 4286085240
3.4295461 -3.8441718 0.93153292 4286085240
3.423198 -3.8124526 0.92881984 4286085240
0.28999215 1.4313805 -0.02602008 4283445810
2.4575276 1.5632831 -0.0055779517 4283445810
2.3092644 1.7538536 -0.060689181 4283445810
2.4778395 1.5651171 -0.0059921443 4283445810
0.33898291 1.45683 -0.026982516 4283445810
0.39347345 -0.83051693 0.011071742 4283445810
2.513941 0.6519748 0.18118374 4286085240
2.2176561 1.8222982 -0.078386486 4283445810
2.1990411 0.4665648 0.22854634 4286085240
0.86552942 1.6465487 -0.053549707 4283445810
0.8966918 1.6416727 -0.053195953 4283445810
2.2073441 0.4609687 0.22792153 4286085240
2.4917471 0.54617167 1.4811776 4286085240
2.5231936 1.1893421 0.082609802 4286085240
1.536449 1.9114012 -0.12775892 4283445810
3.5108471 -3.7144463 0.90384448 4286085240
0.12690863 1.2941743 -0.0074628741 4283445810
1.5658486 1.9352931 -0.13618624 4283445810
4.8840275 -2.5595078 0.68611538 4278779699
2.3405886 0.55151606 0.20706356 4286085240
5.270946 -2.1765158 0.5941056 4286085240
3.9248934 -3.2957544 0.83385026 4286085240
3.9599047 -3.3036268 0.83636403 4286085240
6.0114594 -1.0965865 2.4882908 4286085200
0.24700859 -0.88388395 0.0035421401 4283445810
0.094520278 -0.8048628 0.024170866 4283445810
0.11779818 -0.82141936 0.021320581 4283445810
0.11388744 -0.8125996 0.025109142 4283445810
0.26434919 -0.88824022 0.0015261173 4283445810
5.2692337 -2.1364765 0.58489323 4286085240
0.14905894 -0.82765341 0.024129033 4283445810
3.3817801 -3.8646116 0.93392217 4286085240
0.19318476 -0.83628529 0.025145143 4283445810
0.20738326 -0.83663464 0.025847971 4283445810
4.1579413 -3.2922258 0.83562803 4286085240
5.0123291 -2.4258053 0.65440297 4286085240
0.3646327 -0.85250175 0.0073387027 4283445810
0.35496357 -0.8536039 0.008583039 4283445810
0.3355599 -0.83957046 0.017014503 4283445810
1.8854454 1.9334464 -0.12240732 4283445810
6.5770226 -0.74960893 0.18866847 4286085240
0.60236609 1.7451994 -0.097099543 4283445810
2.1105151 0.40921667 0.24233013 4286085240
2.2879889 1.7492385 -0.057352304 4283445810
2.2165086 1.7802492 -0.066787094 4283445810
0.94438356 1.6903102 -0.066982597 4283445810
4.6022978 -2.8715186 0.74873376 4278779699
3.5763638 -3.6412585 0.89527529 4286085240
5.1946297 -2.2625716 0.61480546 4286085240
3.6134405 -3.6555591 0.89460063 4286085240
3.866143 -3.364074 0.84965706 4286085240
2.6588221 0.83654195 0.14352548 4286085240
2.6649041 0.82445109 0.14546123 4286085240
1.1546608 1.7391284 -0.080286324 4283445810
2.6682503 0.84887755 0.14004833 4286085240
2.3126466 0.17008373 0.26158908 4286085240
1.1411923 1.7428856 -0.080935061 4283445810
2.3300912 0.16389085 0.26035768 4286085240
2.1638091 0.24274114 0.26010686 4286085240
1.7641584 1.9039931 -0.11860311 4283445810
1.19982 1.7823492 -0.091712654 4283445810
1.7938825 1.9114521 -0.11774111 4283445810
2.554143 1.4417555 0.023533165 4286085240
1.1679744 1.8088808 -0.098085344 4283445810
2.4165983 1.6309851 -0.023174599 4283445810
0.8377248 1.6313952 -0.05123046 4283445810
2.4537182 1.6333382 -0.024699077 4283445810
0.30560628 1.484094 -0.041846603 4283445810
0.69012821 1.7592045 -0.093873262 4283445810
0.51078045 -0.79663152 -0.0013716519 4283445810
4.5343347 -2.9103179 0.75902343 4278779699
1.3547791 -0.72810173 -0.059323132 4283445810
3.5130951 -3.6931038 0.90255213 4286085240
0.56474704 -0.76046187 -0.0017864704 4283445810
1.5983326 1.8159007 -0.092935979 4283445810
1.352854 -0.68855155 -0.044632554 4283445810
1.3735491 -0.69358832 -0.050460368 4283445810
1.3614101 -0.67117602 -0.040113032 4283445810
2.6966124 0.7733447 0.15254623 4286085240
2.7188911 -0.078246124 0.28274155 4286085240
1.0099257 1.7417452 -0.080198526 4283445810
1.0383275 1.7518532 -0.082724214 4283445810
4.3778481 -3.0948958 0.79870272 4278779699
2.5938339 0.86642092 0.14044878 4286085240
2.6071835 0.86163962 0.14139694 4286085240
0.75798154 -0.71306789 -0.0025818944 4283445810
2.2134492 0.21260108 0.26164579 4286085240
1.0502312 1.7849014 -0.093102872 4283445810
1.521286 -0.63565576 -0.05992943 4283445810
4.4144626 -3.036876 0.78609657 4278779699
1.538336 -0.60844582 -0.058816105 4283445810
0.60492027 1.6576614 -0.067939863 4283445810
0.619169 1.6718059 -0.071596563 4283445810
0.21930194 1.4315275 -0.038102269 4283445810
1.5509208 -0.5877825 -0.056625947 4283445810
1.5743433 -0.57096398 -0.058563739 4283445810
0.40108106 -0.84303302 0.0044352412 4283445810
3.4140141 -3.7778604 0.9257192 4286085240
2.1253126 1.8393008 -0.087864459 4283445810
1.9850974 1.909723 -0.11256692 4283445810
4.3815622 1.8586462 2.5907581 4286085200
0.86353171 1.6300937 -0.049524307 4283445810
0.76036268 1.6804224 -0.066113442 4283445810
1.6092892 -0.50913936 -0.054232847 4283445810
1.6194364 -0.48688778 -0.054197431 4283445810
0.55800682 -0.78224885 -0.0080081522 4283445810
0.92987525 1.6768909 -0.063729972 4283445810
1.6306667 -0.467619 -0.053619668 4283445810
6.7196598 -0.65725511 0.16310313 4286085240
0.57606518 -0.75536042 -0.0030308068 4283445810
4.8533602 -2.5236938 0.6798768 4286085240
6.4296918 -0.94185889 0.24299726 4286085240
0.25776234 -0.85610288 0.016633928 4283445810
0.86347735 -0.70264041 0.0038928092 4283445810
1.7083466 -0.28337646 -0.050061345 4283445810
0.84603184 -0.69294471 0.0085242391 4283445810
2.0648801 1.8934195 -0.10398155 4283445810
2.0893712 1.9036365 -0.10649413 4283445810
0.38422623 1.539535 -0.050797343 4283445810
0.7607221 1.7629789 -0.092787623 4283445810
1.6626962 -0.4625074 -0.059861124 4283445810
4.7593522 2.5330868 2.9984283 4286085200
4.7723608 2.5204661 2.9960082 4286085200
4.939096 -2.5282917 0.67492342 4286085240
2.7730975 -0.093126655 0.28405249 4286085240
0.5882833 -0.70683259 0.010795206 4283445810
0.57677144 -0.69905752 0.016878664 4283445810
2.412329 0.58469975 0.19795859 4286085240
0.16641079 -0.82139182 0.029170901 4283445810
4.4819036 -3.04124 0.78578782 4278779699
0.33447456 -0.86614209 0.0053216219 4283445810
0.77123815 -0.69669551 0.0072976649 4283445810
0.96501172 -0.7208432 -0.0089319348 4283445810
2.5553536 1.5297583 0.00094389915 4286085240
1.1416867 -0.77053416 -0.048114002 4283445810
1.1990753 -0.73878145 -0.040792167 4283445810
2.2927351 1.764491 -0.064127833 4283445810
2.244113 1.7673385 -0.064642519 4283445810
2.2646489 1.7660131 -0.063898161 4283445810
2.297699 1.7800179 -0.068714648 4283445810
4.2408895 -3.2275302 0.82526934 4286085240
1.6879556 -0.48699507 -0.071568131 4283445810
5.1295447 -2.2929962 0.62189478 4286085240
4.5808959 -2.8990183 0.75687635 4278779699
5.1690693 -2.2711248 0.6141535 4286085240
5.2037306 -2.2270634 0.6059258 4286085240
0.12449065 1.2694916 0.00033819675 4283445810
3.8939211 -3.3231685 0.84524041 4286085240
1.6595392 1.9346931 -0.13124126 4283445810
1.602753 1.929984 -0.13248217 4283445810
1.6632093 1.9515425 -0.13664937 4283445810
2.4447107 1.0123466 0.12106684 4286085240
2.1519907 -0.013737896 -0.13118017 4283445810
2.2296703 1.767524 -0.064948827 4283445810
2.2337294 1.7823815 -0.069369137 4283445810
1.3097401 -0.75316268 -0.062187135 4283445810
2.2289007 1.8019361 -0.073117673 4283445810
0.46857175 -0.79058003 0.011071731 4283445810
0.49135888 -0.77448159 0.011901289 4283445810
0.45444432 -0.76670146 0.023722544 4283445810
2.2306449 0.4807156 0.2255116 4286085240
1.8119622 -0.1274478 -0.058580846 4283445810
2.6068614 0.88931054 0.13622957 4286085240
4.0042186 -3.3189416 0.83982044 4286085240
0.71883881 -0.69598031 0.0077740103 4283445810
2.1110299 0.305318 0.25698346 4286085240
0.087015137 -0.79569298 0.027364969 4283445810
2.5967398 1.4440198 0.022874892 4286085240
1.1334554 -0.75972426 -0.042476445 4283445810
1.1198194 -0.75837988 -0.040625811 4283445810
1.8897991 1.9628189 -0.13169783 4283445810
2.1052816 0.39253587 0.24553168 4286085240
2.3083861 1.7300621 -0.053593963 4283445810
1.2498964 -0.74916428 -0.05132715 4283445810
1.9813169 1.9244338 -0.11844718 4283445810
1.5522814 -0.51300961 -0.041506052 4283445810
1.2531636 -0.73668492 -0.047259003 4283445810
2.4061191 1.6861343 -0.037083119 4283445810
0.89404815 1.668329 -0.061250553 4283445810
2.0925307 0.11033481 -0.094158947 4283445810
6.6290092 -0.62700135 0.16166764 4286085240
4.8970203 -2.5863037 0.68722892 4278779699
1.5492815 1.8961719 -0.12394252 4283445810
1.710899 -0.37442651 -0.061315209 4283445810
2.7073078 -0.051934157 0.2792353 4286085240
1.729459 -0.34392145 -0.063203871 4283445810
2.2153809 0.25568938 0.25427321 4286085240
1.5735766 -0.59926564 -0.064734221 4283445810
1.758655 -0.28019843 -0.063685805 4283445810
1.7717787 -0.27359745 -0.065516204 4283445810
1.1073564 -0.73711908 -0.028329462 4283445810
1.6122242 -0.53281879 -0.059005499 4283445810
1.8068707 -0.20706671 -0.067425951 4283445810
1.7887421 -0.21513188 -0.063502282 4283445810
1.8231786 -0.16631138 -0.066951513 4283445810
4.4863358 1.852528 2.6201043 4286085200
1.8525757 -0.13624747 -0.071175039 4283445810
1.6971725 -0.3941935 -0.060221225 4283445810
2.4285746 1.0840595 -0.017939121 4283445810
2.4484429 1.116446 -0.017928258 4283445810
3.3746331 -3.8814113 0.93470353 4286085240
1.714022 -0.35224026 -0.059432805 4283445810
4.3831043 -3.0527411 1.8579383 4286085240
0.25054747 -0.87095636 0.0097166598 4283445810
0.23015933 -0.86900014 0.010585949 4283445810
0.22605225 -0.85339111 0.01853922 4283445810
0.06989488 -0.78584594 0.027562777 4283445810
0.82503438 -0.70712632 0.0016140342 4283445810
0.83230644 -0.69964641 0.0061484277 4283445810
0.81393534 -0.69607991 0.0084072053 4283445810
0.57195544 1.7100115 -0.087787509 4283445810
1.2107635 -0.76207352 -0.05311048 4283445810
1.1950198 -0.74684942 -0.044670969 4283445810
2.1262939 0.33190235 -0.059452832 4283445810
2.0488398 1.8907847 -0.10582602 4283445810
0.3294853 1.4912024 -0.040429801 4283445810
2.5218604 1.2286723 -0.019271642 4283445810
2.5297015 1.2475108 -0.018399775 4283445810
2.5153997 1.2504575 -0.014361024 4283445810
2.5169976 1.2612896 -0.013138473 4283445810
1.8101425 -0.19135314 -0.0655974 4283445810
2.5138113 0.65211415 -0.10226077 4283445810
4.7964087 -2.5725195 0.69117266 4278779699
2.5220761 1.0071398 -0.051005095 4283445810
0.5683465 -0.74522018 0.0027761161 4283445810
2.2549248 0.44852734 -0.07068859 4283445810
3.8712807 -3.3360541 0.84847367 4286085240
5.2109456 -2.2104692 0.60158288 4286085240
0.52666563 -0.71393293 0.025589049 4283445810
2.5517941 0.76297063 -0.096733272 4283445810
1.7434559 -0.32938206 -0.064805955 4283445810
1.7391852 -0.33432823 -0.065358788 4283445810
1.7350993 -0.31634489 -0.061851084 4283445810
1.5089825 -0.63048202 -0.057335436 4283445810
1.5104147 -0.61139679 -0.052840292 4283445810
1.5139228 -0.58764124 -0.048502356 4283445810
2.5934541 1.4480565 -0.0048952997 4283445810
1.4924049 -0.59579492 -0.046163768 4283445810
2.4769571 1.5535213 -0.0049621463 4283445810
2.2129924 0.27339488 -0.09155494 4283445810
0.3538397 -0.86521232 0.0034543574 4283445810
2.1956146 0.29262456 -0.08451283 4283445810
0.34335807 -0.83577007 0.018123001 4283445810
0.95097357 -0.705639 -0.00049114227 4283445810
5.3085442 -2.0737798 0.57213008 4286085240
1.7631123 -0.24351519 -0.059737846 4283445810
5.317111 -2.0575595 0.56780636 4286085240
2.4718742 0.59929037 -0.099427044 4283445810
2.1945071 0.0070063733 -0.13866383 4283445810
2.4750962 0.60844469 -0.098490894 4283445810
2.4412248 0.60838974 -0.089657605 4283445810
0.41321194 -0.79841167 0.020196915 4283445810
2.1958053 0.094700307 -0.12156796 4283445810
1.4325348 -0.70056546 -0.062558025 4283445810
2.2376864 0.44510353 -0.06685707 4283445810
0.51447284 1.6795421 -0.083182096 4283445810
0.49433193 1.6707541 -0.081930101 4283445810
1.1044687 1.8103449 -0.10046828 4283445810
2.5902126 0.81063372 -0.098107278 4283445810
2.0921526 0.31623566 0.25673437 4286085240
2.5762877 1.4434319 0.023052961 4286085240
2.5979807 0.84964067 -0.093159974 4283445810
2.5989051 0.89147508 -0.08822754 4283445810
2.6053815 0.90766287 -0.08709234 4283445810
1.264128 -0.73501885 -0.048230067 4283445810
1.2255164 -0.7496863 -0.047782511 4283445810
1.357641 1.8281361 -0.10446215 4283445810
0.73558599 1.7350919 -0.08622241 4283445810
2.0653241 0.062661357 -0.095294058 4283445810
4.5476422 -2.9394276 0.76066923 4278779699
1.6510234 -0.47063625 -0.058720708 4283445810
1.8623457 -0.15490919 -0.075734556 4283445810
1.6581873 -0.44986925 -0.057676673 4283445810
1.2985164 -0.68192077 -0.032907367 4283445810
1.8108716 -0.14480893 -0.061628312 4283445810
6.3902106 -0.95695126 0.24901912 4286085240
2.549876 0.98067427 -0.062530369 4283445810
2.0794075 0.12962554 -0.084370673 4283445810
2.1152992 0.17259482 -0.085341692 4283445810
2.3034585 0.52726901 0.21275339 4286085240
2.5669646 1.2859449 0.062377661 4286085240
2.5826008 0.78117293 -0.10145354 4283445810
0.66814214 -0.70288372 0.003713588 4283445810
4.4604135 1.9938824 2.6752784 4286085200
0.66871828 -0.68901837 0.011300176 4283445810
0.62661797 -0.70885652 0.0022222002 4283445810
2.3544648 0.52328688 -0.083635509 4283445810
0.76666808 -0.70752478 0.0010328889 4283445810
2.1577957 0.29459873 -0.072347999 4283445810
2.1391654 0.27815318 -0.072818816 4283445810
4.7522588 -2.707545 0.71769357 4278779699
2.5088809 1.5237774 0.0048229992 4283445810
0.2785292 -0.83717597 0.024538696 4283445810
2.1649711 -0.027643023 -0.13637388 4283445810
2.5698237 1.4510603 0.0025294125 4283445810
2.5658109 1.4813716 0.0054980516 4283445810
2.1505287 0 -0.1290257 4283445810
4.7932167 -2.670321 0.71016788 4278779699
2.525877 1.523085 0.0050790608 4283445810
2.5106039 1.5528699 0.030119002 4286085240
2.4978156 1.5339563 0.032937914 4286085240
0.70629126 1.7349203 -0.086191058 4283445810
1.6503996 -0.51059222 -0.064657658 4283445810
1.6390287 -0.49848834 -0.060528606 4283445810
2.577296 1.3121616 -0.02067399 4283445810
2.6540666 0.75198346 0.15717208 4286085240
1.4268405 1.8709322 -0.11844707 4283445810
1.2731911 -0.71067047 -0.040059417 4283445810
2.1577899 0.10686865 -0.11041754 4283445810
2.0495045 0.049078111 -0.09397421 4283445810
2.465348 1.5522193 0.04219234 4286085240
1.8528485 -0.19588873 -0.077287912 4283445810
2.5348871 1.1702242 0.086646199 4286085240
0.51039952 -0.78496331 0.0031908751 4283445810
1.2804273 -0.7637527 -0.062024534 4283445810
2.1596014 -0.034468193 -0.1367656 4283445810
2.0612793 0.3656266 0.252105 4286085240
1.2133416 1.8149141 -0.10188222 4283445810
0.5735355 1.6967133 -0.082825363 4283445810
1.5099484 -0.56952292 -0.044155538 4283445810
1.491424 -0.61759388 -0.049675107 4283445810
2.5933094 1.361886 0.040081114 4286085240
2.6403818 0.86327273 0.14018294 4286085240
2.1771586 0.25486478 -0.086264372 4283445810
4.9777455 -2.4881196 0.66709054 4286085240
0.17079274 -0.85141313 0.014672905 4283445810
2.1475916 0.24445564 -0.080815971 4283445810
0.148947 -0.84537888 0.014981046 4283445810
2.6224108 1.3990178 -0.019161195 4283445810
0.77418149 -0.70989633 -1.7911196e-05 4283445810
0.58757305 -0.69166625 0.016707949 4283445810
2.6011264 0.79584956 -0.10361868 4283445810
1.0806994 1.8101451 -0.10079163 4283445810
0.60254657 1.6929835 -0.080067217 4283445810
2.4928601 1.1705244 -0.022990733 4283445810
2.2190773 0.26688808 0.25388041 4286085240
0.60299915 1.7291188 -0.091302097 4283445810
2.5254979 1.512367 0.020896152 4286085240
1.9517196 1.9078308 -0.11411428 4283445810
1.945475 1.9261658 -0.11797422 4283445810
2.0991676 1.8881789 -0.10141665 4283445810
2.0414987 0.035851825 -0.094081759 4283445810
0.34386998 1.4994998 -0.041311324 4283445810
2.5167673 0.98643392 -0.053060561 4283445810
0.54891157 1.7135497 -0.091931134 4283445810
1.4113882 -0.67355484 -0.050420046 4283445810
5.1220531 -2.3093209 0.62620574 4286085240
2.1526153 0.38547221 -0.055034399 4283445810
2.4625404 1.5835888 0.044836819 4286085240
1.7720441 -0.29975742 -0.068227261 4283445810
2.6368036 1.3851404 -0.02477783 4283445810
2.549021 1.2617302 0.069142312 4286085240
2.5413101 0.70709825 -0.10219944 4283445810
1.7829828 -0.15403992 -0.054313987 4283445810
2.0959599 1.8732255 -0.09685576 4283445810
0.4196724 -0.82373476 0.008583039 4283445810
2.4114971 0.57650691 -0.088083744 4283445810
0.80904025 -0.70696723 0.00069832802 4283445810
0.64816099 -0.70624977 0.0027703792 4283445810
1.651013 1.9498037 -0.13666743 4283445810
2.1940775 1.8146859 -0.076559961 4283445810
2.5527914 1.4847418 0.0091820359 4286085240
0.7467736 1.7306304 -0.083196878 4283445810
2.333127 0.52636689 -0.077426553 4283445810
0.57029408 1.7233106 -0.092768192 4283445810
0.55629575 1.699175 -0.086391032 4283445810
2.5397477 0.93026221 0.13312495 4286085240
2.1661482 0.39503723 -0.056593448 4283445810
1.3449094 -0.70902455 -0.050496295 4283445810
1.695838 -0.43691802 -0.065617323 4283445810
2.332535 1.7307773 -0.053475037 4283445810
2.6165445 0.88354146 -0.094186664 4283445810
2.5693402 0.91354549 -0.078921139 4283445810
2.3909502 1.6528387 -0.029032946 4283445810
1.4656737 -0.62896997 -0.047935277 4283445810
2.790839 -0.11604741 0.28522348 4286085240
2.7762268 -0.10655083 0.28599989 4286085240
2.1284964 0.18736061 -0.085367143 4283445810
0.86399686 1.6694226 -0.061717838 4283445810
0.33058727 -0.85603708 0.010547866 4283445810
2.124485 0.2075315 -0.08138907 4283445810
1.8012412 -0.17591071 -0.062013611 4283445810
2.6751854 0.80895936 0.14816965 4286085240
1.5994138 1.9385189 -0.13550448 4283445810
3.8354926 -3.3698599 0.85202372 4286085240
0.62857038 -0.69152313 0.0113585 4283445810
0.36192322 1.4701279 -0.028758377 4283445810
2.5168047 0.97719038 -0.054604411 4283445810
0.83717674 1.6497179 -0.056964815 4283445810
1.7114707 -0.25590104 -0.046872348 4283445810
2.4474697 1.6067178 -0.015880376 4283445810
6.5745635 -0.66428787 0.17386016 4286085240
1.4531468 -0.65541565 -0.052358806 4283445810
0.21887842 -0.87109303 0.0088668168 4283445810
2.1738582 0.27560937 -0.080764055 4283445810
2.1722701 0.18422665 -0.097590923 4283445810
1.725327 -0.3145521 -0.058356434 4283445810
0.29143435 -0.86672843 0.010625198 4283445810
2.1667798 -0.041501153 -0.14045906 4283445810
1.6804448 -0.36214483 -0.050813168 4283445810
6.6795278 -0.61024243 0.15454915 4286085240
2.4598141 1.5707572 0.043771714 4286085240
2.4319143 1.6081483 0.055540293 4286085240
2.5715444 0.9608373 -0.073618412 4283445810
1.748801 -0.2159932 -0.052670598 4283445810
2.4362164 1.078156 -0.020813376 4283445810
2.2901149 0.47075349 -0.07539916 4283445810
1.7479146 -0.30141771 -0.063176543 4283445810
1.7390583 -0.36897153 -0.067244321 4283445810
1.6971419 -0.41996577 -0.064800352 4283445810
1.46942 -0.64731103 -0.053843956 4283445810
1.473272 1.8815036 -0.1192885 4283445810
1.5218636 -0.59632009 -0.051611364 4283445810
2.4337661 1.5871426 0.052294552 4286085240
4.4661741 -3.0097606 0.77962452 4278779699
1.7587459 -0.22577417 -0.055708736 4283445810
1.5199744 -0.51852721 -0.035179615 4283445810
1.7225585 -0.2800881 -0.053801388 4283445810
0.2649191 -0.85994941 0.014806241 4283445810
0.2056583 1.3868637 -0.02495575 4283445810
2.6142042 0.82731515 -0.10135192 4283445810
0.7255733 -0.70925713 -1.9669533e-06 4283445810
2.0700078 0.20888388 -0.066746384 4283445810
0.54682261 -0.7289896 0.014597371 4283445810
2.5124991 1.0266476 -0.0464333 4283445810
0.52865422 -0.73611915 0.016878664 4283445810
2.1435995 1.8671262 -0.09602493 4283445810
2.4126024 1.6176262 0.061464518 4286085240
2.174618 0.38225082 -0.061492085 4283445810
2.1683958 0.35978174 -0.064596921 4283445810
2.1547163 0.35044706 -0.062978745 4283445810
2.6252952 0.87251055 -0.098396719 4283445810
1.9184607 1.9361471 -0.1220898 4283445810
0.27107203 -0.89000773 -0.00015249848 4283445810
2.5140936 1.5301793 0.027874306 4286085240
4.3271952 -3.185293 0.81608462 4278779699
0.43809575 -0.77250522 0.02517426 4283445810
2.4995866 0.67832291 -0.096681058 4283445810
2.4902148 0.658737 -0.095867455 4283445810
2.4697976 0.62808198 -0.095356911 4283445810
5.1260171 -2.2717862 0.61718404 4286085240
0.72830713 1.7449491 -0.08793962 4283445810
1.3898723 1.8967166 -0.12476316 4283445810
4.7851701 -2.6258907 0.70031428 4278779699
2.193656 0.37478685 -0.06807068 4283445810
3.8082035 -3.4001896 0.85594028 4286085240
2.1904461 1.8472887 -0.088858366 4283445810
1.7682691 -0.23560867 -0.060115486 4283445810
0.2816124 1.4873521 -0.046494335 4283445810
2.506794 1.2065042 -0.01883775 4283445810
1.6057032 -0.54205817 -0.059475482 4283445810
1.931638 1.9002954 -0.11020398 4283445810
0.3968353 -0.84101707 0.0060943961 4283445810
5.2948198 -2.0294969 0.56270742 4286085240
1.5439473 -0.55993611 -0.049811214 4283445810
1.759833 -0.25165811 -0.059890032 4283445810
0.75990868 1.637488 -0.054078966 4283445810
1.2460339 -0.77321178 -0.062698781 4283445810
4.7410154 -2.6711082 0.71204841 4278779699
0.36121559 -0.8262229 0.018952578 4283445810
2.0810001 0.2976616 -0.053203672 4283445810
2.5163941 1.4905778 0.022387207 4286085240
0.75298762 -0.70159674 0.0049701184 4283445810
2.1564281 0.2594198 -0.079784155 4283445810
2.3243504 0.50493085 -0.079393893 4283445810
2.4711075 1.1459049 -0.021255225 4283445810
1.0934484 1.8052162 -0.099661052 4283445810
1.0816827 1.7987226 -0.096740127 4283445810
0.97951591 -0.74146658 -0.021948189 4283445810
0.49812359 1.6640275 -0.078906178 4283445810
0.21442199 -0.85913146 0.014811128 4283445810
2.587357 1.4284427 -0.0061960071 4283445810
2.6123962 1.4259841 -0.012760848 4283445810
0.73599577 -0.70128536 0.0046745837 4283445810
1.6362143 1.9512028 -0.1378673 4283445810
2.3014193 0.4807404 -0.076342463 4283445810
2.6466556 1.4011157 -0.02489531 4283445810
1.0604602 1.8155197 -0.10279757 4283445810
1.7450373 -0.34700799 -0.067648381 4283445810
1.7411699 -0.36361557 -0.067513704 4283445810
0.18800278 -0.85082006 0.016706586 4283445810
0.52587575 1.6784312 -0.082393765 4283445810
1.489761 -0.62807536 -0.05177027 4283445810
2.5964034 1.4330019 0.025964707 4286085240
2.6128721 0.83608037 -0.099437416 4283445810
5.0328226 -2.4158974 0.6506834 4286085240
0.37775365 -0.87162066 -0.0030308068 4283445810
1.7738774 1.9579026 -0.13156864 4283445810
2.185364 -0.020926962 -0.14168841 4283445810
2.1655295 0.30270043 -0.074370861 4283445810
2.5556738 0.91788769 -0.074636698 4283445810
2.5652595 0.93986619 -0.073368669 4283445810
2.1939747 0.34964591 -0.073494554 4283445810
1.6430969 -0.48828852 -0.06080389 4283445810
0.84196776 1.7199376 -0.077213526 4283445810
2.4108071 1.633214 0.062817156 4286085240
2.1351945 0.1194215 -0.10319585 4283445810
0.768242 1.7496171 -0.088694811 4283445810
2.5547073 1.2904072 -0.018250942 4283445810
1.6650914 -0.45745346 -0.060134172 4283445810
1.689574 -0.44679677 -0.065331399 4283445810
2.1975269 0.42254639 -0.060928613 4283445810
1.8213265 -0.13979568 -0.062839448 4283445810
2.5148084 0.69108146 -0.098267198 4283445810
2.4762838 1.0396316 -0.037185103 4286085240
2.5590739 1.297361 0.059265137 4286085240
2.1937132 0.14378355 -0.11096728 4283445810
6.0521898 -1.1640332 2.495436 4286085200
2.563168 0.94839269 -0.073549807 4283445810
0.90770876 1.6493075 -0.054753065 4283445810
0.50048774 -0.77512217 0.0094125867 4283445810
2.4346113 1.0496767 -0.024914354 4283445810
2.5745227 0.76082051 -0.10306102 4283445810
2.3736806 0.56731677 0.20374028 4286085240
2.5734518 1.4693958 0.003082782 4283445810
2.6087065 0.84393841 -0.096955359 4283445810
2.1538296 0.099780239 -0.11110133 4283445810
2.6279104 1.3485125 -0.027954489 4283445810
1.7296308 -0.41629747 -0.072013557 4283445810
1.545743 -0.57177913 -0.051493794 4283445810
2.1767647 0.40415835 -0.057484269 4283445810
1.3929965 -0.71179318 -0.059106678 4283445810
1.3922908 -0.69193321 -0.052844256 4283445810
2.1746557 0.16346665 -0.10308182 4283445810
2.6234598 1.4103554 -0.017772973 4283445810
4.181704 -3.3328445 0.83898354 4286085240
0.98092961 -0.73762333 -0.019375026 4283445810
2.4857044 1.5484629 0.03558749 4286085240
2.127368 0.1462577 -0.094719172 4283445810
2.1251307 0.16656873 -0.089336693 4283445810
0.3679834 -0.81325394 0.023100376 4283445810
1.4496008 -0.68798715 -0.062026739 4283445810
6.742939 -0.59430677 0.14681146 4286085240
2.6791785 -0.059962831 0.28079185 4286085240
2.6055257 0.80630189 -0.1028741 4283445810
0.73131937 -0.69683927 0.0073748231 4283445810
1.700707 -0.42949975 -0.066434234 4283445810
2.4423852 1.0669305 -0.023108736 4283445810
4.6017151 -2.8102071 0.74266195 4278779699
2.5833275 0.89049751 0.13856277 4286085240
1.7697173 -0.31099755 -0.069605798 4283445810
1.7990853 -0.26313311 -0.071048081 4283445810
2.445235 1.5835181 0.049028397 4286085240
2.5636134 0.74426281 -0.10218796 4283445810
0.82720262 -0.71357667 -0.0026301146 4283445810
1.6521653 -0.53434414 -0.070075214 4283445810
2.5661759 0.89375943 0.13806891 4286085240
2.468909 1.168913 -0.017161995 4283445810
1.5650249 -0.55630201 -0.053865284 4283445810
1.380605 -0.66971838 -0.04396534 4283445810
1.044497 1.8146911 -0.10058683 4283445810
0.30942696 -0.86733377 0.0080589354 4283445810
0.45315003 -0.78730494 0.015910843 4283445810
2.448113 1.0277956 -0.03187421 4286085240
2.2154942 1.8563441 -0.091095746 4283445810
0.61590183 -0.69301742 0.012076989 4283445810
2.5620613 0.72611141 -0.10407922 4283445810
2.1534462 0.15495987 -0.099514544 4283445810
2.1706173 1.8544029 -0.090725504 4283445810
1.4699378 -0.68429279 -0.064015388 4283445810
1.4888091 -0.64453328 -0.057504386 4283445810
2.5300217 1.4894171 0.015477926 4286085240
2.3137329 0.53711611 2.2163174 4286085240
2.4038665 0.58640087 2.2775083 4286085240
0.57804304 -0.70978081 0.012730837 4283445810
5.039279 -2.3401911 0.63682997 4286085240
2.2676146 0.42818418 2.2027507 4286085240
2.5909922 0.93992257 -0.080013096 4283445810
0.39496619 -0.8166998 0.016463876 4283445810
2.2634921 0.4686808 2.1878846 4286085240
2.4278035 0.62930179 2.2892022 4286085240
2.4711573 1.0560899 -0.033233583 4283445810
2.5471065 0.96563691 -0.064333737 4283445810
1.3249898 -0.70939207 -0.047534361 4283445810
2.1423995 0.12668711 -0.10159689 4283445810
1.7103168 -0.45231006 -0.072148621 4283445810
2.202704 0.41625378 -0.061785787 4283445810
4.6209955 -2.8627031 0.7452091 4278779699
2.6151748 1.363143 -0.024926215 4283445810
1.7172034 -0.3873069 -0.064556286 4283445810
0.68837333 -0.7104196 -0.00091430545 4283445810
2.4139926 0.60112619 2.2830222 4286085240
2.5571179 0.68499935 0.17535126 4286085240
2.473774 1.5685756 0.040081114 4286085240
2.5267658 0.99967092 -0.053438962 4283445810
2.4065371 0.61152291 2.2750869 4286085240
5.0569115 -2.4076004 0.64709795 4286085240
2.5966351 1.4066393 -0.011642039 4283445810
0.42146829 -0.82077211 0.0094125867 4283445810
1.6877471 -0.38917261 -0.058042347 4283445810
4.485117 -3.0017221 0.77619648 4278779699
2.5782547 1.3334479 -0.017760813 4283445810
2.3578582 0.5632382 2.2444015 4286085240
2.3538165 0.55434108 2.2457173 4286085240
2.3435655 0.52045476 2.2440863 4286085240
0.7696346 1.6446773 -0.056928009 4283445810
1.4819249 -0.67839724 -0.063846707 4283445810
2.6268589 0.88678241 0.1364477 4286085240
2.2744281 0.48268571 -0.068874151 4283445810
2.5830004 0.90912372 -0.08322382 4283445810
0.12983714 -0.81624758 0.026871044 4283445810
2.4128237 1.0862801 -0.013583809 4283445810
2.4844882 1.1860138 -0.016331166 4283445810
0.31313008 -0.85389161 0.01371979 4283445810
2.2579443 0.41145745 2.1977668 4286085240
-0.32096493 -1.7896616 0.01940465 4283445810
-0.32883227 -1.8004547 0.018165171 4283445810
-0.31008258 -1.8120408 0.013368219 4283445810
-0.2920894 -1.7928088 0.016139209 4283445810
-0.2690466 -1.8151416 0.0074733198 4283445810
-0.26435268 -1.783498 0.015569419 4283445810
-0.034500219 -1.696044 0.0063490719 4283445810
-0.01143952 -1.685181 0.0050142705 4283445810
0.0073799854 -1.6824663 0.0022746325 4283445810
0.054747056 -1.6534529 0.0013072491 4283445810
0.21429247 -1.614135 -0.018708467 4283445810
-0.24941123 -1.8013995 0.0075745583 4283445810
-0.24053034 -1.7790192 0.01300475 4283445810
-0.22689557 -1.7628132 0.015713602 4283445810
-0.20942512 -1.7842426 0.0076123327 4283445810
-0.20766884 -1.7691157 0.01048474 4283445810
0.28003079 -1.5401994 -0.016936481 4283445810
0.30006123 -1.5128446 -0.01417309 4283445810
2.5091243 1.5514607 -0.0053920299 4283445810
0.88544875 1.633461 -0.049944609 4283445810
0.039505251 -1.6787603 -0.0023877621 4283445810
2.5282431 0.6774407 -0.10226077 4283445810
0.47600776 -1.1111021 0.021293804 4283445810
-0.27542883 -1.7798487 0.016017437 4283445810
0.50837225 -1.0245757 0.02706922 4283445810
0.51475441 -1.0129567 0.025794208 4283445810
0.23023738 -1.5677265 -0.010581762 4283445810
0.25623918 -1.5341794 -0.0082744509 4283445810
0.26972085 -1.5111012 -0.0069645941 4283445810
-0.072494425 -1.7303671 0.003361553 4283445810
-0.092049077 -1.7337692 0.0048884898 4283445810
-0.36490697 -1.7874329 0.02831465 4283445810
0.422335 -1.3227497 -0.0047314465 4283445810
0.41236594 -1.3058896 0.0012442768 4283445810
0.44944012 -1.2730961 -0.0035305917 4283445810
0.52697575 -0.98963612 0.02678065 4283445810
0.45551133 -1.2582687 -0.0013991892 4283445810
0.24859899 -1.5491118 -0.010130912 4283445810
0.70751625 -0.64827567 0.013736576 4283445810
0.69511169 -0.61680526 0.024331301 4283445810
0.35704204 -1.3888407 0.00028881431 4283445810
2.6719458 0.77550906 0.15267557 4286085240
-0.34784904 -1.7912159 0.022353241 4283445810
-0.13167334 -1.7815719 -0.0023281872 4283445810
0.73595029 -0.37880114 0.021569133 4283445810
0.73178321 -0.35622048 0.022945896 4283445810
0.56718487 -0.96278602 0.015989522 4283445810
0.27140695 -1.5344476 -0.012947559 4283445810
0.74981129 -0.62172902 -0.0018839985 4283445810
0.73334408 -0.62877804 0.00507916 4283445810
-0.06161882 -1.7354275 -0.00013428926 4283445810
0.5676446 0.16976756 0.025788218 4283445810
0.30822635 1.4613533 -0.032568753 4283445810
0.023599543 -1.6907099 -0.0012403131 4283445810
0.62563443 -0.84914112 0.011681169 4283445810
2.4497094 1.6199281 0.052804172 4286085240
0.61962593 -0.82800454 0.018610716 4283445810
0.12543243 -1.6789112 -0.017311782 4283445810
0.69468516 -0.070070013 0.017518669 4283445810
0.6928013 -0.069856852 0.020109326 4283445810
0.66061485 -0.78707761 0.010241985 4283445810
0.65480667 -0.7738834 0.014753483 4283445810
0.18385266 -1.6221842 -0.014500856 4283445810
0.1686233 -1.6268034 -0.011263251 4283445810
-0.30663007 -1.7918435 0.018010691 4283445810
0.14035279 -1.6030171 -0.0015011132 4283445810
0.60312748 -0.70085526 0.008938387 4283445810
2.0918338 0.19760177 -0.075079799 4283445810
0.76291615 -0.43199193 0.0057149827 4283445810
0.75289965 -0.43267393 0.011400074 4283445810
-0.25834578 -1.8231008 0.0037830174 4283445810
0.75710595 -0.40044552 0.0098216236 4283445810
0.4913047 -1.0482768 0.02962032 4283445810
0.40598217 -1.3452206 -0.0052021742 4283445810
0.40899858 -1.324628 -0.0017067194 4283445810
0.63510686 -0.76656651 0.024241209 4283445810
0.38957858 0.43314505 0.028541028 4283445810
0.38873878 0.44488251 0.022866705 4283445810
0.710545 -0.022675937 -0.00031676888 4283445810
0.69750589 -0.050714668 0.012511574 4283445810
0.75662518 -0.44669756 0.0089389579 4283445810
0.74662048 -0.46630573 0.013534491 4283445810
0.39312005 -1.4074821 -0.01463598 4283445810
0.72034115 -0.1111775 0.0084407628 4283445810
0.72323835 -0.121093 0.0081246793 4283445810
0.71205872 -0.1145575 0.0138521 4283445810
0.70846921 -0.13729228 0.01997292 4283445810
-0.0086302068 -1.664693 0.0095095038 4283445810
0.7639752 -0.52240121 0.0012356937 4283445810
0.28775918 -1.450943 0.0033890158 4283445810
0.7481761 -0.25641772 0.007520447 4283445810
0.46137026 -1.2618599 -0.004270941 4283445810
1.7818583 1.9108261 -0.12011403 4283445810
2.2874393 0.44706336 2.2138107 4286085240
0.42619246 -1.2920226 -0.00054258108 4283445810
0.43888736 -1.3025126 -0.0061227679 4283445810
0.75432259 -0.38726234 0.011325906 4283445810
0.76395494 -0.37187693 0.0050525367 4283445810
0.76129508 -0.39492336 0.0076243281 4283445810
0.68509769 0.024076259 0.0041943491 4283445810
0.71077758 -0.009138342 -0.0032666624 4283445810
0.70790428 -0.024852443 0.001236707 4283445810
0.70043916 -0.042508781 0.0096405745 4283445810
0.39523986 -1.3404889 0.00067597628 4283445810
0.42586493 0.44268256 0.0066948533 4283445810
0.42845315 0.42929465 0.012014546 4283445810
0.70750815 -0.6947189 0.0070756972 4283445810
0.72723746 -0.66637039 0.0025762618 4283445810
0.55585462 -0.95747072 0.021741092 4283445810
0.7378428 -0.22815952 0.011336237 4283445810
2.2940009 0.50177366 2.2073033 4286085240
0.73658222 -0.25771758 0.014687806 4283445810
0.4469994 -1.247172 0.0028963983 4283445810
0.55616844 -0.97226822 0.017932191 4283445810
0.54660714 -0.99046052 0.017951269 4283445810
0.64582855 -0.69403487 0.0097919507 4283445810
0.21825853 -1.567198 -0.0086537004 4283445810
0.6756134 -0.70563745 0.018633813 4283445810
0.66804838 -0.73437035 0.01714862 4283445810
0.6969772 -0.71112967 0.0092120869 4283445810
0.68845809 -0.73295945 0.0089174332 4283445810
0.70216173 -0.72869772 0.0038866699 4283445810
-0.33065137 -1.7782947 0.022994816 4283445810
-0.33692479 -1.7804134 0.023726404 4283445810
0.65174437 -0.7518276 0.020426676 4283445810
1.4212043 -0.65609562 -0.045618832 4283445810
6.4234114 -0.8990286 0.2333902 4286085240
0.68747526 -0.011737577 0.011392236 4283445810
0.47821066 0.40556109 -0.0021003634 4283445810
0.70955735 -0.096406616 0.013632466 4283445810
0.52322066 0.33421576 0.0021553785 4283445810
0.53110945 0.30749562 0.007073144 4283445810
0.49037036 -1.119848 0.015080243 4283445810
0.48120824 -1.1382384 0.013745159 4283445810
0.51664215 0.3072418 0.015773773 4283445810
0.51862448 0.29731542 0.018043518 4283445810
0.53260314 0.2921679 0.011360413 4283445810
0.53542161 0.27590907 0.014922649 4283445810
0.54618543 0.28644189 0.0049925745 4283445810
0.54157537 0.27472579 0.011518031 4283445810
0.54733914 0.24564052 0.016568195 4283445810
0.47816229 -1.1833123 0.0055499077 4283445810
0.61110902 -0.87043518 0.014710091 4283445810
0.52891093 0.25671956 0.024852723 4283445810
0.53000522 0.2656686 0.021448106 4283445810
0.53816581 0.22837313 0.027122447 4283445810
0.54726708 0.22368109 0.022582978 4283445810
0.5510695 0.20714998 0.024285287 4283445810
0.32500175 1.4709833 -0.034680545 4283445810
0.089353822 -1.7088997 -0.018339783 4283445810
0.60124815 -0.91089684 0.011277288 4283445810
0.35507572 -1.4786083 -0.02059412 4283445810
0.59146994 0.132425 0.024988661 4283445810
0.57617879 -0.92995203 0.017986625 4283445810
0.61766082 0.089377321 0.025898606 4283445810
0.63999063 0.078047961 0.016386122 4283445810
0.64838952 0.062309448 0.015641928 4283445810
0.66417956 0.043539405 0.011951476 4283445810
0.6736052 0.02151881 0.012098223 4283445810
0.6854493 0.01004979 0.0076687811 4283445810
0.70095479 -0.011181865 0.0027081668 4283445810
0.72154957 -0.079738431 0.003418237 4283445810
0.4374688 -1.2714351 0.0022211969 4283445810
0.48088691 -1.1077968 0.021149009 4283445810
-0.23222676 -1.8041764 0.0052553564 4283445810
0.35256022 0.46273756 0.02910848 4283445810
2.2739723 0.45951369 2.1999209 4286085240
-0.17547414 -1.7901959 0.0019811988 4283445810
-0.15588024 -1.7641761 0.0064240098 4283445810
-0.13633581 -1.7679034 0.0023249686 4283445810
-0.10028148 -1.7323434 0.007240057 4283445810
0.71898168 -0.60590774 0.014397889 4283445810
0.72255528 -0.09564352 0.0054515302 4283445810
-0.084696785 -1.7539157 -0.00066229701 4283445810
0.7334137 -0.58544141 0.010313193 4283445810
-0.05246646 -1.7078871 0.0060643405 4283445810
0.57505667 -0.90857732 0.022204489 4283445810
0.33628175 -1.4512275 -0.0089333355 4283445810
0.35154462 -1.4436027 -0.01150617 4283445810
-0.044923142 -1.7326969 -0.00074273348 4283445810
0.64337695 0.051448479 0.022186697 4283445810
0.28757083 -1.4999591 -0.0085737407 4283445810
0.74452209 -0.554533 0.0082485778 4283445810
0.75124276 -0.52879155 0.0073796958 4283445810
0.65485764 0.032405823 0.020628348 4283445810
0.37950701 0.46188992 0.018043518 4283445810
-0.12379588 -1.7509582 0.0051987767 4283445810
-0.11226294 -1.7458844 0.0051892102 4283445810
0.72861159 -0.61599952 0.0086968094 4283445810
0.51069653 0.3413471 0.0066948533 4283445810
0.69160789 -0.69078082 0.0148561 4283445810
0.77034229 -0.30736205 -0.00165537 4283445810
0.50977349 0.33368215 0.01009946 4283445810
0.41551879 0.44454065 0.010666877 4283445810
0.54864991 -0.96988034 0.021031588 4283445810
0.73220724 -0.16713119 0.0083337724 4283445810
0.45680737 0.40075719 0.011234343 4283445810
0.70872337 -0.71238655 0.0035147567 4283445810
0.5259347 -1.0089657 0.022775173 4283445810
0.79200631 -0.32187885 -0.013270766 4283445810
0.7330339 -0.2126427 0.01245445 4283445810
0.74320501 -0.20534836 0.0058793128 4283445810
0.44597754 0.43075198 0.0027227998 4283445810
0.53359157 -1.0216191 0.017992258 4283445810
-0.18781981 -1.7706848 0.007745266 4283445810
-0.19093095 -1.7468625 0.013283044 4283445810
-0.13912053 -1.7319264 0.012333363 4283445810
0.63980287 0.055303577 0.02355963 4283445810
0.62494814 0.073731907 0.026605472 4283445810
0.73576152 -0.56960839 0.010996476 4283445810
0.73472607 -0.53131044 0.015420467 4283445810
