# .PCD v0.7 - Point Cloud Data file format
VERSION 0.7
FIELDS x y z rgb
SIZE 4 4 4 4
TYPE F F F U
COUNT 1 1 1 1
WIDTH 1109
HEIGHT 1
VIEWPOINT 0 0 0 1 0 0 0
POINTS 1109
DATA ascii
0.81095362 0.23077704 0.023561448 4283445810
3.1873856 -2.9655259 0.063409537 4286085240
8.5485897 -2.8782735 0.24659383 4286085240
1.8661093 0.45318425 0.57292199 4286085240
2.359828 -2.817378 1.8886666 4286085240
6.6898646 -2.8599207 0.14798665 4286085240
3.380842 -2.8963454 2.0949631 4286085240
3.0697861 -2.9222445 2.0150952 4286085240
5.0503688 -2.8680224 0.070859939 4286085240
3.1870801 -2.8923483 2.0396161 4286085240
3.2240763 -2.9072998 2.053628 4286085240
3.3616929 -2.8985078 2.0900588 4286085240
3.4213438 -2.8935587 2.1058223 4286085240
4.0707192 -2.8444636 2.2872763 4286085240
4.1896095 -2.8685117 2.3289616 4286085240
0.7978636 0.25882241 0.016902447 4283445810
4.3939853 -2.8472087 2.3881619 4286085240
4.4498706 -2.8434427 2.4049761 4286085240
2.3384259 -2.8281355 1.8995659 4286085240
2.3658898 -2.806458 1.8836377 4286085240
0.31099969 -1.8257205 0.014756441 4283445810
3.8631873 -2.9534023 0.05807963 4283445810
3.2906423 -2.9657412 0.063829273 4286085240
4.2622018 -2.8693287 0.064771563 4286085240
4.6225495 -2.8412926 2.4592724 4286085240
4.6763244 -2.8539183 2.478889 4286085240
3.2423625 -2.9051702 2.0581818 4286085240
4.2178388 -2.8486526 2.3335156 4286085240
12.748504 1.0552981 1.0044954 4286085240
4.8762331 -2.8498204 2.5422928 4286085200
2.9788585 -2.917978 1.9895236 4286085240
3.3535082 -2.9841044 0.062412441 4286085240
0.037169661 -1.7376477 0.027687222 4283445810
1.8633966 1.0653353 0.68895394 4278779699
1.8668916 0.47857782 0.57888949 4286085240
4.0243578 -2.8888559 2.2827225 4286085240
5.1317244 3.2448132 1.2145278 4286085240
3.0572791 -2.8918815 2.0038857 4286085240
3.1197128 -2.8951094 2.0217509 4286085240
5.3700628 -2.8502233 0.091502041 4286085240
8.5977621 -2.8645351 0.25964499 4286085240
3.1275165 -2.8839147 2.0210502 4286085240
4.5267835 -2.8633373 0.061641097 4286085240
9.87988 -2.7946544 0.3315337 4286085240
5.4449096 -1.9643919 2.5948374 4286085200
0.99723184 -0.026790248 0.01622349 4283445810
3.0835125 -2.8981917 2.0126433 4286085240
4.6893706 -2.8414776 2.4806404 4286085240
3.2825024 -2.9037502 2.069041 4286085240
0.79639423 0.27236363 0.011461705 4283445810
2.349432 -2.8231366 1.8943038 4286085240
3.1125534 -2.9069228 2.0228019 4286085240
5.5757957 -1.5718192 2.5965889 4286085200
5.1060343 -2.7285795 2.5951877 4286085200
5.2004085 -2.377671 2.5685651 4286085200
5.815764 -1.2085284 2.6204128 4286085200
4.3794289 -2.8575675 2.38571 4286085240
5.0031834 -2.8604031 2.5853794 4286085200
5.9469261 -1.0789291 2.627214 4286085200
5.9655051 -1.0431986 2.6263263 4286085200
5.7652907 -1.2938884 2.62433 4286085200
3.3261807 -2.923609 2.0862057 4286085240
6.0307236 -0.93652713 2.6169105 4286085200
3.338321 -2.8968928 2.0830529 4286085240
6.0738583 -0.84466308 2.606199 4286085200
5.0171309 -2.8472712 2.587481 4286085200
5.4969759 -1.9241749 2.6081486 4286085200
12.678098 1.0089322 1.0011754 4286085240
5.0756907 -2.7748666 2.5934362 4286085200
5.127162 -2.771359 2.609725 4286085200
6.2954292 -0.53119361 2.5904953 4286085200
6.13662 -0.81368637 2.6161008 4286085200
6.3210864 -0.49293348 2.5927498 4286085200
6.1480064 -0.77548468 2.6130126 4286085200
6.1792545 -0.75949228 2.6178725 4286085200
6.4555931 -0.35923332 2.596801 4286085200
4.7571845 -2.8414052 2.5023589 4286085240
2.9301136 -2.897717 1.9748201 4286085240
2.2356546 -2.8296685 1.9096043 4286085240
5.0800104 -2.8616593 2.6106007 4286085200
5.9464283 -1.0983618 2.6335616 4286085200
6.6017776 -0.13632859 2.575506 4286085200
6.0272717 -1.0145786 2.636044 4286085200
6.6486359 -0.042240709 2.5677824 4286085200
6.10601 -0.90852791 2.6313922 4286085200
6.1211314 -0.83142781 2.6168442 4286085200
5.0514698 -2.8244805 2.594487 4286085200
5.1979332 -2.3965297 2.5706668 4286085200
6.0725355 -0.96278286 2.638495 4286085200
4.0629592 -3.0154841 2.3223059 4286085240
5.5869632 -1.690547 2.6130528 4286085200
5.5806389 -1.6693038 2.6084991 4286085200
2.2539721 -2.8158908 1.9001682 4286085240
6.3289928 -0.4733305 2.5894961 4286085200
5.1108317 -2.6895435 2.5899332 4286085200
5.5432014 -1.7835923 2.6077983 4286085200
5.1102171 -2.6685255 2.5860801 4286085200
3.2362778 -2.99194 0.058878571 4286085240
1.8603102 0.71150833 0.62236047 4286085240
4.0447683 -2.9230194 2.2963841 4286085240
2.9713316 -2.8921692 1.9807663 4286085240
6.5471177 -0.17681992 2.5691791 4286085200
6.3425055 -0.45408496 2.5881615 4286085200
6.3644657 -0.4353402 2.5896959 4286085200
5.4968657 -1.9045568 2.6056967 4286085200
5.660121 -1.5375196 2.6235619 4286085200
5.6908269 -1.4877764 2.6298673 4286085200
1.8577894 0.48317659 0.87278551 4286085240
4.7059913 -2.873333 0.063558698 4286085240
5.6846409 -1.4668852 2.6256635 4286085200
5.1628852 -2.6544228 2.6011426 4286085200
4.4841871 -2.8453531 2.4161856 4286085240
4.0334582 -2.8567333 2.2785189 4286085240
1.1559165 -0.78605413 0.026265979 4283445810
4.0294886 -2.8347461 2.2725639 4286085240
4.1426892 -2.855758 2.3117971 4286085240
6.6009679 -0.11533816 2.569514 4286085200
6.6192565 -0.084109493 2.5696776 4286085200
5.3481965 -2.262717 2.6018434 4286085200
1.8679628 0.57573235 0.8486138 4286085240
4.0243626 -2.8695316 2.2785189 4286085240
5.4298911 -2.1163955 2.60955 4286085200
4.3398008 -2.8514068 2.3720484 4286085240
6.234273 -0.60589874 2.5880909 4286085200
5.7025719 -1.5880228 2.6438792 4286085200
5.7558818 -1.234284 2.6059012 4286085200
5.3548055 -2.1659 2.5902834 4286085200
1.8718801 0.64611399 0.82873821 4286085240
2.2589633 -2.8038232 1.894387 4286085240
6.3936439 -2.8660741 0.1314882 4286085240
1.8926436 0.97832459 0.76032811 4286085240
5.7119975 -1.4160277 2.630918 4286085200
1.8652607 0.47879109 0.87731421 4286085240
6.4669523 -0.38047314 2.6065385 4286085200
5.1055722 -2.707521 2.5913343 4286085200
5.5370975 -1.8205268 2.6099002 4286085200
4.096663 -2.8432672 2.2949829 4286085240
5.7598782 -1.331164 2.6306074 4286085200
1.864759 0.73467654 0.79928225 4286085240
1.8537337 0.72353023 0.7997992 4286085240
5.4470696 -1.8679465 2.5836277 4286085200
5.1662731 -2.6148026 2.5955381 4286085200
5.5703897 -1.7630939 2.6151545 4286085200
7.1511364 0.58126181 2.5380483 4286085240
1.8943292 0.69118583 0.82076174 4286085240
5.1999846 -2.5085409 2.5892327 4286085200
1.8734024 0.63167256 0.83203793 4286085240
5.9089375 -1.1108567 2.6261923 4286085200
6.260253 -0.54825646 2.5897858 4286085200
7.0944443 -2.8484883 0.18064792 4286085240
5.8065066 -1.1873782 2.6103315 4286085200
1.8797435 0.46343711 0.88597262 4286085240
6.8059106 0.16238007 2.5557094 4286085200
1.8671551 0.86209828 0.7731384 4286085240
5.4042563 -2.0866556 2.5965889 4286085200
5.4182806 -2.0526102 2.5969391 4286085200
5.645328 -1.4950565 2.6141038 4286085200
1.8557531 0.60036486 0.6017735 4286085240
2.8510566 -2.95454 0.065231621 4283445810
5.1860976 3.2154596 1.2947471 4286085240
5.7220488 -1.3415835 2.6229062 4286085200
1.880649 0.82516372 0.78400791 4286085240
1.8760648 1.042749 0.74930578 4278779699
4.4329386 -2.8524959 2.401473 4286085240
5.2855577 -2.3158262 2.5881817 4286085200
5.269691 -2.2889512 2.5787237 4286085200
6.3065133 -0.572501 2.6063621 4286085200
1.8704125 0.42970148 0.89496589 4286085240
6.0549989 -2.8537216 0.11908984 4286085240
5.3917632 -2.121289 2.5969391 4286085200
5.2014308 -2.4686282 2.5832775 4286085200
6.5292797 -0.21785598 2.5748589 4286085200
5.4294553 -2.0174949 2.5962386 4286085200
5.4340787 -1.9995902 2.5955381 4286085200
3.0188801 -2.9198325 2.0007331 4286085240
5.3340092 -2.197021 2.587481 4286085200
1.9034038 1.0500345 0.75509375 4278779699
4.9301958 3.2220886 1.2462291 4286085240
7.1951509 0.67708278 2.5233095 4286085240
6.9030209 0.31857967 2.5354679 4286085200
7.0547466 0.55084652 2.5150054 4286085240
5.3625283 -2.1492271 2.5906339 4286085200
5.8137279 -1.1696266 2.6064725 4286085200
5.74297 -1.250608 2.6076372 4286085200
5.6475186 -1.4381869 2.60955 4286085200
4.9242697 -2.8360806 2.5552537 4286085200
4.8714871 -2.8263273 2.5363379 4286085200
4.8582764 -2.860069 2.5384395 4286085200
5.419817 -2.1522334 2.6109509 4286085200
6.2213569 -0.64456862 2.595736 4286085200
6.0120521 -0.91407818 2.6038129 4286085200
4.7031889 -2.8294637 2.4827423 4286085240
1.8672508 0.83349711 0.776555 4286085240
5.0865397 -2.8018219 2.6018434 4286085200
3.674855 -2.940819 0.062753886 4283445810
1.8620876 0.713175 0.80530292 4286085240
2.2860553 -2.8099399 1.8951653 4286085240
1.8648063 0.5193013 0.58552384 4286085240
5.77212 -1.3146946 2.6285079 4286085200
1.8670987 0.53345448 0.86068487 4286085240
6.1252065 -0.73310506 2.5925848 4286085200
1.8707638 1.0050299 0.75258696 4286085240
1.8548369 0.98132104 0.75205266 4286085240
1.8750068 0.40884846 0.90300584 4286085240
3.0440047 -2.9607587 0.065871537 4286085240
6.4593072 -0.33886081 2.5921574 4286085200
6.2091694 -0.6632489 2.5975821 4286085200
5.2167339 -2.8541622 0.076027662 4286085240
1.8537612 0.649782 0.82161367 4286085240
6.2987351 -0.51132637 2.5856473 4286085200
1.8843786 0.47731534 0.88310444 4286085240
5.4021096 -2.0661316 2.593086 4286085200
3.7693076 -2.9580712 0.056141764 4283445810
7.0580454 0.48339641 2.5381382 4286085240
6.0367737 -0.99647117 2.6330476 4286085200
5.1799264 3.2459474 1.2962906 4286085240
1.8523213 0.75027162 0.79188263 4286085240
5.0742021 3.2248292 1.2726142 4286085240
1.8893633 1.0778332 0.74933028 4278779699
5.6299257 -1.6645803 2.6256635 4286085200
5.3228927 -2.2719712 2.594487 4286085200
1.8805217 0.56978673 0.85318041 4286085240
1.877018 0.55246758 0.85846436 4286085240
5.1420898 -2.6231117 2.5888824 4286085200
4.0466065 -3.0233302 2.3191533 4286085240
4.2872996 -2.8560705 2.3566351 4286085240
9.8042698 -2.8404908 0.32427865 4286085240
5.7852736 -1.2213767 2.6103795 4286085200
5.230433 -2.4620652 2.5920351 4286085200
7.0437422 0.50492984 2.5284374 4286085240
4.0115309 -3.0170283 2.3072433 4286085240
1.8710759 0.98230833 0.75432813 4286085240
1.848923 0.9482854 0.75380188 4286085240
5.5900607 -1.8182833 2.6284659 4286085200
1.8455428 0.6934092 0.80577195 4286085240
6.9336991 0.36420903 2.5338521 4286085240
-1.297331 5.8054433 0.016324222 4283445810
1.8701066 0.67561555 0.81848609 4286085240
1.8577144 0.80806458 0.78080571 4286085240
6.271708 -0.58943468 2.5949862 4286085200
5.9149604 -1.0537322 2.6089385 4286085200
5.7146473 -1.3974304 2.6302176 4286085200
5.699738 -1.4418485 2.6288161 4286085200
1.8617076 0.92511928 0.76049101 4286085240
1.8756143 0.89879048 0.76718891 4286085240
1.8624738 0.85276079 0.77339333 4286085240
5.2214694 -2.5393844 2.6014929 4286085200
5.7306995 -1.3628315 2.6330199 4286085200
1.8726034 0.4965761 0.87374866 4286085240
3.3149927 -2.8951607 2.0760469 4286085240
5.6315885 -1.6456364 2.6242623 4286085200
7.2101488 0.60914832 2.5499749 4286085240
-1.1986384 5.8896999 0.025924325 4283445810
5.6414547 -1.513225 2.614454 4286085200
7.2586236 0.70635372 2.536355 4286085240
5.6314306 -2.8643024 0.092811257 4286085240
6.7149057 1.1740714e-06 2.5776839 4286085200
3.423548 -2.914125 2.1114271 4286085240
6.9109821 0.29692268 2.5433981 4286085200
5.2667961 -2.387825 2.5927355 4286085200
5.5112133 -1.8508954 2.6042953 4286085200
5.1527905 -2.5874496 2.5864303 4286085200
7.183671 0.62992877 2.5307586 4286085240
5.5627565 -1.7025303 2.6056967 4286085200
1.8825028 0.37610671 0.91489875 4286085240
7.0656939 0.52909702 2.5295537 4286085240
6.0371227 -0.97683835 2.6320314 4286085200
1.8475398 0.70087332 0.80348945 4286085240
5.4343204 -1.921643 2.5857296 4286085200
4.5169768 -2.8460734 2.4266946 4286085240
3.0407548 -2.9038289 2.0024846 4286085240
1.8818085 0.95008165 0.76180995 4286085240
1.8812411 0.92737669 0.76508319 4286085240
1.8844693 0.895675 0.7699101 4286085240
1.880084 0.87533295 0.77275455 4286085240
1.8726536 0.61322874 0.83648854 4286085240
2.2161162 -2.8233304 1.90904 4286085240
3.0085554 -2.8914056 1.9905744 4286085240
6.5237627 -0.2591722 2.5902028 4286085200
1.8666085 0.801355 0.78416955 4286085240
-1.2671467 5.9359212 0.012586027 4283445810
1.8769541 0.39158115 0.90909964 4286085240
6.6103806 -0.020998038 2.5498557 4286085200
1.8940973 0.39096877 0.91536033 4286085240
5.141953 -2.6643465 2.5958884 4286085200
5.8588552 -1.1593527 2.6219769 4286085200
6.4719391 -0.27770784 2.5788395 4286085200
5.8964176 -1.1473361 2.6294284 4286085200
6.9064507 0.34075439 2.5310376 4286085200
-1.3097745 5.6908011 0.019405335 4283445810
1.875275 0.51328492 0.86958033 4286085240
6.9637437 0.3880007 2.5374918 4286085240
4.603611 -2.870106 2.4589219 4286085240
5.1682158 -2.4730105 2.5727687 4286085200
5.1054592 -2.8334198 2.6137536 4286085200
6.829567 0.14121188 2.5687006 4286085200
7.0432897 0.45988399 2.5332835 4286085240
-1.2928005 5.8728671 0.011814922 4283445810
5.5108428 -1.8313135 2.6018434 4286085200
5.2553391 -2.3424966 2.5818765 4286085200
-1.3023918 5.577507 0.022867084 4283445810
6.503696 -0.32047579 2.6011124 4286085200
3.9431961 -2.8974791 0.063299507 4283445810
1.8586047 0.55669808 0.84940553 4286085240
1.9016458 1.0138401 0.75904608 4286085240
6.7514687 0.032210365 2.5779893 4286085200
1.8670537 0.66446352 0.82113659 4286085240
5.6118593 -1.543569 2.6067476 4286085200
6.2379131 -0.72650534 2.6261425 4286085200
5.5857954 -1.7484676 2.6190078 4286085200
4.895257 3.2438793 1.2392535 4286085240
6.4816046 -0.23688047 2.5704641 4286085200
5.1884375 -2.5642071 2.594487 4286085200
6.5230327 -0.19690494 2.5670462 4286085200
6.7453456 0.1180087 2.5478821 4286085200
6.9659576 0.43258917 2.5214334 4286085240
6.5759001 -0.15669416 2.5728273 4286085200
5.9862037 -1.0272312 2.6274636 4286085200
6.3986664 -0.41726533 2.5953596 4286085200
2.9557393 -2.9863353 0.059959441 4283445810
5.8131313 -1.2852423 2.6357782 4286085200
6.6584363 0 2.5539939 4286085200
5.8778977 -1.1243651 2.6211767 4286085200
2.0463927 0.35831812 0.97175086 4286085240
5.4113612 -1.9717385 2.5839782 4286085200
5.1316414 -2.5564499 2.5741699 4286085200
5.0066748 3.2268069 1.260134 4286085240
5.507575 -1.9672494 2.6172564 4286085200
0.72828948 0.096752688 0.025885686 4283445810
0.74746752 0.11387635 0.021639476 4283445810
-1.306451 5.760118 0.014706016 4283445810
0.77040231 0.47626001 0.012082979 4283445810
0.76675093 0.14946686 0.022675008 4283445810
0.7762264 0.16804636 0.022830427 4283445810
1.881433 0.72745448 0.80646253 4286085240
5.2288904 -2.4410815 2.5881817 4286085200
4.1901808 -2.8493943 2.3251083 4286085240
6.4498549 -0.40003127 2.6067193 4286085200
5.5469933 -1.8825411 2.6207595 4286085200
6.6154194 -0.063042991 2.5627568 4286085200
-1.2298595 5.8523598 0.023349047 4283445810
4.0228376 -3.0455849 2.3170516 4286085240
-1.2845398 5.925036 0.013066292 4283445810
6.8761678 0.27351946 2.5440254 4286085200
3.2509627 -2.9487014 0.06720683 4286085240
0.75199813 0.45502293 0.024442434 4283445810
0.73105264 0.47642034 0.027375162 4283445810
2.2991402 -2.798676 1.8869088 4286085240
6.8165464 0.097568445 2.5758767 4286085200
0.72206551 0.53007329 0.016691595 4283445810
0.71254355 0.50757432 0.026327774 4283445810
0.69969851 0.55416346 0.018157959 4283445810
0.74756694 0.12239401 0.024978101 4283445810
0.65156543 0.62192649 0.01438728 4283445810
0.80923289 0.20921086 0.013764359 4283445810
5.1701369 3.2627599 1.2916001 4286085240
0.57476085 0.70645106 0.0097786486 4283445810
1.9105592 0.93428791 0.77144754 4286085240
0.52453905 0.77689058 -0.0016523004 4283445810
0.85150117 0.35777339 -0.00047078729 4283445810
0.84441066 0.34638533 0.0037565131 4283445810
0.46217558 0.89971495 -0.0023274422 4283445810
0.81504732 0.35472894 0.01736784 4283445810
0.4498778 0.92222071 -0.0011473596 4283445810
0.80969793 0.41259813 0.010336721 4283445810
0.73915011 0.09818349 0.019856006 4283445810
0.70404291 0.068538547 0.027326494 4283445810
5.1561885 -2.527921 2.577673 4286085200
5.0363936 3.223335 1.2680341 4286085240
6.9860711 0.41153726 2.5387759 4286085240
0.81127912 0.44613567 0.0027959447 4283445810
0.79279339 0.45092312 0.0091502219 4283445810
0.29837024 1.1156034 -0.004925698 4283445810
0.74544978 0.53098142 0.0076838434 4283445810
0.72765034 0.5431332 0.011035562 4283445810
0.3651101 1.0344605 -0.0019996613 4283445810
0.80033207 0.16927309 0.0090305805 4283445810
3.1615219 -2.8967454 2.0336611 4286085240
0.71989316 0.53378439 0.016482115 4283445810
0.69160426 0.56957358 0.01658684 4283445810
0.67252016 0.58635944 0.018297613 4283445810
0.80100507 0.46402448 0.0028657466 4283445810
-0.10498315 1.7006075 -0.049387604 4283445810
-0.12001462 1.6827282 -0.039066911 4283445810
-0.13981459 1.7277406 -0.047669351 4283445810
0.71250188 0.56431484 0.010616601 4283445810
-0.15144819 1.6928248 -0.036023814 4283445810
0.68467009 0.58806753 0.013549358 4283445810
0.2699407 1.1390438 -0.0026838183 4283445810
-0.11358751 1.6673657 -0.036063164 4283445810
-0.26353738 1.7536397 -0.033879966 4283445810
0.36174497 1.0624833 -0.0085143447 4283445810
-0.28307518 1.7685934 -0.037061393 4283445810
-0.17364815 1.706118 -0.035515994 4283445810
0.33957314 1.099612 -0.012529939 4283445810
1.8904538 0.70342988 0.81766725 4286085240
-0.18927264 1.6742661 -0.023901388 4283445810
0.31059638 1.0914414 -0.0013608834 4283445810
-0.075338356 1.6458205 -0.039007634 4283445810
-0.35594082 1.7843344 -0.031070113 4283445810
0.30672437 1.0523455 0.012366176 4283445810
-0.38166913 1.7939743 -0.030289084 4283445810
-0.38912931 1.7735085 -0.02566427 4283445810
0.78079468 0.13934812 0.011012167 4283445810
0.3542248 1.051415 -0.0029904544 4283445810
0.77981842 0.14686887 0.013912439 4283445810
-0.46063846 1.79656 -0.026381433 4283445810
-0.03213929 1.5840724 -0.034201145 4283445810
0.82538462 0.40680632 0.0045477031 4283445810
0.8158223 0.43133077 0.0041924715 4283445810
-0.063003346 1.5990838 -0.029550195 4283445810
0.09180253 1.4681048 -0.039229572 4283445810
0.066938013 1.488487 -0.037120849 4283445810
0.68824035 0.05268392 0.029593199 4283445810
0.010427421 1.54501 -0.034923211 4283445810
0.84162027 0.38719088 0.00081533194 4283445810
0.84572452 0.32513711 0.003747344 4283445810
-0.61325711 1.7779899 -0.020581543 4283445810
0.1118508 1.4244579 -0.033047378 4283445810
0.45946065 0.90147626 -0.0015514195 4283445810
-1.2267996 5.9314723 0.018125117 4283445810
0.52305037 0.79912591 -0.006252259 4283445810
0.5251826 0.76726884 0.000980407 4283445810
0.52552599 0.74849254 0.0079980716 4283445810
0.84766227 0.29074046 0.0022447605 4283445810
4.8032446 -2.8482568 2.5184724 4286085200
0.50580537 0.7491762 0.014172375 4283445810
0.84145951 0.23909664 0.001683861 4283445810
0.82641441 0.22859843 0.0081989467 4283445810
6.2287865 -0.62534559 2.5922425 4286085200
0.58487678 0.68262804 0.015225202 4283445810
0.57079953 0.69028658 0.016691588 4283445810
6.8337116 0.18479246 2.5588112 4286085200
-0.27768996 1.7710425 -0.038941413 4283445810
-0.29141143 1.7842751 -0.03996402 4283445810
-0.43531132 1.830402 -0.036803424 4283445810
-0.44214997 1.82046 -0.034035295 4283445810
-0.18614055 1.7200937 -0.036790878 4283445810
-0.46412033 1.8343834 -0.037152141 4283445810
-0.48105112 1.8277423 -0.033533633 4283445810
-0.37214538 1.7911538 -0.030597255 4283445810
0.77982718 0.50467813 0.001399368 4283445810
-0.25011504 1.7527941 -0.036544573 4283445810
-0.52559155 1.8303297 -0.03394711 4283445810
0.7320345 0.50750577 0.018995881 4283445810
-0.57350588 1.8312676 -0.032845676 4283445810
0.36474228 1.0128348 0.0046390444 4283445810
-0.59627396 1.8223083 -0.030905783 4283445810
-0.055337362 1.5983546 -0.031252176 4283445810
0.78530031 0.4700675 0.0076838434 4283445810
-0.62393272 1.8277898 -0.032696456 4283445810
-0.64003295 1.8366383 -0.035958171 4283445810
-0.6390925 1.8153293 -0.031065613 4283445810
-0.52160656 1.7843031 -0.021395862 4283445810
6.1120548 -0.79067993 2.6064439 4286085200
-0.69610029 1.8449939 -0.039223403 4283445810
-0.57754856 1.8038422 -0.02529636 4283445810
-0.0067494065 1.5447187 -0.029026568 4283445810
-1.0723866 1.6355706 -0.0069339573 4283445810
-0.61053121 1.8073214 -0.028568536 4283445810
-1.1074275 1.6486729 -0.0089050829 4283445810
0.083158858 1.4811566 -0.039463371 4283445810
-1.1247965 1.6573838 -0.011036754 4283445810
0.045977749 1.5006782 -0.032484502 4283445810
-1.1403944 1.6463219 -0.0077492893 4283445810
-0.66948909 1.8092422 -0.029038012 4283445810
0.39604044 0.92909437 0.017427027 4283445810
1.8608221 0.96938795 0.75366235 4286085240
0.15239458 1.3978556 -0.041237146 4283445810
1.8679314 0.90425372 0.76400268 4286085240
-0.81616998 1.7538221 -0.02403006 4283445810
0.17335649 1.3171101 -0.024295956 4283445810
0.5212875 0.73122472 0.015644163 4283445810
0.51284957 0.7316283 0.017738998 4283445810
-0.83831233 1.674319 -0.0079695284 4283445810
0.29297078 1.1696668 -0.019907564 4283445810
0.53487253 0.68368334 0.029469997 4283445810
0.6433081 0.60820496 0.021509677 4283445810
0.66445225 0.58365655 0.021928638 4283445810
0.67269361 0.56852782 0.023604497 4283445810
0.75159377 0.10795655 0.016370108 4283445810
-1.071476 1.6513093 -0.0097683668 4283445810
-1.0891188 1.646775 -0.0086977929 4283445810
-1.2130755 1.6930385 -0.016046152 4283445810
-1.2214379 1.6876501 -0.013651133 4283445810
-0.59382647 1.7954773 -0.024595201 4283445810
7.1861024 0.65318 2.5260632 4286085240
5.4133725 -2.0311129 2.5923853 4286085200
0.85635287 0.31314862 -0.0012419621 4283445810
-0.84581697 1.7444236 -0.023456752 4283445810
-0.85556531 1.7293568 -0.021293089 4283445810
-0.99612325 1.6070296 -1.7702579e-05 4283445810
0.67802411 0.55211496 0.026537254 4283445810
-0.3045873 1.7265085 -0.019994259 4283445810
0.74627781 0.47625831 0.021509677 4283445810
2.2378483 -2.8140244 1.9019122 4286085240
0.40899971 0.96517515 0.0027266343 4283445810
0.42113492 0.95411187 0.00023272634 4283445810
6.7689209 0.053823438 2.5721529 4286085200
1.9189333 1.0826106 0.75431311 4278779699
5.6428299 -1.6100835 2.6246126 4286085200
-0.76104164 1.7893167 -0.029527396 4283445810
1.8727626 0.4491066 0.88981801 4286085240
-0.71460849 1.7734103 -0.023404688 4283445810
5.2610402 -2.3250329 2.5811758 4286085200
0.10948804 1.4536258 -0.041177839 4283445810
0.15301211 1.4462206 -0.054894209 4283445810
0.12995011 1.422673 -0.040244937 4283445810
0.85210538 0.39367992 -0.0048594773 4283445810
0.76049256 0.11831149 0.015838772 4283445810
-0.29451197 1.7507616 -0.030048266 4283445810
-0.1264427 1.6967496 -0.043085188 4283445810
1.8677033 0.7703675 0.7918396 4286085240
-0.36650461 1.8072939 -0.035796672 4283445810
0.65018237 0.60885096 0.018995881 4283445810
-0.49261919 1.8477864 -0.039012194 4283445810
-0.3097102 1.7887985 -0.038940161 4283445810
-0.89164042 1.6666549 -0.0090554655 4283445810
-0.85440189 1.6796652 -0.0092570484 4283445810
0.21675399 1.2460114 -0.018817812 4283445810
0.22065778 1.2449759 -0.019787908 4283445810
6.8534145 0.2507849 2.5425329 4286085200
0.50027645 0.79153496 0.0057595968 4283445810
-0.81569004 1.7383085 -0.019129425 4283445810
-0.77700222 1.7267808 -0.014433086 4283445810
0.46653289 0.85722393 0.0061985999 4283445810
-1.3283775 1.6090546 0.02234064 4283445810
-1.3046986 1.6010301 0.023196459 4283445810
-1.2958218 1.6057262 0.021111712 4283445810
1.8876247 1.0570467 0.7501477 4278779699
8.8703403 -2.8619647 0.2690959 4286085240
0.22364926 1.0807624 0.029738128 4283445810
5.7548571 -2.8358552 0.10240653 4286085240
-0.088068873 1.6881114 -0.049106732 4283445810
1.867223 0.74940324 0.79592073 4286085240
0.79875803 0.19255388 0.016160617 4283445810
0.80473465 0.19241874 0.012595646 4283445810
0.26512253 1.2037559 -0.022383749 4283445810
-0.89973062 1.7549351 -0.029687643 4283445810
0.8427549 0.26727119 0.0038092732 4283445810
-0.88899535 1.7071255 -0.018639982 4283445810
-0.74853897 1.7755877 -0.025387496 4283445810
0.45705345 0.85595697 0.01084742 4283445810
0.45092565 0.83805168 0.018048137 4283445810
0.40649518 0.91306823 0.01813972 4283445810
0.43168664 0.91054487 0.0086318329 4283445810
0.38468385 0.99319726 0.0029978901 4283445810
5.3233986 -2.2323146 2.5888824 4286085200
6.1649289 -0.69816273 2.5943153 4286085200
-0.27396142 1.7843482 -0.042231351 4283445810
1.87593 0.36549592 0.91587251 4286085240
6.4968648 -0.2994568 2.5929599 4286085200
0.51016301 0.76871479 0.0068733394 4283445810
-0.79053921 1.7420301 -0.019003063 4283445810
-0.76620907 1.7471782 -0.019324213 4283445810
0.45602471 0.87065363 0.0076781735 4283445810
4.9240608 3.2404754 1.2469155 4286085240
1.8657956 0.58808064 0.84346813 4286085240
5.3044648 -2.2840531 2.5899332 4286085200
-0.0069372561 1.5854666 -0.041129827 4283445810
0.010640409 1.5739348 -0.042970061 4283445810
0.025674563 1.5740323 -0.048985064 4283445810
-0.44877893 1.8100179 -0.031155035 4283445810
0.78400743 0.14766799 0.011287779 4283445810
-1.0129684 1.6816342 -0.019663423 4283445810
0.6306836 0.63542509 0.016901076 4283445810
1.8510065 0.76348084 0.78780985 4286085240
6.7974911 0.20545053 2.5419993 4286085200
-0.91274583 1.6676095 -0.010813475 4283445810
0.48303854 0.77514088 0.017890364 4283445810
-0.83350122 1.7190239 -0.016851902 4283445810
-0.79445809 1.7359645 -0.018089056 4283445810
5.2641039 -2.3664739 2.5885322 4286085200
-1.3140078 1.5916597 0.026749134 4283445810
0.14981371 1.4159989 -0.04477337 4283445810
-1.2700187 1.5996269 0.021178305 4283445810
0.85137337 0.40488634 -0.0067510903 4283445810
5.7345366 -1.3830028 2.6361725 4286085200
-0.59939778 1.8928031 -0.047266543 4283445810
0.76934934 0.13983309 0.017684251 4283445810
-0.092340752 1.6680117 -0.042099208 4283445810
-0.95911938 1.6571813 -0.011661679 4283445810
0.18817911 1.2728517 -0.016633272 4283445810
-1.2936651 1.6188054 0.016879827 4283445810
1.8779038 0.54300785 0.86200005 4286085240
0.82785141 0.44672021 -0.0040471703 4283445810
-0.98359746 1.6446939 -0.0089465082 4283445810
-0.965536 1.6470618 -0.0088483989 4283445810
-0.46830642 1.8026038 -0.028292954 4283445810
-0.93206143 1.6587527 -0.010424227 4283445810
-0.91676134 1.6561416 -0.0081691146 4283445810
0.60759091 0.62595868 0.027479909 4283445810
0.62929946 0.62010527 0.022347599 4283445810
4.2455354 -2.8477619 2.3419228 4286085240
0.66006398 0.019960191 0.028196454 4283445810
6.1010003 -0.86820227 2.6169012 4286085200
0.4448522 0.88908654 0.0080758231 4283445810
0.076089337 1.529055 -0.051898807 4283445810
4.5569563 -2.8209596 2.4344013 4286085240
-1.0452625 1.6451073 -0.0093655884 4283445810
-0.14622535 1.6743469 -0.031768292 4283445810
-0.40906221 1.7828466 -0.025320292 4283445810
-0.40915063 1.8095174 -0.032546952 4283445810
-1.0094236 1.6518704 -0.011852284 4283445810
-0.5225836 1.8419297 -0.038019717 4283445810
-0.79059571 1.7130969 -0.012833536 4283445810
0.46676484 0.7904402 0.022136346 4283445810
-0.74224049 1.8252076 -0.037249118 4283445810
-1.2248336 1.6698622 -0.0093546212 4283445810
-1.1828786 1.6846468 -0.014970988 4283445810
0.37008831 0.98963118 0.010008186 4283445810
-0.39782339 1.8411008 -0.042703003 4283445810
-0.87478429 1.7333624 -0.02414 4283445810
-0.81288874 1.7181005 -0.014574379 4283445810
0.18660264 1.3837036 -0.048664391 4283445810
-0.75609285 1.7543833 -0.02147761 4283445810
0.83386642 0.33238238 0.0092572626 4283445810
0.83624768 0.37136412 0.005531311 4283445810
-0.68826675 1.7896702 -0.026260182 4283445810
-0.70363796 1.8296304 -0.036445618 4283445810
-1.2978358 1.6947522 -0.0100521 4283445810
-1.1676996 1.6658304 -0.010573566 4283445810
-1.2838975 1.7044632 -0.015883356 4283445810
-1.2685443 1.7122343 -0.017821118 4283445810
-1.1095735 1.6632781 -0.01346004 4283445810
0.34156302 1.0466876 0.0027523935 4283445810
3.2823558 -2.9222593 2.0735948 4286085240
0.81994408 0.22454621 0.010506541 4283445810
0.49388194 0.74934709 0.019234121 4283445810
0.16439743 1.4041669 -0.046809673 4283445810
-0.070356332 1.6520545 -0.043461978 4283445810
-0.89750403 1.6585252 -0.0080373287 4283445810
0.83095104 0.2859731 0.010795345 4283445810
6.0881591 -0.88611573 2.6186113 4286085200
-0.67149734 1.7970785 -0.026491672 4283445810
0.077556491 1.4646317 -0.032907367 4283445810
-0.63748825 1.7925411 -0.024247736 4283445810
6.8084989 0.075794935 2.5789988 4286085200
1.859709 0.46477714 0.87991709 4286085240
-1.3035283 1.6854494 -0.0066907108 4283445810
0.60428715 0.65936124 0.017320037 4283445810
-0.77820534 1.7592911 -0.021516562 4283445810
3.0053267 -2.9239528 1.9616048 4286085240
1.8440115 0.74586195 0.62827337 4286085240
6.1643 -0.67826533 2.5933273 4286085200
1.856091 0.87135595 0.76726818 4286085240
-0.57588565 1.8701626 -0.044362575 4283445810
0.79273057 0.17690675 0.016342297 4283445810
0.22777075 1.2391616 -0.020381033 4283445810
3.3386695 -2.8767364 2.0975182 4286085240
4.1239853 -2.839695 2.444072 4286085240
-1.1093146 1.6234288 -0.0013571978 4283445810
4.2560525 -2.8318803 2.5045512 4286085240
1.8629198 0.68644702 0.81315076 4286085240
-0.24892265 1.7712905 -0.042300135 4283445810
2.3436317 -2.8526847 1.70837 4286085240
4.743432 -2.2929552 2.710633 4286085200
4.7524343 -2.2786798 2.7162659 4286085200
0.092700027 1.4335504 -0.028658589 4283445810
4.7278972 -2.1568859 2.7079613 4286085200
4.7222195 -2.136169 2.7019391 4286085200
-1.2408278 1.7030044 -0.017033458 4283445810
4.7107849 -2.0949831 2.6994143 4286085200
0.68498015 0.56229115 0.021090716 4283445810
1.8983201 0.75488257 0.80478162 4286085240
4.7197227 -1.9215158 2.7058635 4286085200
0.46161166 0.80792427 0.019558847 4283445810
4.6769981 -1.8522704 2.6905332 4286085200
4.6652389 -1.7877662 2.688921 4286085200
-0.75601679 1.8093894 -0.033437282 4283445810
4.6675344 -1.7461885 2.6924503 4286085200
4.6586347 -1.7259809 2.6900616 4286085200
0.34778929 1.0250198 0.0074075162 4283445810
4.7115297 -2.113297 2.6982732 4286085200
4.7215877 -2.0638955 2.702965 4286085200
-0.98681867 1.6620642 -0.012742102 4283445810
4.6357722 -1.4944388 2.6864779 4286085200
3.3570547 -2.9112446 2.1113198 4286085240
4.6185341 -1.456499 2.6825619 4286085200
-0.47672388 1.7655727 -0.01852715 4283445810
3.2778513 -2.9164791 2.0785775 4286085240
2.2902205 -2.8425698 1.6908455 4286085240
2.2473803 -2.8260243 1.6740377 4286085240
4.5401468 -1.1506313 2.6612468 4286085200
4.046699 -2.8246105 2.4062743 4286085240
1.858099 0.93070692 0.75873971 4286085240
1.8666764 0.9499042 0.75802624 4286085240
4.5511155 -0.95501494 2.6892469 4286085200
1.8811184 0.60278982 0.84274888 4286085240
4.747766 -2.710155 2.7171943 4286085200
4.7267547 -2.678256 2.7078538 4286085200
4.3002553 -2.8450229 2.3583868 4286085240
4.7176909 -2.6139402 2.7059669 4286085200
4.7162967 -2.5935881 2.7013016 4286085200
4.7618351 -2.8456495 0.069881678 4286085240
-0.60979116 1.8536654 -0.039086163 4283445810
4.6676464 -1.6453462 2.6906185 4286085200
4.5699072 -1.2047176 2.6769748 4286085200
4.7025242 -2.0288844 2.6961472 4286085200
4.700089 -2.0012746 2.6973743 4286085200
4.6181254 -1.5949202 2.6752784 4286085200
4.5402813 -1.135303 2.6595263 4286085200
4.7475648 -2.3794138 2.7094429 4286085200
4.7561755 -2.3459759 2.7160053 4286085200
4.4629412 -2.83815 2.5952454 4286085200
4.7426343 -2.3112178 2.7089694 4286085200
2.3255785 -2.8491478 1.7034619 4286085240
2.3346128 -2.823343 1.7016919 4286085240
4.7249484 -2.2470353 2.7043619 4286085200
0.4311496 0.88381135 0.01591529 4283445810
4.3831043 -0.22335699 2.6757526 4286085200
4.3628154 -0.23624572 2.6657312 4286085200
0.14408959 1.4045922 -0.039577514 4283445810
4.3580885 -0.18733695 2.6642156 4286085200
4.3466525 -0.16606155 2.6684599 4286085200
0.83496159 0.39383557 0.0025931101 4283445810
-1.035454 1.6126077 0.0003170073 4283445810
4.3547449 -0.1108836 2.6801796 4286085200
4.6550651 -1.6910442 2.6876509 4286085200
4.5579424 -1.2482176 2.6635282 4286085200
4.5345459 -1.2108401 2.6570585 4286085200
4.7261872 -2.4254262 2.7053678 4286085200
4.0144286 -2.8691034 2.3972185 4286085240
4.0963235 0.41209391 2.6617715 4286085240
-0.74745047 1.7192572 -0.011529803 4283445810
-0.76595014 1.7167975 -0.011234045 4283445810
4.4096313 -0.33038619 2.6777775 4286085200
4.4134154 -0.30947849 2.6810639 4286085200
4.3983707 -0.29436249 2.6729012 4286085200
4.3735809 -0.27173042 2.6659307 4286085200
2.3990598 -2.82722 1.7202775 4286085240
4.5614562 -0.98753476 2.6841917 4286085200
4.2294135 -2.8384881 2.4902322 4286085240
3.0238962 -2.9233475 1.9699781 4286085240
4.7700229 -2.231359 2.7287898 4286085200
4.0753112 0.43620297 2.6558621 4286085240
4.4648533 -0.5209341 2.6781964 4286085200
3.0511289 -2.8938365 1.9806919 4286085240
4.0617261 0.44782987 2.6532705 4286085240
4.5379987 -0.92967069 2.6805069 4286085200
4.0359559 0.45799565 2.6480355 4286085240
4.5577502 -0.91861337 2.6932511 4286085200
4.7224455 -2.4425209 2.702471 4286085200
4.0498118 0.49878097 2.670373 4286085200
0.59430975 0.65124995 0.023185531 4283445810
3.9902117 -2.8326542 2.3809237 4286085240
0.56909966 0.6728003 0.023395017 4283445810
0.56502759 0.68330073 0.020881236 4283445810
4.6036615 -1.4116395 2.676507 4286085200
2.3538597 -2.8282435 1.7072666 4286085240
1.8839893 0.53546929 1.5971575 4286085240
4.7592187 -2.1894965 2.7216082 4286085200
4.4335537 -0.48870227 2.6693871 4286085200
4.4387064 -0.47497779 2.6755044 4286085200
4.4098864 -0.45061454 2.6640763 4286085200
4.7523346 -2.8139439 2.7307222 4286085200
4.663538 -1.5857297 2.6936517 4286085200
4.6367087 -1.5519595 2.6838295 4286085200
5.5385303 -1.7143766 2.5983403 4286085200
4.5741563 -2.8479159 2.6455703 4286085200
4.4602747 -0.67936528 2.6605833 4286085200
4.3975396 -0.25216222 2.6796625 4286085200
4.1735401 0.24604324 2.6550214 4286085200
0.40145111 0.92541546 0.017031223 4283445810
4.1851535 0.27347332 2.6662266 4286085200
4.7256584 -2.8287003 2.7168875 4286085200
4.0145092 -3.0164521 2.4052336 4286085240
0.36562356 0.97847188 0.014944822 4283445810
4.2836285 0.013634713 2.663584 4286085200
4.4613867 -0.72317713 2.6558676 4286085200
4.6954861 -1.981689 2.6921005 4286085200
4.0206952 -2.8255289 2.3935828 4286085240
4.0025864 -2.8318739 2.3891304 4286085240
-0.12741627 1.6394023 -0.024489582 4283445810
3.1580496 -2.9197941 2.0272689 4286085240
4.3285317 -0.041323937 2.6744328 4286085200
4.3357925 -0.027594097 2.6823628 4286085200
4.5536156 -1.1849374 2.667099 4286085200
4.483232 -0.75603139 2.669122 4286085200
-0.10867132 1.6737288 -0.04051736 4283445810
4.444016 -0.73488325 2.6483567 4286085200
0.61238223 0.64310116 0.020252794 4283445810
1.909427 0.63590193 1.6587722 4286085240
1.9196984 0.65292776 1.6723073 4286085240
1.9444073 0.87238872 1.8064401 4286085200
1.9230645 0.87017667 1.7955811 4286085200
4.0734878 -2.8240721 2.4193714 4286085240
1.9309157 0.92987782 1.8329121 4286085200
4.6354871 -1.5269819 2.6819346 4286085200
4.4761848 -0.65266746 2.675061 4286085200
4.4110141 -0.37285414 2.6695209 4286085200
4.7276869 -2.5316877 2.7076242 4286085200
4.4425569 -0.59011799 2.6628237 4286085200
4.3482566 -0.083030745 2.6765082 4286085200
4.2729864 -2.8235734 2.5129936 4286085240
4.7232904 -2.0825658 2.7022343 4286085200
4.570704 -1.2360916 2.6722887 4286085200
1.949816 0.52744365 1.6232042 4286085240
-1.0306234 1.6450958 -0.0099499077 4283445810
3.1969228 -2.8996215 2.0441699 4286085240
3.1719866 -2.8954542 2.0324681 4286085240
4.6867418 -1.6353301 2.7065473 4286085200
2.3069947 -2.844811 1.6950896 4286085240
0.63030094 0.61127949 0.024861388 4283445810
4.5591121 -1.1708912 2.6679575 4286085200
1.9303291 0.63263774 1.6691965 4286085240
1.916391 0.61795592 1.6551635 4286085240
0.57313919 0.65038323 0.029993705 4283445810
4.1923404 0.20700151 2.6556306 4286085200
4.4625196 -0.69424313 2.6627991 4286085200
1.9210526 0.64657372 1.6697078 4286085240
1.9207386 0.66010988 1.6764779 4286085240
1.9136012 0.66447479 1.677495 4286085240
0.2122882 1.2088151 -0.0060840398 4283445810
4.600039 -1.1347032 2.6915469 4286085200
1.8997234 0.7040239 1.6884222 4286085240
1.929286 0.88783574 1.8086201 4286085200
1.9291248 0.91769695 1.8260708 4286085200
4.775785 -2.586853 2.7317984 4286085200
1.8897816 0.92121172 1.8085103 4286085200
1.8974787 0.94749379 1.8276517 4286085200
1.9498575 0.70498598 1.7134663 4286085240
4.3686767 -0.20868705 2.6680088 4286085200
-0.73864645 1.7918344 -0.028032407 4283445810
4.4935131 -0.66980308 2.6804678 4286085200
4.5344439 -1.1032283 2.661958 4286085200
-0.90059572 1.7028781 -0.019018352 4283445810
1.9253907 1.0751531 1.9174531 4286085200
1.9060452 1.0445415 1.8911932 4286085200
-0.17286009 1.7256067 -0.040754825 4283445810
1.9248939 0.80540454 1.7573416 4286085240
4.7676325 -2.8025482 2.7337987 4286085200
1.9081724 0.83072233 1.7639982 4286085240
3.0966856 -2.8998315 1.9981327 4286085240
1.941214 0.54506171 1.6273394 4286085240
4.7488208 -2.4753468 2.7140846 4286085200
1.9074028 0.52249163 1.6003084 4286085240
4.7303333 -2.4848862 2.7089846 4286085200
4.3274612 -0.13086052 2.6621723 4286085200
4.0019984 -2.9871724 2.3988159 4286085240
0.84226674 0.37617949 0.0017888844 4283445810
4.6846685 -1.7738718 2.6948948 4286085200
1.9122291 0.73298639 1.7118561 4286085240
1.9557278 0.92272991 1.8408234 4286085200
4.7535224 -2.6536002 2.7223966 4286085200
1.9003923 0.43057126 1.5569954 4286085240
2.4010093 -2.8478365 1.7261932 4286085240
0.8326475 0.26812953 0.0094760712 4283445810
3.3078642 -2.887078 2.0874262 4286085240
4.5232716 -0.792422 2.6828437 4286085200
3.2906229 -2.909133 2.0803363 4286085240
1.8668262 0.78743213 0.78805876 4286085240
4.3065572 0.041124195 2.6798341 4286085200
4.6943483 -1.9636319 2.6978822 4286085200
4.7243848 -2.3866379 2.7019489 4286085200
-0.95084077 1.6713883 -0.014593989 4283445810
4.0809999 0.42367777 2.6541462 4286085240
0.77566177 0.48754057 0.0072648921 4283445810
4.4827094 -0.53748071 2.6880372 4286085200
4.4613452 -0.57817143 2.6756399 4286085200
4.1317258 0.36258355 2.661922 4286085200
4.3503876 -0.14887664 2.6700611 4286085200
4.6478677 -1.7051899 2.682194 4286085200
-1.2660623 1.669703 -0.0044873357 4283445810
4.2001486 0.287882 2.6788666 4286085200
1.9166528 0.98004395 1.8557208 4286085200
4.1559958 0.25828585 2.646095 4286085200
4.7547197 -2.2057879 2.7228105 4286085200
4.6755924 -1.8088194 2.6920798 4286085200
4.2526336 0.18284871 2.6786156 4286085200
4.1336608 -2.8173637 2.4422061 4286085240
4.2260118 0.16149382 2.6599569 4286085200
4.2194037 0.19487686 2.6655078 4286085200
0.1125126 1.462738 -0.044815972 4283445810
4.5312204 -0.85339731 2.6832592 4286085200
4.5125237 -0.86475497 2.6709533 4286085200
1.9091311 0.8095544 1.752486 4286085240
0.41428071 0.94672692 0.0060087442 4283445810
1.9547721 1.0073972 1.8888822 4286085200
1.9170178 0.97254586 1.8513112 4286085200
1.9214426 0.53291804 1.6120241 4286085240
3.0380113 -2.8998163 1.9750488 4286085240
0.84594101 0.30831182 0.0041709146 4283445810
1.8991075 0.50724494 1.5891452 4286085240
1.9432726 0.73426616 1.7269757 4286085240
4.3478599 -0.055344794 2.6803036 4286085200
4.9695001 3.2252653 1.2510337 4286085240
4.5452342 -1.2603005 2.659255 4286085200
1.9533099 0.43602902 1.5855 4286085240
4.0713053 0.39649126 2.643384 4286085200
1.9247375 0.41680565 1.5629799 4286085240
0.13985066 1.4543926 -0.053430587 4283445810
0.49163127 0.78336507 0.011834025 4283445810
1.9065149 0.39382815 1.5430444 4286085240
4.5343618 -1.0498617 2.6670055 4286085200
2.9572363 -2.895541 1.9381866 4286085240
4.3021846 0.027387831 2.6732934 4286085200
4.3172975 0 2.6769168 4286085200
1.9276369 1.0523884 1.9040146 4286085200
1.9180865 1.0952309 1.9247584 4286085200
4.7412548 -2.4141273 2.7089114 4286085200
4.0382824 0.48431736 2.6590714 4286085200
1.9041872 0.56091577 1.6191342 4286085240
1.8966686 0.5850448 1.6272864 4286085240
1.9251519 0.38492757 1.5494733 4286085240
0.6538474 0.58738858 0.024442425 4283445810
3.2311821 -2.9120066 2.0567808 4286085240
4.5393696 -1.0282136 2.669225 4286085200
0.83327913 0.24884367 0.0071598054 4283445810
4.2608633 0.12209325 2.6692774 4286085200
4.4953322 -2.8187301 2.6117244 4286085200
4.2594604 0.10848538 2.6683474 4286085200
1.8973997 0.88783747 1.7944114 4286085200
1.9289814 1.089267 1.9267024 4286085200
-1.1523156 1.674893 -0.014368951 4283445810
5.6223893 -1.6235834 2.6186576 4286085200
4.6229577 -1.2977066 2.6948843 4286085200
4.5103774 -0.89414024 2.6683033 4286085200
4.0702567 0.47501519 2.6717882 4286085200
4.113656 0.38740188 2.6616297 4286085200
-1.2677075 1.6941608 -0.013825029 4283445810
1.8586479 0.52146178 0.86126542 4286085240
1.9382365 0.51109231 1.6099577 4286085240
-0.85105246 1.784055 -0.032339126 4283445810
2.271724 -2.8380489 1.682507 4286085240
1.9434414 0.97818559 1.8661885 4286085200
2.0132561 0.3591193 0.96160299 4286085240
1.9141822 0.40814576 1.5539985 4286085240
1.8870113 0.41492835 1.5435183 4286085240
1.8827287 0.38892579 1.5301335 4286085240
1.9290822 0.50211674 1.5992913 4286085240
4.7701468 -2.7836413 2.7307222 4286085200
1.9112077 0.82120967 1.7599857 4286085240
4.6179571 -2.8143728 2.6633778 4286085200
3.4482298 -2.9331074 2.1508255 4286085240
4.581748 -2.8324521 2.649703 4286085200
3.1954076 -2.9355299 2.0452206 4286085240
3.097193 -2.9188619 1.9993749 4286085240
-1.2937447 1.6509876 0.0040207803 4283445810
0.59302783 0.63886487 0.027794152 4283445810
1.9216244 0.59944767 1.6484542 4286085240
4.3485498 -0.069195308 2.680763 4286085200
1.9239031 0.95305008 1.8425126 4286085200
1.9293377 0.85457826 1.7882812 4286085240
4.4498444 -0.41895521 2.6868587 4286085200
4.391593 -0.39937735 2.6566589 4286085200
4.3607626 -2.8319943 2.5493824 4286085200
4.7034502 -1.674814 2.7059014 4286085200
4.4160275 -0.38743368 2.6726809 4286085200
4.7173519 -2.3455207 2.69613 4286085200
5.3635073 -2.189271 2.5965889 4286085200
4.3971696 -2.8357863 2.5673633 4286085200
4.2550664 0.054177944 2.6571705 4286085200
4.485374 -0.80050337 2.6652262 4286085200
4.5035057 -0.825939 2.6718442 4286085200
4.0232224 -2.9732182 2.4066885 4286085240
1.8961216 0.578273 1.6236997 4286085240
1.9080914 0.56867248 1.624773 4286085240
4.5051937 -0.84107471 2.6696482 4286085200
4.3630705 -0.097204655 2.6843102 4286085200
1.9311804 0.79361886 1.7559175 4286085240
4.2808609 7.4848947e-07 2.6537817 4286085200
0.32992512 1.0220407 0.013243645 4283445810
4.5273209 -0.8825345 2.6753063 4286085200
4.7646074 -2.5222673 2.7244649 4286085200
0.43282789 0.93590093 0.0018426478 4283445810
4.1498313 0.32427308 2.6616981 4286085200
4.5911088 -0.97866935 2.7061846 4286085200
1.9418743 0.76212949 1.741327 4286085240
1.9092684 1.0305541 1.8825703 4286085200
1.9257497 1.0197496 1.8828454 4286085200
4.1857052 0.34048399 2.6857109 4286085200
1.9234462 0.57992113 1.637635 4286085240
4.3995361 -0.35074055 2.67133 4286085200
4.5388956 -1.0890237 2.6668344 4286085200
4.7441754 -2.6682177 2.7170575 4286085200
1.884933 0.85580266 0.77703059 4286085240
1.9118766 0.6912753 1.6884701 4286085240
6.9041214 0.23065458 2.5637307 4286085200
1.9975395 0.38619325 1.5859802 4286085240
2.0090294 0.38178506 1.5898457 4286085240
1.9307621 0.72252446 1.7126925 4286085240
4.499824 -0.62689376 2.6892171 4286085200
4.5907388 -2.8178568 2.649703 4286085200
4.4560614 -0.56307554 2.6720669 4286085200
1.9388442 0.48493791 1.6002882 4286085240
1.9423096 0.49237904 1.6033201 4286085240
1.9070333 0.75546926 1.7216136 4286085240
4.6783891 -2.8308237 2.6931481 4286085200
1.9046357 1.0163445 1.871743 4286085200
1.9157138 0.99887264 1.8656638 4286085200
1.9489274 1.0761219 1.9291663 4286085200
4.2619591 0.067834184 2.6608801 4286085200
4.680407 -1.940325 2.6928144 4286085200
4.6874032 -1.9257673 2.6932223 4286085200
4.7503133 -2.7316887 2.7225978 4286085200
4.7694683 -2.7629356 2.7311065 4286085200
4.2606139 0.094945587 2.6646135 4286085200
4.2246752 0.14797769 2.6548491 4286085200
4.6438746 -1.8734299 2.6756248 4286085200
1.8998556 0.43681192 1.5594926 4286085240
4.4808993 -0.63879842 2.6763947 4286085200
3.401525 -2.9120879 2.1282029 4286085240
1.911456 0.49103788 1.5876539 4286085240
3.0296233 -2.9102888 1.9718258 4286085240
4.1539183 0.35121107 2.6732948 4286085200
3.1173728 -2.9006414 2.0076404 4286085240
1.9191989 0.55870521 1.6253095 4286085240
5.355545 -2.2258167 2.599041 4286085200
1.921145 0.60937965 1.6510403 4286085240
3.251359 -2.9114959 2.0660841 4286085240
4.2330232 0.13478142 2.6548605 4286085200
1.8611213 0.41512433 0.89612043 4286085240
4.5945811 -1.4328854 2.6686442 4286085200
4.6642761 -1.8300843 2.6861796 4286085200
1.8800611 0.46388179 1.5619156 4286085240
4.7229958 -2.5777304 2.7054298 4286085200
4.5741215 -1.005524 2.6920204 4286085200
4.2463608 0.22322002 2.684675 4286085200
1.9238646 0.77634215 1.7407837 4286085240
4.1936402 0.23383604 2.6611962 4286085200
4.1368093 0.29677281 2.6495388 4286085200
2.9185517 -3.0177591 0.25113982 4286085240
4.5725904 -1.0204533 2.6884272 4286085200
0.12369262 1.4295602 -0.038659126 4283445810
3.5411258 -2.9553869 0.10213816 4286085240
1.8815322 0.45789623 1.5599258 4286085240
3.9277573 -2.8843582 0.023432016 4283445810
4.0109563 -2.8869109 0.006237179 4283445810
5.0489712 -2.7983398 -0.16329461 4283445810
4.4663072 -0.60774124 2.6714067 4286085200
3.8959041 -2.9869711 0.035585225 4283445810
4.4634647 -2.7601941 -0.072782397 4283445810
4.4406385 -2.8438518 2.5888045 4286085200
3.9344261 -2.9670947 0.030283302 4283445810
3.9318848 -2.9455926 0.031496018 4283445810
5.0617557 -2.8689468 -0.15896869 4283445810
3.305239 -2.9033699 2.0868771 4286085240
4.5511136 -1.0766518 2.6711559 4286085200
2.1508353 0.068414241 -0.012758791 4283445810
3.8980494 -2.8912983 0.026958242 4283445810
4.6667576 -1.8654174 2.6838086 4286085200
2.7252071 -2.9843557 0.28576612 4286085240
3.9326401 -2.8687212 0.020113409 4283445810
2.7277112 -2.9491742 0.280458 4286085240
2.6974249 -2.9351153 0.28466916 4286085240
4.3498964 -2.8952556 -0.046351105 4283445810
4.3533845 -2.8676784 -0.049260914 4283445810
4.3463488 -2.8432486 -0.051505804 4283445810
3.1708255 -2.9515009 0.18214045 4286085240
3.4283257 -2.9933136 0.13104182 4286085240
4.4198771 -2.7919312 -0.062758803 4283445810
4.3181105 -0.013741295 2.6731431 4286085200
1.7624519 0.48227271 -0.033035249 4283445810
2.2868111 -0.087388247 -0.002549082 4283445810
2.2850249 -0.072756134 -0.0039317906 4283445810
4.4410696 -2.7855818 -0.068188846 4283445810
2.2680819 -0.057766661 -0.0042434335 4283445810
2.2551575 -0.050255466 -0.0035302043 4283445810
2.2373023 -0.042732365 -0.0018496513 4283445810
2.2482674 -0.03221523 -0.0066142082 4283445810
2.2287571 -0.021282973 -0.0054649115 4283445810
2.2046292 -0.0070177773 -0.0042458773 4283445810
4.61412 -2.792804 -0.095077872 4283445810
4.5143366 -0.77605969 2.6815138 4286085200
2.1987085 0.0069934153 -0.0083418936 4283445810
2.1683187 0.0068947342 -0.0022805035 4283445810
1.6276726 0.60548472 -0.035689667 4283445810
4.642797 -2.7499337 -0.099508226 4283445810
2.3689134 -2.8279808 1.7105458 4286085240
3.9244223 -2.9890506 0.033663213 4283445810
1.5251389 0.66033202 -0.03210187 4283445810
1.2689716 0.756145 -0.017595008 4283445810
4.3457589 -2.764503 -0.05148825 4283445810
1.8954425 0.54525095 1.6073732 4286085240
1.9233325 0.76901776 1.7365241 4286085240
4.2553344 -2.861728 -0.033519745 4283445810
1.9226028 1.0102609 1.8756318 4286085200
3.0039949 -2.9707139 0.22077234 4286085240
2.9719462 -2.9766784 0.23139299 4286085240
2.942863 -2.9663754 0.23591895 4286085240
4.1023297 -2.8741045 -0.007258594 4283445810
5.3196993 -2.7953174 -0.20627564 4283445810
2.9350142 -2.9773579 0.24224086 4286085240
4.2547441 -2.8810403 -0.030478269 4283445810
5.2759042 -2.8153074 -0.19852966 4283445810
2.5844758 -2.9223123 0.31174326 4286085240
4.2186842 -2.8762498 -0.02361539 4283445810
5.3683338 -2.8427143 -0.20845985 4283445810
2.8407247 -2.9749551 0.25791335 4286085240
4.7586865 -2.2445416 2.7219539 4286085200
5.2844353 -2.8415058 -0.20062023 4283445810
1.9165007 0.23889156 -0.010813832 4283445810
5.2243023 -2.8521948 -0.1863662 4283445810
2.5855587 -2.9708486 0.31817704 4286085240
1.906754 0.25001729 -0.011003633 4283445810
1.9822464 0.16425362 -0.0047597885 4283445810
1.2471284 0.76386219 -0.017226478 4283445810
4.6335011 -1.509999 2.6831608 4286085200
3.7480266 -2.9501131 0.061512679 4283445810
1.0545783 0.80743194 -0.0094538033 4283445810
1.1967192 0.77914363 -0.015886307 4283445810
1.0391852 0.80353731 -0.0057497919 4283445810
1.0025377 0.7983802 -0.00059387088 4283445810
0.98975343 0.80113918 -2.9802322e-07 4283445810
4.3802581 -2.8257792 -0.05325976 4283445810
4.3951054 -0.4279168 2.6555252 4286085200
0.80082989 0.80338383 0.014661983 4283445810
0.78717202 0.80742949 0.013843526 4283445810
