# .PCD v0.7 - Point Cloud Data file format
VERSION 0.7
FIELDS x y z rgb
SIZE 4 4 4 4
TYPE F F F U
COUNT 1 1 1 1
WIDTH 1096
HEIGHT 1
VIEWPOINT 0 0 0 1 0 0 0
POINTS 1096
DATA ascii
3.6970615 2.4703062 0.88354772 4286085240
4.727457 -2.6318753 2.5631282 4286085200
4.89185 -2.2353125 2.5551512 4286085200
4.0084076 -3.4314883 2.3025277 4286085240
5.6207299 -1.0931247 2.6016006 4286085200
5.4042702 -1.393801 2.6352625 4286085200
2.7358191 -4.503778 -0.034085959 4283445810
3.4760821 -3.8886266 2.2854598 4286085240
2.4827602 0.68495643 0.98674232 4286085240
5.3041615 -1.5308719 2.611376 4286085200
3.43981 -3.9226122 2.2904687 4286085240
4.747602 -2.564661 2.5621336 4286085200
5.3269496 -1.5557864 2.6227682 4286085200
5.287199 -1.5624114 2.6084361 4286085200
3.7742071 -3.6591446 2.2955046 4286085240
2.1658015 0.32126629 1.0099287 4286085240
2.4252243 0.065300114 1.1752975 4286085240
2.331424 0.58006954 0.97254133 4286085240
4.9206328 -2.4766836 0.31376177 4286085240
6.1171808 -0.48656234 2.5179853 4286085240
3.7407155 2.43993 0.89248121 4286085240
4.8593893 -2.2766752 2.550374 4286085200
2.2766626 0.4980042 0.98643029 4286085240
3.6896269 2.3561592 1.1707895 4286085240
5.5710087 -1.1294129 2.676053 4286085200
2.7881138 1.4846065 0.83815438 4286085240
5.7877302 -0.86073017 2.5216808 4286085200
2.4800565 0.70963389 0.97727394 4286085240
0.8406508 0.1653043 0.021855772 4283445810
2.470494 0.074349262 1.1872034 4286085240
2.6260891 -0.08757481 1.2893181 4286085240
3.6312401 -3.7513788 2.2827957 4286085240
2.5732694 -4.6428809 -0.082672238 4283445810
2.653882 0.90243405 0.9665069 4286085240
2.6235709 0.83686107 0.97900212 4286085240
5.4656019 -1.2807864 2.6481242 4286085200
5.9726367 -0.67603993 2.5267937 4286085240
2.0967448 0.35527536 0.97759181 4286085240
6.1372857 -0.46855858 2.5190616 4286085240
5.6422529 -1.0601723 2.527036 4286085200
3.1063316 1.7956281 0.85449111 4286085240
2.2819734 0.23630516 0.61963475 4286085240
4.823091 -2.4300649 2.5639708 4286085200
5.4698353 -1.3092887 2.6523504 4286085200
5.4362578 -1.3469609 2.6429796 4286085200
4.4902787 -3.009984 2.5372729 4286085200
5.2171755 -1.6140388 2.5878572 4286085200
5.197999 -1.689846 2.5896945 4286085200
5.1435833 -1.7903306 2.5819774 4286085200
3.209646 1.9099973 0.85445666 4286085240
3.7158651 2.4069812 0.88846415 4286085240
2.6973143 0.92674303 0.97134292 4286085240
4.8234859 -2.3729317 2.554049 4286085200
3.9355359 -3.3165641 0.11967584 4286085240
5.3755231 -1.4046031 2.6253405 4286085200
4.5808897 -2.8239541 2.5420368 4286085200
2.418102 0.12263226 1.1535138 4286085240
3.3619039 -4.0361109 2.3213756 4286085240
-0.91547453 4.0026083 0.023907691 4283445810
2.6297736 -0.066809326 1.2847414 4286085240
4.5473833 -2.8232644 2.5307109 4286085200
3.4118001 -3.9662499 2.3001928 4286085240
4.5259995 -2.8499615 2.5244167 4286085200
4.5373745 -2.8772817 2.5338969 4286085200
2.5365872 0.0361518 1.2199793 4286085240
2.2481751 0.2700808 1.0530477 4286085240
4.9504633 -2.1118157 2.5566213 4286085200
-1.0251511 4.06531 0.0055961013 4283445810
-1.0298115 4.0299191 0.0057287216 4283445810
-1.0395762 4.01508 0.0069464147 4283445810
4.9035745 -2.1844549 2.5511088 4286085200
3.4095528 -3.8428979 0.084617257 4286085240
3.4756048 -3.9130282 2.2918277 4286085240
2.5840237 -0.0082045197 1.2499232 4286085240
-1.1070305 3.8688936 0.010164768 4283445810
2.1843314 0.3310881 1.0133548 4286085240
3.1834097 1.8671836 0.85515153 4286085240
2.6448226 0.86677873 0.97710097 4286085240
3.7032077 2.3814175 1.1785052 4286085240
5.6976881 -0.95860755 2.5254085 4286085200
-1.3922111 3.6521637 -0.0081076324 4283445810
2.2613783 0.24806499 1.0634836 4286085240
-1.6142826 3.3443499 -0.018018529 4283445810
-1.8347336 2.600745 -0.031014591 4283445810
-1.6239545 3.2712629 -0.013454169 4283445810
-1.6294198 3.2563379 -0.012128264 4283445810
5.9423928 -0.73000568 2.5339913 4286085200
5.4302993 -1.3821422 2.6440821 4286085200
-1.0540533 4.0185041 0.0062361062 4283445810
5.2104235 -1.6664906 2.591532 4286085200
-1.1416667 3.851217 0.0078095496 4283445810
2.3835206 -4.8308802 -0.14036322 4283445810
-1.8135935 3.0476441 -0.036552191 4283445810
-1.8272845 2.572849 -0.029565036 4283445810
-1.6898381 3.125658 -0.015275002 4283445810
-1.4693584 3.4541321 -0.0024181306 4283445810
6.1224961 -0.50655073 2.5255978 4286085240
-1.6500255 3.1225705 -0.009829849 4283445810
-1.8010634 2.1319096 -0.026854843 4283445810
3.7776606 -3.6392975 2.2914913 4286085240
-1.6133069 3.1245911 -0.0024573505 4283445810
-1.9504869 1.9320427 -0.078011632 4283445810
5.8901834 -0.79012251 2.5313015 4286085240
-1.6958187 3.1847734 -0.019345671 4283445810
-1.6743898 3.1931183 -0.016209185 4283445810
-1.0731962 3.9883778 0.0055024624 4283445810
-1.8317369 2.182199 -0.036386132 4283445810
-1.6519006 3.1746349 -0.012893021 4283445810
-1.6310095 3.1835687 -0.0099030137 4283445810
-1.806543 2.17307 -0.029256746 4283445810
-1.2318727 3.6799576 0.013092935 4283445810
4.7814374 -2.5050242 2.5628684 4286085200
-1.3050303 3.7214596 0.00020509958 4283445810
5.8808465 -0.76038218 2.5189803 4286085240
1.0583698 -0.21222465 0.0025246143 4283445810
1.2845511 -0.58308637 -0.043368086 4283445810
2.7104831 -4.4942451 -0.036269903 4283445810
4.9275689 -2.1577523 2.5555186 4286085200
5.2032833 -1.5736082 2.5779352 4286085200
5.4359903 -1.3285912 2.6411421 4286085200
-1.006266 4.0443988 0.0081139207 4283445810
0.99658918 -0.11985971 0.015464425 4283445810
2.9717412 -4.2560887 0.020965844 4283445810
-0.9985103 4.068171 0.0092122853 4283445810
6.6166749 -0.69756961 0.74926424 4286085240
2.9894664 -4.2525735 0.024403483 4283445810
3.1470306 1.8058821 0.86209178 4286085240
-0.96080047 4.0816617 0.012029588 4283445810
2.8082066 -4.4300132 -0.015711188 4283445810
3.3131821 -4.0293717 2.312844 4286085240
2.2083318 0.29193005 1.0340476 4286085240
-1.0836787 3.8331397 0.014419138 4283445810
2.3699219 0.17292951 1.1222351 4286085240
5.7705989 -0.89566958 2.5276139 4286085200
4.7057896 -2.6590955 2.5609276 4286085200
4.1679802 -3.2272854 0.12838709 4286085240
4.9202051 -2.2671788 2.5705855 4286085200
3.7517767 -3.6605797 2.2901533 4286085240
2.2818949 0.52191389 0.97751915 4286085240
2.2435155 0.49203056 0.67140818 4286085240
-1.5554868 3.5469565 -0.019180059 4283445810
4.7934923 -2.4919765 2.5647058 4286085200
4.7972465 -2.4746137 2.5628684 4286085200
-0.9674086 4.0521541 0.011511147 4283445810
-0.94321746 4.0646372 0.017313361 4283445810
4.8307815 -2.4147403 2.5639708 4286085200
4.8577409 -2.3706584 2.5658083 4286085200
2.2181752 0.27893612 1.042387 4286085240
-1.6329867 3.3424459 -0.01879707 4283445810
3.3562856 -4.0034475 2.3065276 4286085240
2.3910172 0.15163743 1.1359326 4286085240
-1.5875938 3.3843744 -0.01808551 4283445810
-1.148013 3.9181185 0.0040425956 4283445810
5.3617353 -1.4739902 2.627178 4286085200
5.3853598 -1.4437666 2.6330576 4286085200
5.2032752 -1.6460108 2.5863874 4286085200
5.2342143 -1.637536 2.5970442 4286085200
3.9128251 -3.3402529 0.11979625 4286085240
2.5645082 0.76465064 0.98488504 4286085240
-1.2784616 3.7793286 -0.0017181933 4283445810
2.5880013 0.7895388 0.98454708 4286085240
-1.8801426 1.9222916 -0.059027553 4283445810
4.4634461 -2.9510922 2.5158443 4286085200
5.741919 -0.94731098 2.5304608 4286085200
-1.7803882 3.03543 -0.030200243 4283445810
5.9690146 -0.63727081 2.5188956 4286085240
-1.763288 3.0503845 -0.02801618 4283445810
-1.8065627 2.0059657 -0.03320092 4283445810
2.6810694 0.90221655 0.97592354 4286085240
-1.1408551 3.9398863 0.002071023 4283445810
2.6081312 -0.016561504 1.2597878 4286085240
-1.3297988 3.6616073 0.0024169981 4283445810
-1.7266169 3.169652 -0.025131583 4283445810
0.66938394 -0.068499327 0.023397243 4283445810
0.69327396 -0.055003829 0.020616651 4283445810
0.71951509 -0.039917249 0.016157478 4283445810
-1.7894125 2.1874661 -0.024840519 4283445810
5.4274449 -1.3630804 2.6411421 4286085200
-1.8143859 2.2541711 -0.030018002 4283445810
2.9962537 -4.2335234 0.029316247 4283445810
-0.90964586 4.0358868 0.024030685 4283445810
-1.8086919 2.2617235 -0.028110564 4283445810
2.6665425 1.3501775 0.83720607 4286085240
2.676975 1.3714706 0.83509076 4286085240
2.1629186 0.35944521 0.99816215 4286085240
4.8627324 -2.3540063 2.5647058 4286085200
2.1498959 0.37128916 0.98820889 4286085240
-1.7624372 2.3221295 -0.015117735 4283445810
-1.7648031 2.3406019 -0.015283763 4283445810
-1.4055547 3.6523736 -0.0086645782 4283445810
-1.4263477 3.6716719 -0.014582634 4283445810
2.6775568 -0.110576 1.3143909 4286085240
-1.7735804 2.8155634 -0.02075541 4283445810
5.0120087 -1.9891815 2.5606635 4286085200
-1.3600984 3.7083924 -0.006614536 4283445810
0.64315999 -0.093838938 0.016706675 4283445810
-1.2886354 3.7313757 -0.00022825599 4283445810
4.6006126 -2.775991 2.5436027 4286085200
1.3185759 -0.93031132 -0.040778682 4283445810
-1.7993937 2.9384325 -0.028666049 4283445810
-1.7952734 2.9738343 -0.0296956 4283445810
-1.8086182 2.9746075 -0.033416331 4283445810
-1.4177299 3.5008442 0.0036986172 4283445810
2.1918023 0.27985886 0.62288773 4286085240
2.6291752 0.84783167 0.97632855 4286085240
-1.8498187 2.0023942 -0.044211686 4283445810
0.7569654 -0.017982852 0.0097191632 4283445810
0.73161834 -0.033033587 0.01406303 4283445810
0.51509053 0.45263058 0.007350415 4283445810
0.92273414 0.35165092 -0.0073823929 4283445810
-1.7679497 3.0362155 -0.02672708 4283445810
3.9374781 -3.5253775 2.3055377 4286085240
0.85703349 0.069349751 -0.0025177747 4283445810
-1.3898261 3.7164612 -0.0085921586 4283445810
0.7593497 0.52124524 0.022887826 4283445810
0.74000376 0.54682654 0.023292094 4283445810
0.73583287 0.54015094 0.026526362 4283445810
-1.2853684 3.6468887 0.0055810213 4283445810
0.80789602 0.47199765 0.016419291 4283445810
0.74355817 0.58292431 0.012376487 4283445810
-1.5146657 3.3665452 -0.0038772821 4283445810
-1.5559566 3.4292529 -0.015521288 4283445810
0.8897838 0.2729201 0.012628078 4283445810
0.88324344 0.24060267 0.015251368 4283445810
0.8707009 0.25056472 0.02118066 4283445810
2.2636425 0.53284895 0.96829665 4286085240
2.8829215 1.5822848 0.83955258 4286085240
-1.4498501 3.515985 -0.0051655769 4283445810
0.8571502 0.35176882 0.020462126 4283445810
0.57402605 0.78133148 0.019117922 4283445810
0.088828102 1.7941036 -0.036944956 4283445810
0.061376449 1.8238142 -0.038391799 4283445810
0.069555603 1.8112236 -0.035976946 4283445810
-1.4647943 3.5205486 -0.0063023865 4283445810
-0.0050095725 1.8082778 -0.022329718 4283445810
-1.7476615 2.1996522 -0.012205601 4283445810
-1.5221161 3.5315084 -0.013004005 4283445810
0.10530961 1.7837698 -0.037422985 4283445810
0.081461243 1.7579875 -0.026034743 4283445810
0.096036479 1.769629 -0.03214097 4283445810
-0.067816839 1.8822732 -0.032708347 4283445810
2.4245148 0.10398214 0.60437238 4286085240
0.035789888 1.8453155 -0.037702471 4283445810
0.00072006299 1.8195761 -0.026637942 4283445810
-0.14206012 1.916011 -0.031840652 4283445810
-0.14520234 1.8777448 -0.022725403 4283445810
-0.17746982 1.9026678 -0.027803898 4283445810
-0.18128504 1.8792094 -0.020764261 4283445810
-0.19361453 1.8822384 -0.020241529 4283445810
0.64709502 0.65369934 0.023426851 4283445810
1.698422 -4.9676466 -0.31810516 4283445810
0.60569745 0.68920958 0.024424095 4283445810
0.60920846 0.67080975 0.02945742 4283445810
0.58744639 0.71014124 0.024305016 4283445810
0.70224619 0.58171672 0.02693066 4283445810
-1.5416269 3.4556763 -0.014732957 4283445810
0.64610338 0.66662669 0.019653559 4283445810
0.30259827 1.544006 -0.036220014 4283445810
0.45119518 1.529186 -0.086683452 4283445810
0.43249673 1.5279034 -0.080569744 4283445810
0.71820849 0.59111512 0.018845022 4283445810
0.70308346 0.57494229 0.028547794 4283445810
-1.5215718 3.43996 -0.009162873 4283445810
-0.49918807 1.9066957 -0.021449596 4283445810
5.4768863 -1.2102708 2.646287 4286085200
2.1766286 0.41150036 0.98230803 4286085240
-0.57358551 1.9159089 -0.024856299 4283445810
0.89235783 0.32912239 0.0083640162 4283445810
0.86617267 0.35868007 0.015610754 4283445810
-1.6446424 3.260911 -0.013454169 4283445810
-0.59313929 1.893603 -0.021307915 4283445810
-1.4494015 3.452683 0.0015415251 4283445810
4.6453395 -2.7628973 2.5560484 4286085200
5.0889783 -1.8899382 2.5749953 4286085200
0.74903876 -0.026706092 0.008860074 4283445810
0.55163342 0.78947127 0.028359003 4283445810
0.78499168 -0.011187719 -0.0018320084 4283445810
-1.2500255 2.3685665 -0.07833612 4283445810
-1.1731365 3.7390561 0.012039959 4283445810
0.91878438 0.30910298 -0.0024945736 4283445810
0.48365849 1.2209606 -0.031511903 4283445810
-1.677425 2.5277374 0.0072035491 4283445810
4.8249493 -2.4695387 2.5716879 4286085200
-0.97625673 4.0326309 0.013210267 4283445810
5.6228604 -1.1120772 2.6947947 4286085200
-1.0268589 2.3857172 -0.12520266 4283445810
0.11605095 1.7746294 -0.03812772 4283445810
0.10666993 1.7145267 -0.020772845 4283445810
-0.32520536 1.9243971 -0.024920493 4283445810
0.076050289 1.7618362 -0.024081975 4283445810
0.87287194 0.32788008 0.0165575 4283445810
-0.20603715 1.9425627 -0.034825146 4283445810
-1.06659 2.414607 -0.12790847 4283445810
-0.24319592 1.9659449 -0.038152128 4283445810
-1.4187769 3.5518336 -0.0016848147 4283445810
-0.30379277 1.967945 -0.035755455 4283445810
-1.7530782 2.2281289 -0.012906924 4283445810
5.0884905 -2.2104468 0.39169601 4286085240
0.52540433 0.85444057 0.029651612 4283445810
2.3772776 0.5994792 0.98167425 4286085240
-1.9526252 2.6622159 -0.012065798 4283445810
0.49862406 1.3193648 -0.059591413 4283445810
-1.1845682 3.8177786 0.0036616623 4283445810
0.80375069 0.013997703 0.0013860464 4283445810
2.5956616 0.80087 0.98238748 4286085240
0.50489706 1.2628835 -0.049132854 4283445810
3.429671 -3.7678354 0.095318913 4286085240
-1.5795028 2.5371068 -0.056871772 4283445810
-1.4179811 2.4204888 -0.05576998 4283445810
0.89597631 0.29669037 0.0089126229 4283445810
0.23689574 1.7041939 -0.052671909 4283445810
6.12428 -0.4480108 2.5088875 4286085240
0.20709985 1.6850392 -0.037839681 4283445810
0.16381237 1.7123568 -0.033393934 4283445810
-0.26375681 1.9085038 -0.022202075 4283445810
0.25462469 1.623855 -0.037912458 4283445810
-0.45289066 1.9008359 -0.019153178 4283445810
-1.8401586 1.8343397 -0.048725665 4283445810
0.62557232 -0.1049792 0.016856313 4283445810
2.4647033 0.67158264 0.98426509 4286085240
5.3606124 -1.4920025 2.6286478 4286085200
-1.7066431 3.0862892 -0.017453462 4283445810
2.3328216 0.19996028 1.102351 4286085240
3.1931574 1.8865175 0.85436654 4286085240
-1.7813745 1.9906387 -0.026247501 4283445810
0.37153971 1.4330107 -0.035985649 4283445810
0.83018452 0.44529739 0.013589333 4283445810
3.6040914 -3.7709529 2.2811234 4286085240
5.1730051 -1.846735 2.6003516 4286085200
4.5218592 -2.9691248 2.5387259 4286085200
-1.8579925 2.6907163 -0.043629378 4283445810
-0.059768882 1.9110308 -0.040479064 4283445810
-1.5948961 2.5528164 -0.055630326 4283445810
-1.7454567 2.61534 -0.045160562 4283445810
-0.076467805 1.8748317 -0.030198872 4283445810
0.048799701 1.7864443 -0.026516065 4283445810
-0.22530562 1.8950834 -0.021017611 4283445810
0.15565945 1.7128124 -0.032606333 4283445810
-0.40935454 1.9043493 -0.019303665 4283445810
-0.42386299 1.8845496 -0.014000744 4283445810
-1.3387142 3.7228594 -0.0042384267 4283445810
-0.45572311 1.8603933 -0.008723259 4283445810
-0.47939554 1.8795938 -0.014304966 4283445810
3.9687362 -3.4414372 2.2941666 4286085240
-1.3849691 3.668025 -0.0064361989 4283445810
3.9099264 -3.4784055 2.2871435 4286085240
4.6711893 -2.6985593 2.5520217 4286085200
2.3074837 0.52914613 0.68433177 4286085240
-2.2147684 2.7908015 -0.0026058853 4283445810
-2.2306159 2.7925665 -0.0011901259 4283445810
0.54816878 0.80882394 0.026833827 4283445810
-2.2630856 2.778677 0.011595011 4283445810
-1.5804063 2.5565643 -0.064378291 4283445810
-2.0013211 2.63994 0.0045241416 4283445810
0.92670327 0.25559595 -0.0046454072 4283445810
0.71509337 -0.044217419 0.015616377 4283445810
0.87672865 0.15567368 0.011239246 4283445810
-1.7315809 3.0175483 -0.019546479 4283445810
-1.1598806 3.8236134 0.0069393516 4283445810
-0.49851438 1.9290291 -0.026361465 4283445810
0.2442712 1.6076794 -0.030216068 4283445810
-0.59118026 1.9085114 -0.024412721 4283445810
-0.61139888 1.8888113 -0.021529675 4283445810
-0.62010503 1.8952069 -0.023525625 4283445810
-1.0139863 2.0615571 -0.029850811 4283445810
-0.61916858 1.8722671 -0.016912222 4283445810
0.73975646 0.53943521 0.025313497 4283445810
0.45008475 1.5077715 -0.081265807 4283445810
0.46775788 1.4032389 -0.065704584 4283445810
2.3094201 0.22007559 1.0865568 4286085240
0.87273753 0.069224641 -0.01038301 4283445810
2.1757548 0.34743154 1.0045537 4286085240
-1.7272482 3.054657 -0.020698696 4283445810
2.1884151 0.31401509 1.0192053 4286085240
-1.8770173 2.0578341 -0.04791373 4283445810
6.6923866 -0.64100099 0.75777686 4286085240
0.84868693 0.071370184 0.0030032024 4283445810
0.83080196 0.04651776 0.0028647881 4283445810
0.81249118 0.033462971 0.0061872154 4283445810
-1.1827761 3.8550971 0.003043592 4283445810
-1.8115032 1.9797043 -0.03255412 4283445810
0.85075074 0.40887067 0.012780786 4283445810
-1.5250906 2.502372 -0.058951288 4283445810
0.8519659 0.39174733 0.015509658 4283445810
-0.12921929 1.9064656 -0.032435894 4283445810
-2.3599026 2.7876849 0.023433954 4283445810
0.04162401 1.8448337 -0.039118171 4283445810
-1.7758931 2.6247954 -0.041454196 4283445810
0.023994917 1.8371382 -0.034082383 4283445810
-1.0439252 2.4043758 -0.12820894 4283445810
-1.4538687 3.5576575 -0.0067641139 4283445810
-1.867099 2.6676168 -0.033986032 4283445810
-0.19267122 1.9331801 -0.032278836 4283445810
-1.8539191 2.6667197 -0.035349429 4283445810
-0.16401169 1.9229057 -0.032346994 4283445810
-0.052071355 1.852621 -0.027564645 4283445810
-1.8491365 2.6242268 -0.022430778 4283445810
-0.29027578 1.9627336 -0.035683602 4283445810
-1.9643893 2.6605504 -0.007655412 4283445810
-1.2872291 2.4204636 -0.088167429 4283445810
0.56413847 0.78512138 0.023774683 4283445810
5.0897155 -1.8718462 2.5727904 4286085200
-1.254004 2.3944407 -0.087332487 4283445810
4.6499448 -2.7258136 2.5501914 4286085200
2.5876856 0.81189287 0.97609091 4286085240
0.79803079 0.0037900326 -0.001023829 4283445810
0.80459356 0.0089241099 -0.0014047772 4283445810
4.0909677 -3.3475318 2.3058722 4286085240
-1.2099147 3.7931201 0.005358547 4283445810
-2.0220997 2.6498792 0.0070904195 4283445810
-1.4317244 2.4617867 -0.067647785 4283445810
0.9275474 0.31368339 -0.0063973665 4283445810
0.93276215 0.3253465 -0.0089251995 4283445810
-1.4099426 2.4420919 -0.064991653 4283445810
0.51082855 1.2546134 -0.049550593 4283445810
0.50476974 1.2175996 -0.03889218 4283445810
0.90952808 -0.096083932 0.02069506 4283445810
5.719789 -1.0371851 2.5483088 4286085200
-1.3696939 2.3898218 -0.055693924 4283445810
-1.8026451 2.2251203 -0.027504861 4283445810
-1.6111019 2.4815242 -0.028720528 4283445810
-0.33545786 1.9475236 -0.029837921 4283445810
-1.5783225 2.4910462 -0.038810164 4283445810
-0.15177093 1.885029 -0.024595201 4283445810
0.55623376 0.77756315 0.028293103 4283445810
0.56655204 0.77120113 0.024021596 4283445810
0.57021993 0.74601555 0.026525378 4283445810
0.57358736 0.73344421 0.026947021 4283445810
-1.3856065 2.4354272 -0.068502635 4283445810
-1.2217798 2.350991 -0.079213977 4283445810
0.1887105 1.7144823 -0.041044265 4283445810
0.65273213 -0.075780347 0.026716486 4283445810
0.87609398 0.22234266 0.018816233 4283445810
0.8712936 0.20068185 0.019110262 4283445810
0.2195349 1.6561365 -0.034512818 4283445810
0.23085147 1.6230136 -0.031241298 4283445810
-0.46356601 1.9186766 -0.022119403 4283445810
-0.59598649 1.9458026 -0.032840073 4283445810
0.48745528 1.139959 -0.01426363 4283445810
-0.43698594 1.8735425 -0.012208626 4283445810
0.58613229 0.69796193 0.027132794 4283445810
-0.40917733 1.8465443 -0.006267339 4283445810
-1.2637343 3.6971779 0.0072109401 4283445810
5.381825 -1.4245204 2.6297503 4286085200
0.3397646 1.5990894 -0.061245561 4283445810
0.87010193 0.17732908 0.017788917 4283445810
0.8905865 0.16832213 0.0063002557 4283445810
0.88258868 0.12375481 0.0012308359 4283445810
-0.56206632 1.9216369 -0.028594166 4283445810
-0.70105094 1.9721377 -0.039282084 4283445810
0.72264701 0.58713216 0.018440723 4283445810
-0.52328759 1.8769588 -0.016314387 4283445810
0.47276673 1.5305212 -0.095920682 4283445810
0.46742687 1.5132689 -0.089991689 4283445810
-1.7447242 3.1316943 -0.02763024 4283445810
-0.73929644 1.9991373 -0.046179533 4283445810
0.59005362 -0.11445782 0.024585187 4283445810
0.6108011 -0.10051247 0.028175116 4283445810
0.32046032 1.5320787 -0.039036781 4283445810
-1.5824575 3.4014001 -0.016754448 4283445810
2.5674303 0.012196392 1.2359992 4286085240
0.90469873 0.16654667 -0.0013219118 4283445810
0.24739888 1.5457766 -0.016936481 4283445810
0.90062839 0.15990788 -0.0006031096 4283445810
0.41661954 1.5270114 -0.073572338 4283445810
0.42073867 1.5231022 -0.075390935 4283445810
0.30158654 1.5650823 -0.04096368 4283445810
-1.5701144 3.4315324 -0.016461194 4283445810
-0.60838902 1.9000242 -0.023747385 4283445810
-0.57003951 1.8823528 -0.017315984 4283445810
-0.42223743 1.8499429 -0.0061601996 4283445810
2.4346275 0.64685035 0.98264331 4286085240
0.2735123 1.5229533 -0.022048891 4283445810
0.42883301 1.487959 -0.069208026 4283445810
0.87606007 0.10872547 0.0013899108 4283445810
0.86049837 0.081980184 0.00099340081 4283445810
0.63227957 -0.089882597 0.025508404 4283445810
0.85862726 0.21213178 0.026833385 4283445810
0.21656094 1.6743788 -0.038039774 4283445810
-1.5894696 2.46526 -0.029391468 4283445810
6.4379749 -0.91803783 0.70705962 4286085240
0.50914544 0.95555538 0.016519904 4283445810
0.23739153 1.5964181 -0.025437772 4283445810
0.57697874 0.76992816 0.018766573 4283445810
0.028924732 1.7824194 -0.021735728 4283445810
0.87483174 0.36878929 0.010355075 4283445810
4.0492444 -3.2609153 0.12452236 4286085240
0.7942912 0.45900351 0.02450493 4283445810
-1.7303181 2.3100481 -0.0061615109 4283445810
6.0457006 -0.60665584 2.5338953 4286085240
0.17394431 1.6779624 -0.027918428 4283445810
2.2872028 0.53214461 0.68410373 4286085240
-1.9795859 2.7169704 -0.022740185 4283445810
5.3263078 -1.5006906 2.6165209 4286085200
-0.35327762 1.8570572 -0.0060425699 4283445810
-2.3545444 2.8173404 0.015587091 4283445810
0.78873116 0.006231667 0.0055265501 4283445810
0.78512353 0.026110554 0.018091887 4283445810
-1.5966045 3.3482609 -0.014634103 4283445810
0.85299033 0.08671204 0.0063771009 4283445810
3.7221627 2.4615743 0.88864553 4286085240
-1.4091728 3.577024 -0.0039279163 4283445810
2.7340744 1.3357607 0.85884631 4286085240
2.1588387 0.35174516 0.9985863 4286085240
0.78595799 0.46420148 0.026526362 4283445810
0.41955602 1.5002964 -0.06957978 4283445810
-0.38795602 1.8769966 -0.012111187 4283445810
-0.37049183 1.8983929 -0.016156971 4283445810
-1.1927266 2.3493557 -0.086870849 4283445810
3.1398141 1.8282732 0.8542037 4286085240
2.2766788 -4.805594 -0.15779257 4283445810
-0.51778734 1.9037495 -0.021896094 4283445810
-0.62091839 1.960505 -0.037719071 4283445810
0.89502335 0.22413285 0.0094125867 4283445810
-1.5610362 2.4380739 -0.02795434 4283445810
4.6714444 -2.7185264 2.5560484 4286085200
0.51459652 0.90280098 0.025829047 4283445810
2.5422621 -0.032288224 1.2453291 4286085240
0.91396588 0.19835621 -0.0015333593 4283445810
0.49768126 1.1793351 -0.026467919 4283445810
3.4846294 -3.873369 2.2834487 4286085240
4.8435459 -2.4596825 2.5764654 4286085200
0.86669761 0.40869212 0.0064470074 4283445810
-1.573069 3.40941 -0.01422888 4283445810
0.11889025 1.7337317 -0.027436376 4283445810
-1.5713555 2.4887562 -0.042541832 4283445810
-2.4046416 2.8043303 0.027399093 4283445810
-0.28152239 1.990559 -0.0418531 4283445810
3.6349912 -3.7791893 2.2908223 4286085240
0.60247332 0.70148933 0.021270663 4283445810
-2.1727707 2.7737718 -0.0033117831 4283445810
0.46016386 1.3951662 -0.061082214 4283445810
-0.36726809 1.835464 -0.0017720461 4283445810
3.3212476 -3.7216623 2.6256874 4286085200
-2.016643 2.6954355 -0.010230988 4283445810
-1.7497202 2.6038353 -0.039152205 4283445810
3.3339231 -3.6419554 2.621511 4286085200
3.3665845 -3.6543357 2.6399288 4286085200
0.47933948 1.42295 -0.074482739 4283445810
0.86039573 0.13875271 0.015642941 4283445810
4.7660575 -2.5162861 2.559561 4286085200
0.91826898 0.27847946 -0.0012021959 4283445810
-2.2417247 2.7883239 0.0039395988 4283445810
-1.705896 3.1793871 -0.019345671 4283445810
-0.27778798 1.9202845 -0.025401086 4283445810
-1.5424901 2.5129838 -0.059651822 4283445810
3.5018132 -3.0341179 2.6155345 4286085200
2.383749 0.60914665 0.97965628 4286085240
3.5522611 -2.9615865 2.6288836 4286085200
3.5380723 -2.9308181 2.618669 4286085200
3.2426944 -3.8489993 2.6131949 4286085200
3.2527118 -3.8055377 2.6130505 4286085200
0.49292463 1.1135253 -0.010581225 4283445810
-1.5109769 3.4753432 -0.0095029473 4283445810
0.58745366 0.73187792 0.020330608 4283445810
-0.29096022 1.9252254 -0.027000576 4283445810
-0.10258789 1.8629609 -0.023047596 4283445810
3.2945955 -3.66835 2.6048949 4286085200
0.83723766 0.37498781 0.02450493 4283445810
-1.3554491 2.4179146 -0.071931362 4283445810
4.0487666 -3.3778927 2.3011899 4286085240
0.76896495 -0.0094702328 0.0076144934 4283445810
0.82708699 0.43357503 0.017227858 4283445810
0.84582382 0.46061113 0.004290849 4283445810
3.6210308 -2.5536683 2.6164112 4286085200
3.5443742 -2.8704162 2.6178048 4286085200
3.6254036 -2.5055332 2.6129982 4286085200
3.6309156 -2.4503269 2.6103086 4286085200
0.77137953 -0.025659788 -0.0030590296 4283445810
-1.228369 2.3820722 -0.089366555 4283445810
3.5752394 -2.7664912 2.6219785 4286085200
3.7599797 -2.0475764 2.6332264 4286085200
0.8744536 0.10291065 -0.00027930737 4283445810
3.3664026 -3.5400066 2.6162283 4286085200
3.3877888 -3.5399833 2.6273406 4286085200
3.3688068 -3.4979091 2.6167903 4286085200
3.3934407 -3.4681294 2.6260993 4286085200
3.7416136 -2.1543033 2.6350875 4286085200
-1.3508904 2.3919954 -0.063084543 4283445810
3.2850728 -3.7763281 2.6240535 4286085200
3.7395067 -2.0827198 2.6285701 4286085200
3.7830331 -2.0756874 2.646389 4286085200
3.8307638 -1.3839922 2.6420221 4286085200
3.8305864 -1.3429331 2.6425254 4286085200
-1.7794006 3.0118489 -0.027477175 4283445810
3.5296235 -2.9617069 2.6163325 4286085200
0.48932016 1.379975 -0.069443822 4283445810
3.581847 -2.5773237 2.5990229 4286085200
3.4312546 -3.2500794 2.6107106 4286085200
3.3794427 -3.5990825 2.6349087 4286085200
3.7325828 -2.2768767 2.6377277 4286085200
3.7230573 -2.2549257 2.6320524 4286085200
3.7508972 -2.2555857 2.6485028 4286085200
-1.046338 3.9382274 0.014354169 4283445810
3.7322717 -2.2123263 2.6375299 4286085200
-1.3122476 3.6858764 0.00056219101 4283445810
3.4869742 -3.0895717 2.6144161 4286085200
3.5674129 -2.71556 2.6081848 4286085200
3.8242126 -1.0093002 2.6772451 4286085200
2.2441456 0.25696805 1.0561903 4286085240
3.3517363 -3.5923011 2.6197217 4286085200
3.8115671 -1.6138208 2.6247127 4286085200
3.8481486 -1.5863783 2.6492891 4286085200
3.6062472 -2.5603776 2.6081514 4286085200
3.259711 -3.8444288 2.6210415 4286085200
3.4579334 -3.2340543 2.6234243 4286085200
3.6564331 -0.67311537 2.6378019 4286085200
3.8251109 -1.8682561 2.6455235 4286085200
-0.5150311 1.9297273 -0.027477816 4283445810
3.4106634 -3.4309726 2.6263089 4286085200
-1.7765095 2.535219 -0.018399745 4283445810
3.7673962 -1.0455139 2.635617 4286085200
3.8506324 -1.4465575 2.6516502 4286085200
3.6581907 -2.4435406 2.6217971 4286085200
3.8019962 -1.4008778 2.6224446 4286085200
-0.16935073 1.8799748 -0.022212416 4283445810
0.21504234 1.7050565 -0.045002908 4283445810
3.8014503 -1.7827286 2.6274934 4286085200
3.7286711 -2.1233366 2.6256447 4286085200
3.8079543 -1.7710943 2.6321068 4286085200
3.8144193 -1.759433 2.636723 4286085200
0.1813717 1.6972014 -0.034729302 4283445810
-2.0160251 2.6768978 -0.0030152798 4283445810
3.3838141 -3.3717835 2.6031044 4286085200
3.3732431 -3.3400319 2.5939105 4286085200
3.66752 -2.391418 2.6155686 4286085200
3.6673763 -2.3665855 2.6171322 4286085200
-1.7868277 2.6230249 -0.03717348 4283445810
3.4993324 -3.0709774 2.617352 4286085200
3.6293106 -0.56761044 2.6477845 4286085200
3.5030665 -0.23325771 2.6671154 4286085240
3.476404 -3.0314257 2.601331 4286085200
3.6370931 -0.53937441 2.6594913 4286085200
3.6176343 -0.52478814 2.6503711 4286085200
-1.3528633 2.4495399 -0.083362401 4283445810
-2.3085289 2.8071303 0.011317477 4283445810
3.58621 -2.7568741 2.6276309 4286085200
3.636323 -2.3957729 2.6037331 4286085200
3.6756949 -2.3555028 2.6218264 4286085200
3.8072784 -1.348313 2.6315179 4286085200
2.3106289 0.24569494 2.0233994 4286085240
0.88429379 0.30844608 0.013454229 4283445810
3.7960362 -1.3038874 2.6297543 4286085200
3.8034279 -1.3199042 2.6324334 4286085200
3.8134298 -1.2963779 2.6374438 4286085200
0.56429881 -0.12437305 0.027862936 4283445810
3.4607983 -3.2573369 2.6273458 4286085200
3.8171759 -1.5033631 2.6295669 4286085200
3.6311018 -2.4925201 2.6116664 4286085200
3.8363497 -1.4689801 2.6405978 4286085200
3.386096 -3.3105583 2.5974462 4286085200
3.8098772 -1.735431 2.6313558 4286085200
0.52309328 0.90437019 0.020888805 4283445810
3.8856244 -3.5462012 2.2968421 4286085240
3.7086496 -0.82950473 2.6396725 4286085200
3.5420053 -0.29223675 2.6755316 4286085240
-0.47554669 1.9021784 -0.019105271 4283445810
2.6728132 1.3374337 0.84186196 4286085240
3.6731598 -2.3212008 2.6115067 4286085200
3.60829 -2.6663489 2.62677 4286085200
3.7028224 -2.2910209 2.6244712 4286085200
3.7939451 -1.9129174 2.6371865 4286085200
-1.2095406 3.710535 0.012236074 4283445810
2.3043671 0.23397501 2.0156848 4286085240
2.1604125 0.39367023 1.9557514 4286085240
0.63197607 0.67164296 0.022348782 4283445810
2.3943055 0.64730364 2.1617405 4286085240
-0.13775712 1.941309 -0.039410889 4283445810
3.8253789 -1.5628399 2.6332927 4286085200
3.3641055 -3.4709651 2.6110561 4286085200
2.1559272 0.39990067 1.953469 4286085240
3.7279871 -0.88354951 2.6380618 4286085200
3.7092636 -2.151341 2.6158793 4286085200
2.3342371 0.55250257 2.1020808 4286085240
2.5140805 0.04372881 2.1008823 4286085240
-1.8565733 1.9969803 -0.046474934 4283445810
0.49639282 1.2081916 -0.033533186 4283445810
2.3600256 0.22455643 2.0476379 4286085240
0.67692548 -0.073171206 0.015721321 4283445810
3.7858863 -1.1285235 2.6386595 4286085200
-1.7943739 1.979786 -0.028465718 4283445810
-2.0126281 2.7079012 -0.013857186 4283445810
0.49576205 1.1852497 -0.02814734 4283445810
2.2083616 0.32351035 1.9705918 4286085240
3.5836556 -0.44476971 2.653887 4286085200
3.4357905 -3.1728001 2.6009505 4286085200
2.4457703 0.088978902 2.0698798 4286085240
3.512574 -0.27861416 2.6563027 4286085240
3.8009841 -1.6951913 2.6245089 4286085200
3.8453515 -1.4306966 2.6500466 4286085200
2.6298466 -0.049972411 2.1479733 4286085240
3.8147049 -1.4468597 2.6295123 4286085200
3.4444613 -3.9028509 2.2817729 4286085240
3.4739852 -3.1877513 2.623095 4286085200
3.8074698 -1.8113503 2.6346874 4286085200
3.8014801 -1.5812374 2.6211951 4286085200
3.602741 -2.60971 2.6166677 4286085200
2.595228 -0.016433781 2.1345668 4286085240
0.2286175 1.6837142 -0.043853283 4283445810
0.67959833 -0.056084979 0.027179241 4283445810
2.3887475 0.17023087 2.0542457 4286085240
2.6031127 -0.028848376 2.1369619 4286085240
0.24189521 1.6628768 -0.044176728 4283445810
2.5794997 0.01631373 2.1384354 4286085240
2.3941941 0.15541902 2.0536652 4286085240
3.2826216 -3.7019069 2.6033595 4286085200
3.6710057 -0.64578843 2.6550665 4286085200
2.1985979 0.33629638 1.9677541 4286085240
2.4236693 0.14194591 2.0702984 4286085240
2.4062462 0.14856194 2.0615118 4286085240
3.3321545 -3.6866229 2.6310871 4286085200
3.7687905 -2.0369296 2.634599 4286085200
2.2467661 0.30739471 1.9927111 4286085240
3.0097132 -4.2239652 0.029316247 4283445810
3.7405715 -0.96193063 2.6362455 4286085200
-2.2757347 2.812345 0.0019847155 4283445810
3.4117942 -3.3568773 2.6162479 4286085200
3.6019948 -0.47602385 2.6560183 4286085200
2.2582209 0.33811188 2.0087004 4286085240
3.767164 -0.95606315 2.6501336 4286085200
2.1348155 0.37565106 0.98282784 4286085240
3.6201279 -0.51345193 2.6547348 4286085200
2.2637229 0.3170101 2.0051947 4286085240
3.8265574 -1.6920916 2.6361694 4286085200
3.816577 -1.6732537 2.6314383 4286085200
3.625556 -2.6437793 2.6313126 4286085200
0.80872679 0.4272199 0.025717795 4283445810
3.8199034 -1.2582327 2.6462252 4286085200
3.8033793 -1.2661527 2.6349456 4286085200
2.3622501 0.61465102 2.1342616 4286085240
3.7976305 -1.2776096 2.629945 4286085200
2.3282034 0.58226782 2.1056378 4286085240
3.7022851 -2.3069298 2.6242762 4286085200
3.693449 -2.3176908 2.6233773 4286085200
2.7098916 0.93434203 2.4313769 4286085200
2.6848972 0.91623515 2.4107678 4286085200
-1.7428044 3.0595136 -0.022227347 4283445810
2.1847229 0.42671871 1.9791417 4286085240
3.725692 -0.85192168 2.6463332 4286085200
2.1664078 0.40893513 1.9642901 4286085240
3.3971272 -3.4390621 2.6201205 4286085200
2.7611237 0.96178609 2.4714503 4286085200
-0.52458882 1.9049199 -0.022565901 4283445810
3.7767148 -1.9192517 2.6265614 4286085200
2.4071443 0.62733036 0.98172289 4286085240
-1.8173556 2.6497688 -0.037923396 4283445810
2.1870632 0.39138514 1.9711647 4286085240
2.17696 0.38247678 1.9631853 4286085240
-1.6323166 3.2111392 -0.010191262 4283445810
3.3328311 -3.6639874 2.6284077 4286085200
3.7907016 -1.0908645 2.6472554 4286085200
2.2285476 0.35531536 1.9928021 4286085240
3.8260834 -1.3686213 2.6408446 4286085200
5.1374907 -1.7335274 2.572423 4286085200
2.6706908 0.90196872 2.3981731 4286085200
2.185199 0.44117671 1.9814267 4286085240
2.3745656 0.62587917 2.1445663 4286085240
2.3752999 0.61003351 2.1422763 4286085240
3.777108 -1.9496439 2.6339264 4286085200
3.7753599 -1.9336278 2.6293232 4286085200
2.6864617 0.88840729 2.4056153 4286085200
-2.224153 2.8209224 -0.0089782774 4283445810
0.84214067 0.04136128 -0.0055333376 4283445810
-1.8125322 3.0240271 -0.033813149 4283445810
3.7732031 -1.9627827 2.631124 4286085200
3.8240616 -1.6048517 2.6330483 4286085200
2.3995171 0.20536511 2.0705912 4286085240
3.2038631 -3.9021456 2.6063561 4286085200
3.6085629 -0.4943397 2.6538291 4286085200
-1.6271832 3.303997 -0.017190814 4283445810
3.8750317 -1.4138696 2.6660604 4286085200
3.7643266 -0.9807567 2.6441674 4286085200
3.2783105 -3.7445459 2.6116078 4286085200
3.6785204 -0.71337074 2.6434805 4286085200
0.6136235 -0.095993452 0.029534668 4283445810
2.6120758 -0.13280435 1.3020508 4286085240
2.7077534 0.93992776 0.97175467 4286085240
-1.1781408 3.9285538 -0.001075387 4283445810
3.5077624 -0.33418649 2.6374612 4286085240
3.8047445 -1.9032775 2.6399524 4286085200
2.5508914 0.79021227 2.2945549 4286085200
-1.7172489 3.0595472 -0.017879933 4283445810
3.5595438 -2.9107947 2.6291668 4286085200
3.7459815 -0.87529689 2.651 4286085200
3.4465792 -3.2853606 2.6270502 4286085200
3.7676504 -1.9864972 2.6280613 4286085200
3.7738431 -2.0088871 2.6342187 4286085200
3.7580643 -2.015784 2.6287196 4286085200
3.7969527 -1.6289438 2.6207309 4286085200
3.7571979 -0.9282496 2.6486344 4286085200
2.4530957 0.12810756 2.0868886 4286085240
2.2939684 0.29908609 2.0215783 4286085240
2.2801914 0.28995997 2.0113759 4286085240
2.5142756 0.73551089 2.2590613 4286085240
2.4842947 0.71822041 2.23559 4286085240
3.7757099 -1.0221151 2.6445696 4286085200
2.3424571 0.23036131 2.0387354 4286085240
0.4995822 1.238202 -0.041518241 4283445810
3.650141 -0.59456885 2.6550345 4286085200
2.5584257 2.2377775e-07 2.1159854 4286085240
2.515588 0.027842442 2.0989523 4286085240
2.6374633 -0.066818431 2.1454978 4286085240
3.5796061 -2.7971501 2.6241727 4286085200
2.2754245 0.25286621 1.9999294 4286085240
3.4922378 -0.24364518 2.6569068 4286085240
-1.2040955 2.3532619 -0.084355474 4283445810
2.6471639 -0.083840758 2.146342 4286085240
3.1934872 -3.9915283 2.6195347 4286085200
2.4245229 0.67195404 2.1866431 4286085240
3.5360897 -0.25795761 2.681561 4286085240
3.7929373 -1.0720339 2.6495454 4286085200
3.8398936 -1.4842944 2.6453366 4286085200
2.2229404 0.46344626 2.0102732 4286085240
3.4757748 -3.1092355 2.6079004 4286085200
3.5242386 -0.30200657 2.6610675 4286085240
3.5383718 -2.9122248 2.6174543 4286085200
3.6512024 -2.540482 2.6291165 4286085200
3.742358 -2.1863997 2.6352625 4286085200
3.7940414 -1.1703072 2.6378231 4286085200
3.6728573 -0.68816906 2.6451476 4286085200
3.5601664 -2.8093059 2.616128 4286085200
-1.7864857 2.10112 -0.023639977 4283445810
3.5436056 -2.8420281 2.6111145 4286085200
3.4973962 -0.26626992 2.6536746 4286085240
2.2965417 0.52444023 2.0720587 4286085240
3.6303539 -0.60906422 2.638941 4286085200
2.5635691 0.7852639 2.3019972 4286085200
3.5796537 -0.32960227 2.6858764 4286085240
3.3967128 -3.2895436 2.6008058 4286085200
3.6801174 -2.3419356 2.6200316 4286085200
2.6301827 0.84678918 2.3592448 4286085200
2.3515263 0.58020592 2.1210947 4286085240
3.2640159 -3.7761974 2.6134 4286085200
3.6294501 -2.4745166 2.6101542 4286085200
3.3458352 -3.6088161 2.6187966 4286085200
2.4930685 0.73787314 2.245322 4286085240
0.54395139 0.84220147 0.023136824 4283445810
0.54363263 0.83301473 0.025002003 4283445810
2.1877854 0.36301875 1.9683149 4286085240
2.2097142 0.3451511 1.9762847 4286085240
2.5321517 0.036034092 2.1100087 4286085240
-1.2292788 3.7112117 0.0099952519 4283445810
3.7947223 -1.1050414 2.6476541 4286085200
3.8146951 -1.1174117 2.6563497 4286085200
2.4186087 0.67031634 2.1823497 4286085240
2.2480896 0.48726553 2.0334589 4286085240
3.8123133 -1.5434349 2.6229417 4286085200
3.7028499 -0.81590748 2.638561 4286085200
2.3668849 0.59990066 2.1348341 4286085240
2.497792 0.74786955 2.2504745 4286085240
3.5965269 -2.7108467 2.6223466 4286085200
3.8165011 -1.7166195 2.6324935 4286085200
3.6167572 -0.54806739 2.6442418 4286085200
2.2883067 0.27263451 2.0115609 4286085240
3.5131922 -3.0148826 2.6180201 4286085200
2.4765761 0.097942218 2.0934908 4286085240
2.4646835 0.11308777 2.088697 4286085240
-2.3604584 2.8063111 0.018960804 4283445810
2.4644785 0.70405471 2.2195606 4286085240
2.6553221 -0.075684249 2.1543627 4286085240
3.495156 -0.21051086 2.6687286 4286085240
-0.35109451 1.8779477 -0.01222831 4283445810
2.2537701 0.50344062 2.0397494 4286085240
2.2297125 0.4906694 2.0214503 4286085240
0.50480974 1.0887493 -0.0094041824 4283445810
3.8260884 -1.4928974 2.6360257 4286085200
2.5590329 0.79717082 2.3014247 4286085200
2.5760503 0.81141704 2.3157365 4286085200
2.2171075 0.4732151 2.0077028 4286085240
3.7934809 -1.5079223 2.6146226 4286085200
2.209079 0.30626562 1.0280411 4286085240
-1.5357131 2.5469432 -0.070921183 4283445810
-2.3485827 2.8283579 0.012205988 4283445810
3.7359617 -2.0652747 2.6226304 4286085200
3.7865281 -1.0121891 2.6529965 4286085200
2.2795298 0.26062226 2.0033228 4286085240
2.4431155 0.1120968 2.0741911 4286085240
2.276854 0.53132284 2.0597639 4286085240
-0.39229909 1.8979793 -0.017056018 4283445810
3.5573101 -0.35027578 2.6655111 4286085240
-0.55579787 1.8781164 -0.017044455 4283445810
3.6088114 -0.41312507 2.6785088 4286085200
3.7916892 -1.189344 2.6337347 4286085200
2.1551523 0.40037525 0.98010755 4286085240
3.2498407 -3.9074321 2.6299906 4286085200
2.4216547 0.65162116 0.97814786 4286085240
-1.7901869 2.3432446 -0.020249665 4283445810
6.0054893 -0.62188512 2.5257666 4286085240
3.5302854 -2.9909511 2.6233454 4286085200
3.8089576 -1.6555551 2.6280856 4286085200
0.90501225 0.32211512 0.0036249459 4283445810
3.7496052 -2.1117427 2.6341276 4286085200
2.6180036 0.83374071 2.3483679 4286085200
3.4685011 -3.122555 2.6051667 4286085200
0.79411191 0.49308896 0.016823569 4283445810
3.8144896 -1.1634009 2.6515746 4286085200
3.4666576 -3.1408243 2.6102359 4286085200
2.3370728 0.56880575 2.1066554 4286085240
3.1830478 -3.952759 2.6037855 4286085200
3.684315 -0.73267198 2.6393304 4286085200
3.7718015 -1.8718909 2.6173642 4286085200
2.5234673 0.05187453 2.1100137 4286085240
3.8549132 -1.5464938 2.6487124 4286085200
3.4242656 -3.2848465 2.6150315 4286085200
2.1718616 0.37097353 1.9583408 4286085240
-1.6042471 3.3918955 -0.019751698 4283445810
2.3971324 0.63994068 2.162313 4286085240
-1.7137327 3.1224198 -0.019126534 4283445810
3.759872 2.4694333 0.89232612 4286085240
3.6602612 -0.66184521 2.6426985 4286085200
-1.3354528 2.4000285 -0.071691692 4283445810
3.5605774 -2.6661141 2.5994987 4286085200
2.5268035 0.76527059 2.2733734 4286085240
2.2411976 0.2994163 1.9881718 4286085240
2.2492924 0.32224455 1.9984269 4286085240
2.813452 -4.3896008 0.019159049 4283445810
2.8366077 -4.3346562 0.01380232 4283445810
3.4920044 -0.22141802 2.6595922 4286085240
2.9380481 -4.2653685 -0.010122865 4283445810
2.9657159 -4.2765274 -0.012239665 4283445810
2.6342921 0.8711549 2.3672595 4286085200
3.5885704 -2.669384 2.615644 4286085200
3.1596568 -4.0570879 -0.042760879 4283445810
3.5297246 -3.6808002 -0.098093152 4286085240
3.5738504 -3.6451888 -0.10654461 4286085240
3.1843052 -3.90346 2.5922956 4286085200
0.7777946 0.48123947 0.025717795 4283445810
4.0677586 -2.9514723 -0.2154749 4283445810
3.3799436 -3.8400321 -0.079915881 4286085240
3.5597334 -2.836489 2.6198018 4286085200
0.90813565 0.21219759 0.0022877157 4283445810
3.806035 -3.4092124 -0.15465426 4286085240
0.17040259 1.696142 -0.031326056 4283445810
3.8049212 -3.3865919 -0.15283537 4286085240
3.6539755 -2.4240291 2.6146622 4286085200
2.9827366 -4.2151113 -0.016776413 4283445810
2.2209215 0.36130452 1.9882476 4286085240
3.7323446 -0.90958238 2.6361644 4286085200
2.7875524 -4.4413719 0.028948277 4283445810
3.6407626 -3.5751593 -0.11818528 4286085240
3.6661587 -3.5436044 -0.12568897 4286085240
3.4085345 -3.8234851 -0.084540367 4286085240
3.4392138 -3.8334246 -0.087338984 4286085240
3.7909288 -1.228768 2.6319892 4286085200
4.0658278 -3.2446427 -0.20161182 4283445810
3.6847572 -0.79358608 2.6293736 4286085200
3.4199786 -3.7878215 -0.082641363 4286085240
2.8863182 -4.3803287 0.0044925213 4283445810
4.0675182 -3.183306 -0.20519847 4283445810
2.8895054 -4.3551264 0.0020184219 4283445810
2.8932886 -4.331048 0.0034874529 4283445810
3.4691272 -3.7340317 -0.091868311 4286085240
2.4729252 0.058659136 2.0792208 4286085240
3.2795265 -3.9216619 -0.063734204 4283445810
4.0869703 -3.005049 -0.21757084 4283445810
3.3311861 -3.9075048 -0.069884986 4283445810
2.3052051 0.2857365 2.0254648 4286085240
3.0988545 -4.166049 -0.035298169 4283445810
3.0669353 -4.1504779 -0.028482527 4283445810
3.0422122 -4.1443772 -0.022768915 4283445810
3.90257 -3.2793198 -0.17307508 4283445810
3.5779383 -0.42107195 2.656271 4286085200
3.5563958 -0.3843253 2.6556935 4286085200
3.9017766 -3.2160029 -0.18001425 4283445810
3.8688197 -2.415427 -0.21991897 4283445810
3.3775547 -3.8129375 -0.077733815 4286085240
4.0261364 -3.2338614 -0.19703144 4283445810
3.8398359 -2.380491 -0.21731937 4283445810
3.1309168 -4.0998297 -0.040268451 4283445810
3.7665002 -3.4826839 -0.14500934 4286085240
3.7011385 -0.7665146 2.6432395 4286085200
3.1891007 -4.055069 -0.048274845 4283445810
3.7911737 -1.8368363 2.6265965 4286085200
3.8947983 -2.3301373 -0.23451191 4283445810
3.211087 -3.9913177 -0.048882097 4283445810
4.0910754 -3.1293566 -0.20744175 4283445810
3.5087092 -3.7172694 -0.099329174 4286085240
3.5012641 -3.6859634 -0.096445084 4286085240
1.9533472 -0.064879805 -0.084456801 4283445810
1.9740083 -0.05931817 -0.093087971 4283445810
1.9322881 -0.47676453 -0.017837405 4283445810
1.9361172 -0.033676311 -0.086073935 4283445810
-2.3684738 2.7799149 0.029147744 4283445810
2.5730729 -0.0081464369 2.1228166 4286085240
2.0789895 -0.56911784 -0.039407581 4283445810
1.6495644 0.30382609 -0.072621465 4283445810
2.9455531 -4.3053455 -0.0092540979 4283445810
2.9382746 -4.3239813 -0.0061668158 4283445810
2.9186399 -4.3244414 -0.0012494326 4283445810
3.7844539 -3.4551454 -0.14838362 4286085240
3.7639978 -3.4583542 -0.14692563 4286085240
2.1487904 -0.6843133 -0.032189459 4283445810
1.7607459 -0.15350015 -0.020763516 4283445810
1.6833516 0.29903534 -0.07947135 4283445810
1.6697541 0.30207917 -0.07706064 4283445810
4.1603374 -3.171922 -0.2215265 4283445810
0.94299984 0.52944267 0.0131993 4283445810
0.95069516 0.54171336 0.0073249638 4283445810
0.92146224 0.54063606 0.012592614 4283445810
0.91545653 0.54887289 0.010134906 4283445810
1.8002102 -0.17991035 -0.02698034 4283445810
0.87892723 0.53076363 0.024299353 4283445810
3.7847292 -3.4335146 -0.15073371 4286085240
3.730643 -3.4714739 -0.13329208 4286085240
0.84787118 0.54939663 0.022926919 4283445810
0.82598257 0.55396545 0.025953487 4283445810
0.82029867 0.56344897 0.023477584 4283445810
3.5620887 -0.31661433 2.6779892 4286085240
0.8108623 0.55319494 0.029902995 4283445810
0.83068323 0.5822683 0.013790116 4283445810
0.80306047 0.57246017 0.024040863 4283445810
0.80224442 0.58150685 0.020808309 4283445810
0.79044127 0.57677954 0.025019795 4283445810
0.7888934 0.5852747 0.021979401 4283445810
0.77584708 0.58711362 0.024691433 4283445810
0.77088529 0.6040799 0.018482 4283445810
0.88862437 0.54976422 0.014322651 4283445810
0.74105906 0.60642403 0.024190545 4283445810
0.87475622 0.55507183 0.015117124 4283445810
0.71175885 0.61713839 0.026066437 4283445810
0.84560835 0.56713498 0.016354531 4283445810
0.70149636 0.6340149 0.021554291 4283445810
0.68949687 0.63214642 0.024004288 4283445810
0.82581186 0.57497823 0.017591476 4283445810
0.67103523 0.63204658 0.02718173 4283445810
1.8069992 -0.21239334 -0.025120392 4283445810
1.8148135 -0.19296929 -0.029498547 4283445810
3.5678635 -0.36843291 2.6674831 4286085200
2.8409846 -4.3714542 0.015158832 4283445810
3.966311 -3.4614558 2.2981799 4286085240
3.4617822 -3.80983 -0.091088176 4286085240
1.8204399 -0.29024702 -0.017620474 4283445810
4.1830029 -2.8959646 -0.24327564 4283445810
3.7759132 -1.2041085 2.6219037 4286085200
1.8116266 -0.24494295 -0.021332741 4283445810
1.8005384 0.11422513 -0.073133349 4283445810
1.8626673 -0.32118881 -0.024361461 4283445810
1.8552804 -0.32595989 -0.021280497 4283445810
2.1656511 0.43010741 1.9665751 4286085240
3.8320031 -3.2825449 -0.15910679 4283445810
3.5923367 -3.6179864 -0.10982871 4286085240
1.984444 -0.4796595 -0.031038672 4283445810
1.9579439 -0.49296087 -0.021880046 4283445810
1.2046093 0.55826759 -0.052084431 4283445810
1.1858194 0.56101239 -0.050318927 4283445810
1.1797986 0.56274462 -0.048599839 4283445810
2.0270073 -0.56178445 -0.024690211 4283445810
1.156528 0.55614877 -0.040989012 4283445810
3.7549083 -3.538626 -0.14032358 4286085240
1.6897743 0.39223766 -0.10727203 4283445810
1.6895051 0.37808466 -0.10476041 4283445810
0.58808577 0.67098707 0.022774791 4283445810
0.45175046 0.6919834 0.026155125 4283445810
0.46459606 0.69093382 0.025884569 4283445810
0.74843091 0.59417278 0.027319223 4283445810
0.49014872 0.68700743 0.026367173 4283445810
1.7532201 0.20080519 -0.076747239 4283445810
1.7540908 0.18683553 -0.073627144 4283445810
0.50960755 0.68292618 0.02607049 4283445810
0.41324991 0.68737608 0.029447496 4283445810
3.702183 -3.5111094 -0.13003665 4286085240
0.27327138 0.69751036 0.01792872 4283445810
0.43003008 0.68903756 0.028632618 4283445810
1.8256824 0.10711575 -0.077745289 4283445810
3.0947015 -4.1331077 -0.032709718 4283445810
3.6713009 -3.52619 -0.12872738 4286085240
3.8773654 -3.2791159 -0.16682929 4283445810
3.2002821 -3.9485035 2.611623 4286085200
0.24675657 0.68452245 0.023182789 4283445810
0.2506749 0.6774289 0.028338566 4283445810
1.7882571 0.096393257 -0.064983398 4283445810
0.27108815 0.69190115 0.021095628 4283445810
3.2402828 -3.9211228 2.62728 4286085200
1.8651565 0.035454102 -0.076382339 4283445810
1.8768508 0.011890858 -0.076384723 4283445810
3.6503239 -3.5619464 -0.121885 4286085240
1.8892881 0.023940273 -0.079771042 4283445810
3.0186739 -4.1951637 -0.021172971 4283445810
1.9416939 -0.076788865 -0.079911411 4283445810
3.4738004 -3.7036796 -0.095827103 4286085240
3.2786415 -3.9970486 -0.061282694 4283445810
4.0780144 -3.1398547 -0.20695043 4283445810
3.6402042 -0.69398838 2.6229279 4286085200
1.7119046 0.34907141 -0.10085571 4283445810
3.7981281 -1.1452792 2.6439126 4286085200
3.459271 -3.1541326 2.6074905 4286085200
3.4700418 -3.7707288 -0.092703044 4286085240
4.0309238 -3.1752694 -0.20104843 4283445810
3.6214776 -2.5884762 2.6222897 4286085200
1.7734841 -0.19234176 -0.018169681 4283445810
1.8074018 -0.22693481 -0.022689879 4283445810
0.33293253 0.69024259 0.026667625 4283445810
0.34338731 0.6894536 0.027632087 4283445810
3.4527292 -3.7758102 -0.091891229 4286085240
0.29471958 -1.4027454 0.0016754866 4283445810
0.37327105 0.69092166 0.027389109 4283445810
