# .PCD v0.7 - Point Cloud Data file format
VERSION 0.7
FIELDS x y z rgb
SIZE 4 4 4 4
TYPE F F F U
COUNT 1 1 1 1
WIDTH 1104
HEIGHT 1
VIEWPOINT 0 0 0 1 0 0 0
POINTS 1104
DATA ascii
5.0411272 -1.3418416 2.4635439 4286085240
1.7223307 -1.0721 1.1047021 4286085240
5.1141033 -0.57020783 2.5828805 4286085200
4.6912012 0.47013324 2.6318045 4286085200
3.4414089 2.0510726 2.6577485 4286085200
0.35619333 0.80282074 0.02065146 4283445810
4.0681591 1.3278888 2.6239173 4286085200
4.7712951 0.34859475 2.6285105 4286085200
3.5372655 1.958967 2.6420321 4286085200
3.6493518 1.8505101 2.633873 4286085200
4.3749299 0.84254462 2.6030059 4286085200
3.653924 1.8382949 2.6270351 4286085200
3.7620063 1.7600044 2.6363323 4286085200
5.0679998 -0.2735976 2.6131506 4286085200
3.7758808 1.7446535 2.6354873 4286085200
1.45805 -1.1350424 1.0194243 4286085240
4.8361297 0.19946797 2.6184714 4286085200
3.8360996 1.6341329 2.620446 4286085200
4.8969488 0.13978861 2.6269314 4286085200
4.6086216 0.54319733 2.6145344 4286085200
5.0748587 -1.070014 2.504658 4286085240
5.0645151 -1.0930196 2.4910131 4286085240
4.5659242 0.68555838 2.6382275 4286085200
4.5478983 0.69760513 2.6392496 4286085200
5.0446987 -1.3043027 2.4680896 4286085240
1.3162097 -1.1075933 0.97002846 4286085240
5.0545669 -0.32114661 2.5947821 4286085200
1.2969636 -1.1055387 0.96428227 4286085240
4.6867862 0.49222544 2.6352122 4286085200
4.9501195 -1.9448291 2.3634524 4286085240
5.0899215 -0.42079955 2.5944474 4286085200
3.5718651 1.9633546 2.6557038 4286085200
4.7629051 0.3783631 2.6345916 4286085200
4.3793702 0.92288411 2.6299016 4286085200
3.6420827 1.8832756 2.6445217 4286085200
4.3433251 0.87938738 2.6040053 4286085200
5.0984788 -0.85713124 2.5373042 4286085240
4.8271518 0.24511483 2.6287773 4286085200
3.7219193 1.8137189 2.6416447 4286085200
4.4357142 0.7887848 2.6145613 4286085200
4.8812585 0.15483288 2.629108 4286085200
5.1103535 -0.95948482 2.5307944 4286085240
4.8647442 0.10799787 2.6076498 4286085200
5.0850172 -1.009118 2.5129867 4286085240
4.2163286 1.1002585 2.6135483 4286085200
4.8365803 -2.561059 2.310915 4286085240
5.0067706 -1.6615518 2.4167721 4286085240
4.9899392 -1.6735607 2.4121902 4286085240
4.0696831 1.385745 2.6423779 4286085200
0.32508305 0.8226307 0.02104038 4283445810
5.0266194 -1.4409767 2.4453166 4286085240
0.42710811 0.72331309 0.017101631 4283445810
5.0830965 -0.80487657 2.5368993 4286085200
5.0679393 -0.22524217 2.6213319 4286085200
4.8224878 0.2678777 2.6339226 4286085200
3.7460508 1.781583 2.6376383 4286085200
4.1268678 1.2178981 2.6109776 4286085200
4.2304111 1.1758758 2.6386559 4286085200
4.6072106 0.58751851 2.6294887 4286085200
4.7095141 0.50971574 2.6466556 4286085200
3.3332925 2.140141 2.6686285 4286085200
3.4403255 2.0801072 2.6695809 4286085200
5.1097603 -0.40612289 2.6069653 4286085200
3.3918076 2.087667 2.6567152 4286085200
5.0338955 -1.1198869 2.4814029 4286085240
0.73247415 -0.90410709 0.75577879 4286085240
4.9739714 -1.8457024 2.3817677 4286085240
4.1962137 1.1520491 2.6188836 4286085200
1.3638704 -1.1220739 0.98741537 4286085240
4.2871637 1.0897505 2.6381233 4286085200
0.96201468 -1.0686537 1.4587524 4286085200
3.7796116 1.6670192 2.6081843 4286085200
5.0632586 -0.35396731 2.5948195 4286085200
3.3792548 2.1245277 2.6737154 4286085200
4.8784928 -2.6031017 2.3304164 4286085240
3.4769001 2.0424547 2.6641994 4286085200
4.1297855 1.3770458 2.6660354 4286085200
4.8892975 -2.2604058 2.3275928 4286085240
3.9176857 1.5168791 2.6164389 4286085200
3.5734499 1.9494964 2.6528282 4286085200
4.9569135 -0.031452522 2.6119897 4286085200
1.5990216 -1.1079789 1.0637417 4286085240
0.47282153 0.4255926 0.014554495 4283445810
4.8787293 -2.504632 2.3242066 4286085240
5.0782695 -0.92014384 2.5197699 4286085240
3.2514215 2.2060106 2.6784446 4286085200
3.5052488 2.0441852 2.6741726 4286085200
4.1120968 1.3566742 2.6499214 4286085200
3.9903436 1.451174 2.6253595 4286085200
5.0486965 -0.24043736 2.6087313 4286085200
4.9113474 -2.1302857 2.346004 4286085240
5.0826173 -0.93759471 2.5227726 4286085240
5.0760698 -0.96973139 2.5133443 4286085240
3.9331908 1.4657936 2.6104493 4286085200
0.82801574 -0.91141003 0.78906876 4286085240
3.6935718 1.8435885 2.64327 4286085200
3.8638036 1.5883422 2.6204972 4286085200
4.8471994 0.12298718 2.6044261 4286085200
4.3886037 0.98312449 2.6534922 4286085200
4.3075809 1.0514197 2.634896 4286085200
3.4218018 2.0837526 2.6658421 4286085200
1.3321377 -1.1102158 0.97585195 4286085240
4.3506684 1.0327464 2.6492763 4286085200
3.3686817 2.1478081 2.6837683 4286085200
4.5703278 0.62705368 2.6233015 4286085200
3.2742312 2.2063575 2.6853502 4286085200
3.7870657 1.6918691 2.6211622 4286085200
4.2420053 1.1501684 2.6366332 4286085200
4.1282153 1.2325395 2.6179001 4286085200
4.6076689 0.60985351 2.6376188 4286085200
0.67641413 -0.89719617 0.7377786 4286085240
0.65135217 -0.90930259 0.73049653 4286085240
0.44993278 0.64878756 0.021397203 4283445810
0.61954695 -0.88734025 0.71842468 4286085240
4.6492057 0.56293356 2.6389983 4286085200
5.0016942 -1.5896969 2.4203975 4286085240
3.8734732 1.606694 2.6288562 4286085200
3.2472827 2.218272 2.684443 4286085200
3.2838099 2.1826587 2.6783581 4286085200
4.3008442 1.0642369 2.6374049 4286085200
3.2869837 2.1998277 2.6893182 4286085200
0.47981367 0.58842188 0.0093308985 4283445810
5.3276544 1.4840112 2.508045 4286085200
4.2538066 1.1316855 2.6357241 4286085200
5.0750051 -0.306281 2.6077228 4286085200
4.1600199 1.1990551 2.6160922 4286085200
5.0238147 -1.5442393 2.4371088 4286085240
5.0620627 -1.2277201 2.4835393 4286085240
1.4668325 -1.1307095 1.0207919 4286085240
5.1018286 -0.89101529 2.5363514 4286085240
3.7082951 1.8216534 2.6410456 4286085200
3.5925128 1.9157779 2.6451459 4286085200
3.60993 1.8957607 2.6403258 4286085200
0.48910779 -0.34304011 0.021009773 4283445810
1.035778 -0.99668568 0.86735857 4286085240
0.87470353 -0.87643886 0.47324064 4286085240
3.5183935 2.0072443 2.6621521 4286085200
3.4576735 2.0459354 2.6640663 4286085200
4.3408208 0.95797539 2.623491 4286085200
1.202631 -0.98552901 0.4508763 4286085240
5.1043549 -0.72544599 2.5591714 4286085200
1.3870819 -1.0562811 0.43802267 4286085240
1.4004411 -1.057718 0.43471265 4286085240
5.0836668 -0.38782373 2.5999317 4286085200
0.81280214 -0.90155745 0.48264843 4286085240
0.82903731 -0.89358437 0.48099482 4286085240
0.9554134 -0.90417403 0.46886432 4286085240
0.96922004 -0.91143161 0.46828651 4286085240
0.71247399 -0.90553689 0.74966323 4286085240
0.77766174 -0.89629441 0.48694131 4286085240
0.78797847 -0.87586498 0.48230699 4286085240
1.6346346 -1.1242642 0.41401827 4286085240
1.6969849 -1.0971643 0.39976716 4286085240
1.7666795 -1.0912616 0.38618389 4286085240
4.8198676 -2.5702879 0.23085777 4286085240
4.216085 1.2007487 2.639323 4286085200
4.8304048 -2.3633757 0.18849283 4286085240
3.5895627 1.9288486 2.65114 4286085200
3.5502295 1.9808826 2.6581101 4286085200
1.4365857 -1.0778803 0.43344474 4286085240
5.0563459 -1.3630868 2.4667909 4286085240
1.5905762 -1.1088861 0.41735584 4286085240
3.3375497 2.1879888 2.6934505 4286085200
4.4004307 0.79691333 2.598418 4286085200
4.9745374 -0.11049051 2.6065869 4286085200
4.0529909 1.3657352 2.6309385 4286085200
0.87032682 -0.90015405 0.47757167 4286085240
0.83248037 -0.87476313 0.47726864 4286085240
4.8096061 -2.7136424 0.258362 4286085240
4.8494325 -2.6256893 0.23742458 4286085240
1.3691496 -1.111926 0.98816663 4286085240
3.8872437 1.519284 2.6021271 4286085200
4.3545938 0.9320938 2.6231732 4286085200
1.093879 -0.94986945 0.45779216 4286085240
4.7443771 0.40718493 2.6360352 4286085200
1.4815242 -1.0861142 0.42929691 4286085240
4.9007645 -2.0704975 2.3410089 4286085240
4.1789899 1.2621452 2.651134 4286085200
0.71288162 -0.90523636 0.49371248 4286085240
5.0280528 -0.12764157 2.6255722 4286085200
0.73328304 -0.88690525 0.48964694 4286085240
4.8473125 -1.8152195 0.078030497 4286085240
0.86954671 -0.88799304 0.47530794 4286085240
0.98364949 -0.89604312 0.46318281 4286085240
1.7130922 -1.0960592 0.39645216 4286085240
4.8373156 -2.6589375 0.24571954 4286085240
4.8602195 -1.6463317 0.057322949 4286085240
0.67115712 -0.88930392 0.38724422 4286085240
1.5705452 -1.1105156 1.0544442 4286085240
0.91244924 -0.94448584 0.82023472 4286085240
1.522284 -1.1048979 0.42639223 4286085240
1.524272 -1.0953038 0.42496002 4286085240
4.9273248 -0.97325593 -0.023977488 4286085240
4.9421711 -0.92742991 -0.036181808 4286085240
4.9733777 -0.87626219 -0.042087466 4286085240
5.1120744 -0.58640665 2.5781617 4286085200
3.6725464 1.8185705 2.6272044 4286085200
5.0171947 -0.78588247 -0.060465723 4286085240
4.8722558 -1.5647492 0.042558849 4286085240
4.8917966 -1.5028552 0.030704468 4286085240
0.68754125 -0.89031798 0.49457631 4286085240
4.8028922 -2.7907469 0.27441356 4286085240
4.0053267 1.4064904 2.6228123 4286085200
0.97282636 -0.96936017 0.84268099 4286085240
4.4473076 0.87111753 2.6446218 4286085200
0.91011739 -0.88625419 0.47094494 4286085240
3.3918722 2.1174836 2.6735888 4286085200
4.8734388 -0.97867876 -0.019296378 4286085240
5.0666285 0.32077539 -0.23391241 4283445810
4.8942542 -1.692536 0.057891726 4286085240
5.0897202 -0.48564014 -0.10738081 4286085240
4.8696775 -2.0744255 0.12306982 4286085240
4.8645868 -2.3623843 2.3211319 4286085240
4.7687511 0.33321032 2.6268404 4286085200
5.07481 -0.30611622 -0.13197362 4286085240
4.9121556 -1.1331723 -0.0061737597 4286085240
4.4974799 0.78506452 2.6394191 4286085200
0.87018341 -0.91806322 0.8037672 4286085240
0.8435477 -0.90060216 0.48067525 4286085240
1.0424898 -0.98733646 0.86747336 4286085240
4.8763928 -1.4306924 0.025629014 4286085240
4.8302794 -2.7051499 0.25368011 4286085240
0.8162697 -0.86595905 0.47795692 4286085240
4.8557143 -1.4079185 0.02381283 4286085240
0.77280873 -0.87937212 0.48527622 4286085240
0.74780357 -0.87581182 0.4861472 4286085240
5.0531869 0.20779066 -0.21166462 4283445810
5.0275402 0.19081739 -0.20440692 4283445810
4.9114375 -1.4748671 0.025914758 4286085240
0.88104451 -0.88840902 0.4746542 4286085240
0.8556987 -0.89065903 0.47692624 4286085240
4.8683047 -1.4451013 0.029842496 4286085240
5.0879288 0.11261148 -0.19982678 4283445810
5.0801187 0.12850772 -0.20286554 4283445810
0.25409135 0.84935969 0.024228245 4283445810
5.0742412 0.1444121 -0.20614266 4283445810
4.9803643 -0.74778497 -0.060292304 4286085240
3.7308977 1.7889045 2.6361156 4286085200
3.6104066 1.8814296 2.6329145 4286085200
3.7177885 1.789874 2.6341062 4286085200
5.057723 -0.096237972 -0.16061431 4283445810
4.9414368 -0.85448796 -0.042676866 4286085240
4.9543276 -1.9102831 2.3695521 4286085240
4.8815074 -1.3818974 0.018479347 4286085240
1.557979 -1.1083328 0.4233993 4286085240
1.3872353 -1.0651188 0.44006351 4286085240
4.9289107 -1.0223776 -0.021106273 4286085240
5.0462012 -0.20813198 -0.14395869 4286085240
4.916235 -1.036019 -0.016358972 4286085240
1.2180002 -1.0045965 0.45240986 4286085240
3.4953446 2.0088124 2.6555927 4286085200
1.0578345 1.3800076 -0.10415894 4283445810
4.8409996 -1.5886487 0.05211243 4286085240
3.7524796 1.7700722 2.6381083 4286085200
0.93621194 1.3223518 -0.081365168 4283445810
5.1015401 -0.11325541 -0.16180253 4286085240
4.9542265 -0.94596487 -0.033697516 4286085240
1.6851364 -1.0970964 0.40145928 4286085240
1.6505225 -1.0970402 0.40566844 4286085240
1.6543484 -1.114787 0.41010275 4286085240
4.8495965 -2.240766 0.16132522 4286085240
1.4480141 -1.0792956 0.43346393 4286085240
4.868011 -1.8053906 0.076945007 4286085240
5.1034236 -0.25914365 -0.14278144 4286085240
5.0328717 -0.67426395 -0.076146841 4286085240
4.8389983 -1.847182 0.085773289 4286085240
1.2823423 1.3157109 -0.088444054 4283445810
3.5325053 1.9857078 2.6549718 4286085200
4.8254209 -2.742774 0.26174998 4286085240
4.8055515 -2.7719467 0.27035299 4286085240
3.5155556 1.9908764 2.6522963 4286085200
4.8572669 -2.3479507 0.17526799 4286085240
1.085088 1.3612877 -0.097485125 4283445810
0.48672223 -0.33563 0.025246516 4283445810
1.0634181 1.3559467 -0.093587697 4283445810
4.893146 -1.9393095 0.09641999 4286085240
4.8221893 -2.6721764 2.3105819 4286085240
4.9210105 -2.0240738 2.350528 4286085240
1.0092927 1.3562146 -0.094311595 4283445810
0.98982042 1.3522578 -0.092329144 4283445810
5.1192975 0.032368224 -0.1916073 4283445810
5.1131611 4.4659333e-07 -0.18488216 4283445810
0.4914183 1.0594922 0.0074502826 4283445810
0.46971041 1.0516074 0.0098017752 4283445810
4.935287 -0.83731818 -0.041832268 4286085240
0.45390764 1.0382078 0.014137715 4283445810
0.44958615 1.0509418 0.0079756379 4283445810
0.43079951 1.0113792 0.023665518 4283445810
0.66697234 -0.90440321 0.73473042 4286085240
4.8996801 -1.729279 0.060659111 4286085240
4.8731866 -1.7547594 0.069811404 4286085240
1.7068517 -1.1150913 0.40262592 4286085240
5.0218735 -0.57576609 -0.085599661 4286085240
4.8397427 -1.7774696 0.075431377 4286085240
5.0862765 -0.14519426 -0.15617061 4286085240
4.8537927 -1.7651826 0.074813902 4286085240
5.0389304 -0.65881747 -0.07654357 4286085240
1.1920679 1.3580744 -0.099431098 4283445810
0.75423074 -0.89188814 0.48829389 4286085240
1.2143884 1.3401643 -0.096103162 4283445810
0.56016135 1.1318046 -0.018148959 4283445810
4.8330479 -2.3079517 0.17299801 4286085240
0.77739578 -0.90174854 0.48804635 4286085240
1.1086929 1.3553774 -0.094724119 4283445810
5.1036263 0.096817739 -0.19775283 4283445810
4.865624 -1.5286506 0.039929748 4286085240
4.99757 -0.68567061 -0.068904966 4286085240
0.71395451 -0.88617897 0.49131951 4286085240
5.1269631 0.064835973 -0.20056015 4283445810
5.0142221 -0.73661798 -0.063392997 4286085240
1.0298542 1.3702267 -0.099448204 4283445810
5.0257807 -0.71391207 -0.072054505 4286085240
5.088861 -0.3880223 -0.11829203 4286085240
5.0535903 -0.7260384 -0.070991755 4286085240
4.8722348 -1.1565548 0.00059840083 4286085240
4.8701596 -1.5131249 0.036017448 4286085240
5.0797291 -0.37112856 -0.1211319 4286085240
5.123755 0.080996692 -0.200194 4283445810
1.0433959 1.3746203 -0.10232738 4283445810
1.0647782 1.3800086 -0.10399657 4283445810
4.8784823 -1.1091233 -0.0067367852 4286085240
1.0872394 1.3999463 -0.11006516 4283445810
1.1060801 1.3876393 -0.10695815 4283445810
1.2585058 1.3583447 -0.10328442 4283445810
4.8631506 -1.4771944 0.033427119 4286085240
1.1363695 1.380285 -0.10426039 4283445810
1.2754718 1.3507326 -0.10039389 4283445810
1.1500387 1.3834537 -0.10533807 4283445810
1.2951951 1.3608046 -0.10557505 4283445810
5.0386333 -0.64253485 -0.080242574 4286085240
1.0191019 -0.93426824 0.46553999 4286085240
1.182084 1.3904276 -0.10925627 4283445810
1.3206339 1.3765998 -0.11146855 4283445810
5.0653305 -0.6296227 -0.08274132 4286085240
4.8301587 -2.2132258 0.15870526 4286085240
4.9201274 0.039004184 2.6183903 4286085200
5.0807371 -0.61518437 -0.088066816 4286085240
4.8079982 -2.6627097 0.25073642 4286085240
4.8561072 -1.3580918 0.020985663 4286085240
4.9896655 -0.55604911 -0.086001694 4286085240
5.0213847 -0.52736551 -0.092840016 4286085240
4.8643804 -1.6994936 0.059755117 4286085240
4.4965906 0.57888639 -0.2195887 4283445810
5.0785046 0.30541119 -0.23533881 4283445810
1.4317188 -1.1292083 1.0101238 4286085240
4.8869042 -1.2918113 0.012178212 4286085240
5.0060673 -0.4616445 -0.098391354 4286085240
4.8708162 -1.6327223 0.052947342 4286085240
5.0410533 -0.49713203 -0.098477721 4286085240
4.8946238 -1.6234564 0.047526628 4286085240
0.88949591 1.3307674 -0.086693436 4283445810
0.88331121 1.3444235 -0.09131366 4283445810
0.9196021 1.3343549 -0.086942673 4283445810
0.45745325 1.0646063 0.0027120709 4283445810
0.47285041 1.0722867 0.00091046095 4283445810
4.8533239 -1.5756637 0.0476062 4286085240
5.0819654 0.04819908 -0.19104689 4283445810
0.036856942 0.90502203 0.025474697 4283445810
0.046727102 0.90183502 0.02918312 4283445810
3.5664926 1.9310513 2.6446807 4286085200
0.6592592 -0.89112663 0.49684203 4286085240
0.67770672 -0.89803827 0.49610472 4286085240
0.70697522 -0.87750566 0.49057359 4286085240
0.73037642 -0.87206513 0.4880836 4286085240
1.6102659 -1.1225898 0.41719475 4286085240
0.96410495 -0.95459378 0.83882958 4286085240
0.20052624 -0.88640118 0.02244857 4283445810
3.9232118 1.5047312 2.6127543 4286085200
0.83839792 -0.81520081 0.023580417 4283445810
0.85368937 -0.80166781 0.028518587 4283445810
0.14155351 -0.89031786 0.025722086 4283445810
0.17545566 0.94824225 0.027412444 4283445810
0.80108756 -0.87174493 0.48044026 4286085240
1.2859323 1.3277663 -0.09312135 4283445810
0.97259408 -0.83550239 0.005400171 4283445810
1.6059787 -1.0970702 0.41284043 4286085240
0.25238773 -0.86766022 0.024767319 4283445810
0.26024616 0.96438879 0.027314991 4283445810
0.97496974 -0.8995164 0.46511853 4286085240
0.32269779 0.98256564 0.026852906 4283445810
0.35977671 0.99377006 0.024530292 4283445810
1.7254038 -1.0924118 0.39239651 4286085240
0.36497366 0.98855239 0.027579337 4283445810
0.63378245 -0.90977591 0.72489738 4286085240
4.8759937 -2.1505837 0.14148369 4286085240
0.43230096 -0.83006322 0.023169652 4283445810
0.45908701 -0.82963705 0.025154248 4283445810
4.9277387 -0.81997067 -0.044726878 4286085240
3.781852 1.7401416 2.6373608 4286085200
4.9668822 -0.79414588 -0.051896751 4286085240
4.9950643 -0.76619619 -0.058062404 4286085240
1.2976652 1.2263318 -0.062015384 4283445810
4.8592758 -2.3584337 0.18327177 4286085240
1.0953666 -0.87666619 -0.018728673 4283445810
0.63278049 1.2057607 -0.044435695 4283445810
0.64673436 1.2090211 -0.044766843 4283445810
5.0573144 -0.19252856 -0.14908397 4286085240
5.0574408 -0.16042025 -0.14897031 4286085240
4.8615789 -2.3977642 0.19072193 4286085240
1.2762841 -0.92573404 -0.053028226 4283445810
0.64551747 1.1886152 -0.037185371 4283445810
1.3212293 -0.93620127 -0.060656905 4283445810
1.347204 -1.0514479 0.44310838 4286085240
4.9023166 -1.4045943 0.020289123 4286085240
4.8586822 -2.1062455 0.13107914 4286085240
0.033108767 -0.90696031 0.02299417 4283445810
0.075004652 -0.89745933 0.026131272 4283445810
0.036571633 -0.89801896 0.026949644 4283445810
5.0548897 0.17585398 -0.20778471 4283445810
1.2261599 1.3661251 -0.10476899 4283445810
1.2114655 1.389006 -0.11152959 4283445810
0.26267117 -0.86381412 0.025108293 4283445810
4.8712306 -2.0205579 0.11607757 4286085240
4.9381547 -0.89429402 -0.035258681 4286085240
4.5183272 0.61075032 -0.23041481 4283445810
5.0665317 -0.45102262 -0.10856521 4286085240
5.0145626 -0.19099922 2.6068275 4286085200
0.80772614 -0.82351321 0.02164337 4283445810
1.4005445 -0.90206689 -0.051151037 4283445810
4.9010143 -1.7472464 0.064154118 4286085240
5.0682783 -0.27347448 -0.13498855 4286085240
5.2853127 1.081079 2.4570434 4286085200
0.62812036 1.1832019 -0.034997046 4283445810
1.3648555 -1.0548308 0.44124892 4286085240
0.44427693 -0.85640693 0.010608464 4283445810
4.8814869 -1.2573131 0.013331503 4286085240
5.0615029 -0.25714567 2.6099894 4286085200
0.74696368 -0.82433051 0.026555875 4283445810
1.3017617 -0.9070425 -0.046104878 4283445810
0.26768589 -0.85127521 0.029813983 4283445810
-0.034635779 0.86734211 0.027052045 4283445810
0.56193274 -0.83217859 0.028770795 4283445810
0.65105039 -0.90376043 0.49930602 4286085240
3.5875831 1.8985626 2.6303179 4286085200
1.2560672 -0.91714412 -0.047777116 4283445810
5.270359 2.2082081 -0.068829626 4278779699
1.3969244 -0.91229028 -0.055585563 4283445810
1.5439236 -0.88084054 -0.05689761 4283445810
1.5334959 -0.88779396 -0.05829687 4283445810
0.86393791 1.3059218 -0.077440739 4283445810
4.8646617 -1.9101938 0.094750941 4286085240
1.6931689 -0.79919773 -0.050573975 4283445810
5.0697789 -0.22521009 -0.14277583 4286085240
5.0036368 -0.81630284 -0.055711478 4286085240
1.7124889 -0.79181999 -0.050797045 4283445810
4.4189577 0.57834852 -0.32413638 4283445810
0.66442037 1.2142532 -0.046897203 4283445810
0.02743705 -0.9252634 0.014878586 4283445810
0.019928955 -0.91679573 0.018765897 4283445810
1.2874947 1.2244487 -0.059624374 4283445810
0.34870318 -0.85073519 0.017674735 4283445810
4.3779793 0.6154424 -0.30067635 4283445810
0.22874963 -0.86396492 0.029200181 4283445810
0.21031703 -0.87179029 0.027819179 4283445810
4.3189325 0.62112772 -0.2877087 4283445810
0.99260384 -0.92162961 0.4668988 4286085240
1.5101243 -0.93260282 -0.073786974 4283445810
5.0174499 -0.59138411 -0.081419766 4286085240
1.4709435 -0.92130423 -0.065528452 4283445810
1.4328036 -0.9100796 -0.05742684 4283445810
1.390677 -0.92079872 -0.058662385 4283445810
1.4181006 -0.89446127 -0.050068378 4283445810
1.6857814 -1.108969 0.40445602 4286085240
5.0728073 -0.12871236 -0.15456837 4286085240
1.8107048 -0.69876134 -0.044430971 4283445810
0.77636379 1.2233536 -0.045699328 4283445810
0.75696295 1.2355253 -0.051884979 4283445810
4.8814373 -0.90001833 -0.030181468 4286085240
4.6755891 0.52104878 2.635855 4286085200
5.0323391 0.3505632 -0.23363364 4283445810
4.8602433 -2.6116471 0.23308724 4286085240
0.44106123 -0.86352187 0.0067283511 4283445810
0.40059683 -0.85657775 0.006806463 4283445810
1.5917031 -0.88161045 -0.062411994 4283445810
0.37527949 -0.82268566 0.024494529 4283445810
0.34655079 -0.83551019 0.024358124 4283445810
0.32490754 -0.83112109 0.029813975 4283445810
5.0754228 -0.080475844 -0.16659588 4283445810
1.4792864 -0.89110082 -0.055887789 4283445810
5.3218555 1.6274905 -0.19379932 4283445810
5.2844267 2.2536438 -0.062624246 4278779699
5.3018889 1.6582623 -0.18405098 4283445810
4.6566181 0.61445946 -0.25034052 4283445810
5.66292 5.4360971 0.011058867 4283445810
0.028708525 -0.91930145 0.017538309 4283445810
4.4164367 0.83602345 2.6222942 4286085200
0.010354291 -0.90394062 0.024596818 4283445810
0.013808407 -0.8959195 0.028177202 4283445810
0.14042319 -0.90157992 0.020811826 4283445810
1.1125474 1.373328 -0.10110351 4283445810
1.2551736 1.3720475 -0.10862899 4283445810
1.4545701 -0.90465909 -0.057625562 4283445810
1.570793 -0.86032021 -0.053201497 4283445810
5.5952702 5.0078025 0.023471504 4283445810
5.0084791 0.39666528 -0.24272031 4283445810
5.2883558 1.9538982 -0.11449194 4283445810
0.78667766 1.2526946 -0.057539582 4283445810
5.0937676 0.33866468 -0.24158996 4283445810
4.2328911 0.7050727 -0.23869735 4283445810
5.2123399 1.9635077 -0.099313796 4283445810
0.38431257 -0.828574 0.02040261 4283445810
0.32895207 -0.84445441 0.023573853 4283445810
0.48842001 -0.82778376 0.028289467 4283445810
4.8478522 -2.410136 0.19518439 4286085240
5.6671896 5.5097494 0.014245331 4283445810
5.0763159 -0.29005471 -0.13598424 4286085240
4.9156685 -1.1011962 -0.013645142 4286085240
4.3682151 0.90607649 2.6228437 4286085200
4.8936958 -1.9575025 0.10002041 4286085240
5.2015753 1.2273076 -0.27725428 4283445810
1.1862209 1.373165 -0.10391158 4283445810
1.1693616 1.3754277 -0.10344714 4283445810
4.0526562 1.3943037 2.6355143 4286085200
0.16426858 -0.89568514 0.021630213 4283445810
4.9364347 8.6311366e-07 2.6165078 4286085200
1.2130311 1.3666302 -0.10309201 4283445810
5.6030035 4.9510231 0.02520141 4283445810
5.6393199 5.3111901 0.010605305 4283445810
4.8354769 -1.3028551 0.016049981 4286085240
0.39008039 -0.84802169 0.011400491 4283445810
0.3678326 -0.85044396 0.014469407 4283445810
1.5282115 -0.90092075 -0.063989043 4283445810
0.30910471 -0.84904271 0.0247868 4283445810
5.3265352 1.6104513 -0.19806832 4283445810
5.2864828 2.224833 -0.066255391 4278779699
5.5584693 4.6059494 0.02807191 4283445810
4.8831172 -0.94844574 -0.023473173 4286085240
1.1663342 -1.0531281 0.91472626 4286085240
5.1093478 0.25056344 -0.22301579 4283445810
5.6501756 5.4584293 0.016766638 4283445810
-0.018720472 -0.89369702 0.028309762 4283445810
1.2738794 -0.91479778 -0.04783769 4283445810
5.2378597 2.1361897 -0.072552025 4278779699
0.79572958 -0.82161617 0.023112893 4283445810
0.63267708 -0.8307997 0.029364794 4283445810
5.6496611 5.1871643 0.014767885 4283445810
5.098557 -0.50305814 2.5873442 4286085200
1.6711546 -0.81480455 -0.053298116 4283445810
1.2302718 1.2307581 -0.056739181 4283445810
5.1913934 1.2597488 -0.2644366 4283445810
5.1701574 1.2025831 -0.27660435 4283445810
0.78853106 -0.88775736 0.48423985 4286085240
1.7122231 -0.77533948 -0.046299934 4283445810
0.64517301 1.1969887 -0.040840447 4283445810
1.7917954 -0.75069284 -0.052258551 4283445810
1.7691391 -0.78767109 -0.057576299 4283445810
3.6542454 1.8749032 2.644223 4286085200
1.6540669 -0.83251953 -0.05540951 4283445810
1.6339648 -0.84846908 -0.059167027 4283445810
4.6412282 0.5769062 2.6404536 4286085200
5.5584984 4.7874064 0.027195156 4283445810
4.9332604 -1.0723268 -0.014610142 4286085240
4.8757691 -1.1901052 0.0035092533 4286085240
4.8693991 -1.2131085 0.0074434578 4286085240
1.1709102 -0.97829932 0.45399886 4286085240
0.95021528 -0.88789934 0.46642596 4286085240
0.10592317 -0.88651025 0.029609375 4283445810
5.0602221 -1.4159251 2.4597771 4286085240
1.6662717 -1.0817447 1.0856152 4286085240
1.3308406 -0.92727202 -0.056732967 4283445810
0.72601002 -0.82711399 0.027040929 4283445810
5.5945797 4.8494983 0.023467034 4283445810
0.46207476 -0.82271004 0.028399959 4283445810
1.7898172 -0.72999835 -0.047219068 4283445810
5.0565224 0.26399928 -0.22031564 4283445810
1.4867926 -1.1008831 0.43212914 4286085240
4.8864741 -1.8919793 0.089834273 4286085240
0.66617227 -0.90646052 0.4982639 4286085240
0.49301872 -0.8420977 0.021157503 4283445810
0.47757044 -0.8409341 0.021030426 4283445810
0.079024523 -0.91085327 0.019993454 4283445810
4.8294725 -2.4585698 0.20328198 4286085240
0.37684998 -0.86195606 0.0081269741 4283445810
5.0377731 0.27100584 -0.22189367 4283445810
1.7050844 -0.75270319 -0.039264739 4283445810
3.9245811 1.4874365 2.610219 4286085200
4.2781439 0.5875662 -0.29050779 4283445810
4.848825 -1.9574122 0.10665667 4286085240
-0.14517573 -0.84813511 0.029760301 4283445810
5.026566 -0.39930803 -0.10780144 4286085240
0.44939601 0.6844219 0.014951587 4283445810
5.0368118 -0.43228328 -0.10918015 4286085240
1.6117041 -0.86952519 -0.061072081 4283445810
4.8227863 -2.631072 0.24237183 4286085240
0.29643685 -0.85233474 0.025312901 4283445810
5.3092403 1.5502009 -0.2114554 4283445810
1.3639511 -0.92182744 -0.057812184 4283445810
0.81145048 -0.80792844 0.029069215 4283445810
5.5516768 4.8743753 0.024344236 4283445810
5.5990682 5.2066059 0.016065329 4283445810
5.2239389 2.1111977 -0.074928403 4278779699
0.37648267 1.0002154 0.024686694 4283445810
0.093504846 -0.91039813 0.019584239 4283445810
4.9017472 -1.1471536 -0.0055703521 4286085240
4.4038606 0.5195924 -0.34138668 4283445810
4.8844194 -1.9898168 0.10792518 4286085240
4.4895167 0.76168805 2.6293919 4286085200
4.4338017 0.81021905 2.6197653 4286085200
4.8721557 -1.547694 0.039014608 4286085240
5.073832 -0.41925746 -0.11299807 4286085240
5.0079746 -0.17483743 2.6082847 4286085200
5.2482796 2.0920188 -0.087238759 4278779699
0.070565686 -0.93319517 0.010309328 4283445810
1.2228019 1.2117422 -0.049371928 4283445810
0.93582857 1.3671294 -0.098491073 4283445810
1.2369678 1.2453057 -0.062395602 4283445810
4.3969064 0.53292787 -0.33696038 4283445810
5.6380658 5.1436319 0.016822159 4283445810
0.96800184 -0.85578114 -0.0024498254 4283445810
0.98221242 -0.85735226 -0.0052602589 4283445810
5.2878933 1.5257695 -0.21256703 4283445810
0.12730104 -0.88912928 0.027195167 4283445810
5.0774174 -0.24168381 -0.13977379 4286085240
0.1873301 -0.88648593 0.023676157 4283445810
1.385113 -0.92659217 -0.061719134 4283445810
5.1210971 -0.47249109 2.6002166 4286085200
0.61577624 1.1869957 -0.038774908 4283445810
1.271577 1.3666679 -0.10657406 4283445810
4.4055343 0.59082079 -0.31514806 4283445810
0.66164798 1.1956867 -0.039659828 4283445810
1.4309067 -0.9152354 -0.06058538 4283445810
1.4759818 -0.90508419 -0.058570415 4283445810
4.900703 -2.2361553 0.15079924 4286085240
1.5011518 -0.91075248 -0.064013004 4283445810
1.7428503 -1.088029 0.38901246 4286085240
4.8553667 -2.1783719 0.15008128 4286085240
4.8711758 -2.1669357 0.14546537 4286085240
0.79120517 1.273273 -0.065995365 4283445810
1.5065545 -0.89459348 -0.058627605 4283445810
5.6400595 5.3457699 0.015269071 4283445810
1.5530882 -0.87201786 -0.054956991 4283445810
4.8365898 -2.5204108 0.2185965 4286085240
1.6377904 -0.85704035 -0.062639445 4283445810
0.80392164 1.3029073 -0.077850044 4283445810
5.0994864 -0.064683795 -0.16939735 4283445810
0.51883656 -0.84087324 0.021953464 4283445810
0.50427049 -0.83291298 0.02643162 4283445810
0.52426285 -0.8436873 0.021568537 4283445810
1.596563 -0.85485196 -0.055632979 4283445810
1.6073925 -0.84761745 -0.055793136 4283445810
4.8317375 -2.4404619 0.19938017 4286085240
-0.015526867 0.87184656 0.029669791 4283445810
0.60811657 -0.84188849 0.024237782 4283445810
1.6540712 -0.84567553 -0.059001267 4283445810
5.6121945 5.0874839 0.019903541 4283445810
5.1367269 0.016239051 -0.18971604 4283445810
0.67119724 -0.82763028 0.029609432 4283445810
0.6973787 -0.83090043 0.026191831 4283445810
1.2521145 1.2725694 -0.073778808 4283445810
5.617033 5.1901627 0.015957206 4283445810
5.2861748 1.5616926 -0.2006945 4283445810
4.8459406 -2.2671046 0.16710396 4286085240
1.8126273 -0.70939362 -0.046601683 4283445810
1.8254009 -0.69450992 -0.045034468 4283445810
4.8995848 -1.3368068 0.010201126 4286085240
4.1078868 1.2691534 2.6175768 4286085200
1.6493144 -0.81385517 -0.048845574 4283445810
0.8937695 -0.94895869 0.81410223 4286085240
0.045086935 -0.8976317 0.026949644 4283445810
0.61547577 1.1956489 -0.041421443 4283445810
4.4834023 0.55785722 -0.34521466 4283445810
4.3399663 1.0156798 2.642163 4286085200
4.8455219 -2.5642674 0.22592352 4286085240
5.2722573 1.966992 -0.10911781 4283445810
5.3238373 1.7023045 -0.17481428 4283445810
4.8727732 -2.0031114 0.11233303 4286085240
-0.04811538 -0.88801539 0.0291311 4283445810
1.1670223 -0.98135167 0.45515287 4286085240
1.4915051 -0.89204711 -0.057533741 4283445810
5.221952 2.0527678 -0.090185046 4286085240
0.52673453 -0.82804447 0.029404223 4283445810
5.2126675 2.0300393 -0.088615716 4286085240
4.8410654 -2.0441248 0.12123767 4286085240
5.0311866 -0.20761847 2.6097305 4286085200
4.864099 -2.035701 0.12018186 4286085240
1.1532782 1.3740559 -0.10156471 4283445810
3.3519046 2.1221919 2.6640201 4286085200
5.012146 -0.51033187 -0.091706991 4286085240
0.77024311 -0.81569159 0.028716676 4283445810
5.5588436 4.8495088 0.024947315 4283445810
4.8548493 -1.8356162 0.081062138 4286085240
5.1811428 1.274689 -0.25944132 4283445810
1.6345638 -0.86856097 -0.06483233 4283445810
4.8615417 -2.1258233 0.13865593 4286085240
1.6447058 -0.84745574 -0.060058922 4283445810
4.8837042 -1.0453483 -0.013704181 4286085240
5.0582538 -0.54745954 -0.096857071 4286085240
4.8592949 -2.493185 0.20990628 4286085240
5.2321401 1.9994642 -0.097949147 4286085240
5.2345042 2.0194318 -0.094489932 4286085240
3.1541572 -1.2341343 2.7563894 4286085200
3.197859 -1.1642441 2.725487 4286085200
3.5714781 -0.95115536 2.7691717 4286085200
1.7865658 -0.712255 -0.042489007 4283445810
-0.063930981 0.85439402 0.024256617 4283445810
4.9372625 -1.2883873 0.0082240701 4286085240
4.8402462 -2.1900523 0.15055403 4286085240
5.1024494 -0.016178861 -0.18160993 4283445810
0.062752724 -0.90616918 0.022653177 4283445810
5.1859779 1.1889242 -0.28240138 4283445810
4.3902845 0.56042761 -0.32592297 4283445810
5.6007409 5.2414088 0.014713824 4283445810
5.0784216 0.38605323 -0.2479707 4283445810
5.1043444 0.66873443 2.6163471 4286085200
5.2396522 0.92508411 2.5702081 4286085200
5.0013037 -0.1745162 -0.14260423 4286085240
3.2553947 -1.16184 2.7537379 4286085200
5.6148686 4.9933352 0.023201197 4283445810
5.5927014 5.0375667 0.022498399 4283445810
4.8541751 -2.5100346 0.21397825 4286085240
5.2060838 0.83410341 2.5932286 4286085200
5.033711 0.57830113 2.6279192 4286085200
3.3333097 -1.0658312 2.7323408 4286085200
3.3654506 -1.0350401 2.7233028 4286085200
0.5478785 -0.83388221 0.027763855 4283445810
5.4098082 1.6373819 2.5537705 4286085200
3.0604694 -1.253839 2.720402 4286085200
1.7886431 -0.76271188 -0.054811478 4283445810
4.2755747 -0.17652701 2.6612725 4286085200
4.0703249 -0.42791292 2.6914763 4286085200
3.1404979 -1.2173089 2.7396514 4286085200
4.0461497 -0.40590763 2.6708393 4286085200
5.2625966 0.98095065 2.5642395 4286085200
4.0966802 -0.35195288 2.6630206 4286085200
5.1789351 0.81288463 2.5902672 4286085200
3.352704 -1.0661694 2.7368388 4286085200
5.0819883 -0.032229181 -0.17521155 4283445810
4.1381679 -0.27624667 2.6454141 4286085200
5.1144228 2.0598004 2.5017138 4286085200
4.782187 0.28846416 2.6183255 4286085200
4.7486019 0.20381181 2.6808486 4286085200
3.6063461 -0.89332169 2.7496219 4286085200
5.343852 1.6545603 2.5319629 4286085200
4.771306 0.25037026 2.6702418 4286085200
5.3020434 1.9611125 2.5541222 4286085200
4.5181422 0 2.6723936 4286085200
3.4194987 -1.027948 2.747844 4286085200
4.8875341 -2.3353188 2.3289194 4286085240
4.9057469 0.38266003 2.6639268 4286085200
4.8568616 -1.6623808 0.05717808 4286085240
5.2037492 0.86768132 2.5803332 4286085200
3.3808281 -1.0280359 2.7276878 4286085200
4.8481951 2.5422626 2.4869409 4286085200
4.8335948 2.5738995 2.4876444 4286085200
5.2109799 2.0603006 2.5354803 4286085200
5.405118 1.6172332 2.5499012 4286085200
5.0644097 0.63079429 2.6159911 4286085200
4.4734039 0.51340604 -0.35683781 4283445810
4.2893467 -0.16345845 2.6639903 4286085200
3.5531585 -0.92216116 2.7414768 4286085200
1.5647423 -1.1056881 0.42044565 4286085240
5.1128154 0.68637514 2.6115613 4286085200
4.9257035 0.43149081 2.6473908 4286085200
3.6266379 -0.88614106 2.7528992 4286085200
3.6393135 -0.87089735 2.7464061 4286085200
4.8648558 -1.2365931 0.011209995 4286085240
4.4450336 -0.070552483 2.6876307 4286085200
5.1936445 0.89995438 2.5596392 4286085200
4.7486644 0.21893249 2.6722739 4286085200
0.78528839 -0.81598151 0.027134836 4283445810
3.1210907 -1.2326345 2.734875 4286085200
4.8003306 -2.7486854 0.26656979 4286085240
5.0373149 2.2555544 2.5038242 4286085200
4.2857637 -0.14629665 2.6492817 4286085200
5.4099951 1.7887478 2.5710053 4286085200
4.1781836 -0.23897833 2.6449256 4286085200
5.174067 0.87963802 2.5598273 4286085200
4.7154355 2.6570935 2.4637265 4286085200
5.0991716 2.148421 2.5091002 4286085200
4.5120749 7.8891622e-07 2.6823394 4286085200
1.6576862 -1.0836629 1.0819023 4286085240
0.088607758 -0.90492749 0.022243991 4283445810
4.8019571 0.26728073 2.6760261 4286085200
1.3047991 1.1720484 -0.044648618 4283445810
4.9449053 2.4641447 2.5059345 4286085200
4.5634322 3.030544 2.488348 4286085200
4.6546268 0.1257398 2.6789727 4286085200
4.8942995 2.4876521 2.4929204 4286085200
5.1604838 0.70947379 2.6234357 4286085200
5.0770459 2.2927382 2.5231695 4286085200
5.2641072 2.185972 -0.071984887 4278779699
4.6095805 0.065912366 2.6872356 4286085200
3.1470234 -1.1741024 2.7106416 4286085200
3.4975152 -0.99115938 2.7621129 4286085200
3.4619014 -0.99294925 2.7443583 4286085200
3.4294901 -0.99544382 2.7325401 4286085200
4.2671423 -0.18974695 2.6655171 4286085200
5.1198874 2.1763303 2.5203557 4286085200
3.0739148 -1.2366172 2.7170291 4286085200
5.1075716 -0.3487415 -0.12992927 4286085240
4.5757871 0.050887968 2.6793079 4286085200
5.0958099 0.65115416 2.621105 4286085200
3.2945559 -1.0765394 2.7178752 4286085200
4.9027543 2.4626169 2.4915135 4286085200
4.695478 0.14177468 2.6900349 4286085200
4.8495173 -1.3396829 0.018014669 4286085240
4.1255283 -0.30829906 2.6562338 4286085200
4.8410654 -2.2929571 0.16884083 4286085240
4.816083 0.29110128 2.6652489 4286085200
4.0732346 -0.38903642 2.6725245 4286085200
4.889904 0.36579666 2.6652527 4286085200
1.7521465 -0.78675222 -0.055143625 4283445810
0.68492186 -0.90759385 0.49680859 4286085240
4.1855011 -0.21274716 2.6316075 4286085200
3.2832794 -1.1017649 2.7275045 4286085200
4.5505219 2.9598565 2.4697058 4286085200
3.5819371 -0.94177437 2.7700746 4286085200
4.9061007 0.39837477 2.6555502 4286085200
4.3398466 -0.13090365 2.6643414 4286085200
3.2352669 -1.1895076 2.7588878 4286085200
4.754992 0.23436683 2.6666782 4286085200
5.6194501 5.360199 0.015535533 4283445810
4.7151098 2.6766841 2.4672437 4286085200
4.9796705 0.50805902 2.6333423 4286085200
5.2844777 1.9165292 2.5421631 4286085200
0.68772954 -0.90471971 0.74199843 4286085240
5.1846046 0.76321137 2.6130521 4286085200
5.3344769 1.8963923 2.5572877 4286085200
5.2870164 1.8984634 2.5407562 4286085200
4.1038637 -0.33945248 2.6622479 4286085200
4.6202083 2.9223011 2.484127 4286085200
4.9774504 2.3630097 2.5003068 4286085200
5.0206904 2.3058112 2.5059345 4286085200
4.6513882 0.081292942 2.6945641 4286085200
4.9870062 2.309557 2.4950306 4286085200
4.6857715 2.7794533 2.4770925 4286085200
4.8788228 0.33380526 2.6727805 4286085200
4.8528528 0.31654039 2.6694064 4286085200
4.5975223 0.03652047 2.6943057 4286085200
5.3466301 1.824513 2.5527151 4286085200
4.8888512 -0.99791187 -0.021006793 4286085240
3.0963869 -1.2342527 2.7232785 4286085200
0.92216986 1.3563552 -0.094582975 4283445810
4.8154464 -2.5288379 0.22334988 4286085240
4.5786939 2.9369447 2.4739268 4286085200
4.5170436 0.021528423 2.6632423 4286085200
4.6486011 2.7374756 2.4570434 4286085200
4.651618 2.7193844 2.4545815 4286085200
4.4711041 -0.028384896 2.6790993 4286085200
4.9904785 0.54122591 2.625824 4286085200
3.1671312 -1.2045627 2.7383127 4286085200
5.0688815 2.2119298 2.508045 4286085200
1.806354 -0.74341238 -0.052252531 4283445810
1.1924845 -0.98992074 0.4531872 4286085240
1.2456946 1.2112169 -0.051664218 4283445810
3.2242618 -1.1622802 2.7379565 4286085200
5.1111093 2.2110515 2.5224659 4286085200
5.0897174 2.1826258 2.5108588 4286085200
5.3710256 1.8138057 2.5601017 4286085200
4.9276905 0.44744638 2.639802 4286085200
4.7740946 2.6701951 2.4853582 4286085200
5.1211505 2.1004295 2.5098038 4286085200
4.767653 2.5582623 2.4630232 4286085200
5.290349 2.2660992 -0.059063047 4278779699
5.1288285 0.72173303 2.6062684 4286085200
5.3678827 1.793764 2.5565844 4286085200
4.7807989 2.6243114 2.4792027 4286085200
5.3183999 1.8716645 2.5484943 4286085200
1.3519789 -0.92309642 -0.057137519 4283445810
5.0187888 2.2281427 2.4932723 4286085200
0.050035603 -0.90967786 0.02142559 4283445810
5.1964746 0.79872823 2.6059568 4286085200
5.3549662 1.8463742 2.5583429 4286085200
5.3854012 1.761654 2.5590465 4286085200
4.9388757 0.47220528 2.6366775 4286085200
5.2516747 2.1612909 -0.070142567 4278779699
4.4696851 -0.049662676 2.6870866 4286085200
4.5276337 0.62658948 -0.2356416 4283445810
4.9121332 -1.1824921 -0.003246218 4286085240
3.3170769 -1.0955626 2.7436213 4286085200
3.3401461 -1.0797141 2.7432787 4286085200
4.9897265 0.52510935 2.633925 4286085200
5.2483072 1.9792408 2.5375907 4286085200
4.8366122 -2.4237058 0.19535774 4286085240
4.9155307 2.5181284 2.5052311 4286085200
4.5670085 3.0538738 2.4943273 4286085200
3.6561868 -0.88721323 2.7669191 4286085200
4.4744992 3.1065207 2.4767406 4286085200
4.2550731 -0.20274584 2.6636848 4286085200
5.109261 2.1145425 2.5076933 4286085200
5.5895967 4.7833714 0.026043832 4283445810
4.5434575 -0.014421574 2.706732 4286085200
5.0102983 0.55948764 2.6261065 4286085200
3.3955536 -1.0561079 2.7538669 4286085200
5.2743607 2.0082309 2.5506048 4286085200
4.5937972 2.8852015 2.4682992 4286085200
4.9404135 2.3840141 2.4911618 4286085200
3.5494859 -0.9573732 2.7646544 4286085200
4.4541512 -0.11312784 2.714247 4286085200
5.1697102 -0.049179517 -0.18165183 4283445810
4.1722436 -0.25192633 2.6504061 4286085200
1.80866 -0.73102307 -0.050036818 4283445810
5.3340445 1.8581443 2.5523634 4286085200
4.9587755 0.4900125 2.63253 4286085200
5.0011582 2.3937662 2.5133209 4286085200
5.2291389 1.9530567 2.5273902 4286085200
4.5302229 3.0816305 2.4886997 4286085200
0.070949212 -0.91426349 0.018765897 4283445810
4.5304489 3.102885 2.4932723 4286085200
4.618238 2.7992446 2.4591539 4286085200
5.0309687 0.61040235 2.6053119 4286085200
5.376873 1.721118 2.5513084 4286085200
0.23294163 -0.78883195 0.025706917 4283445810
3.2715554 -1.1442466 2.7523282 4286085200
5.198926 1.9984449 2.5228176 4286085200
5.3117638 1.9455442 2.5555291 4286085200
1.6865364 -0.80914497 -0.053195894 4283445810
5.1974516 2.0740714 2.5326664 4286085200
4.9162173 -1.0849593 -0.013381928 4286085240
5.1815648 2.1059999 2.5316112 4286085200
5.4027877 1.6540142 2.5530667 4286085200
5.1681657 2.15818 2.534425 4286085200
4.6204157 2.881489 2.476037 4286085200
0.21820104 -0.80940628 0.022723883 4283445810
4.7029705 0.15695895 2.6849849 4286085200
4.1223807 -0.28833765 2.6415174 4286085200
4.841301 2.519068 2.4806097 4286085200
0.58553958 -0.14520107 0.016310006 4283445810
4.732883 0.17301364 2.6861913 4286085200
4.5581908 3.006237 2.4816649 4286085200
1.5919728 -0.86865181 -0.057801604 4283445810
4.8825512 2.5208504 2.494679 4286085200
4.5112915 3.0478313 2.4756854 4286085200
4.486659 3.0938823 2.4777958 4286085200
0.03002486 -0.91048956 0.029834807 4283445810
5.1682887 1.2367847 -0.26911098 4283445810
0.34830126 -0.65222478 0.025675185 4283445810
0.34149763 -0.66467047 0.024916589 4283445810
0.14268699 -0.86633909 0.022420496 4283445810
0.15122604 -0.85055351 0.026658608 4283445810
5.4135504 1.7139143 2.5636189 4286085200
5.3273487 1.5922595 -0.20188522 4283445810
4.662734 0.096311718 2.6958017 4286085200
4.1039963 -0.32635036 2.657661 4286085200
0.21023463 0.70860291 0.012286782 4283445810
0.2224551 -0.80480117 0.022753209 4283445810
4.6101103 2.9364636 2.4837754 4286085200
0.30153176 -0.7261259 0.021569222 4283445810
0.28090069 -0.73511517 0.027313411 4283445810
4.7484021 0.18869017 2.6849234 4286085200
0.60410142 -0.10270254 0.0098063648 4283445810
0.15372021 0.7626732 0.024570307 4283445810
0.59338427 -0.11548772 0.015461706 4283445810
0.1338186 0.78303623 0.025412887 4283445810
0.10717744 0.80601072 0.026679337 4283445810
4.9976306 2.4312313 2.5182452 4286085200
0.58578461 -0.17122102 0.011502951 4283445810
4.5827069 2.9601126 2.4799063 4286085200
0.57498431 -0.17278841 0.01828938 4283445810
4.6139212 3.0219996 2.5024173 4286085200
4.6311116 2.7669604 2.4570434 4286085200
5.0487142 0.59628391 2.6213982 4286085200
4.6186972 2.8398123 2.4672437 4286085200
0.11344334 -0.86862898 0.029455118 4283445810
0.090395086 -0.89004278 0.027247719 4283445810
0.13016361 -0.87328374 0.023093522 4283445810
0.1072506 -0.8870793 0.023305811 4283445810
5.0832472 2.2374523 2.5168383 4286085200
5.1316347 0.73876327 2.5990908 4286085200
4.9940619 2.332124 2.5010102 4286085200
3.2372591 -1.1437972 2.7343671 4286085200
0.54580617 -0.21081614 0.028751805 4283445810
0.55148691 -0.19206207 0.029505864 4283445810
0.56475085 -0.18872333 0.02168262 4283445810
4.7718496 2.5997033 2.4718163 4286085200
4.1970272 -0.23337258 2.6505895 4286085200
0.033044677 0.84843987 0.029085815 4283445810
0.047832757 0.84697896 0.026663244 4283445810
4.8616123 2.5690253 2.4960861 4286085200
0.59936154 -0.035271686 0.018289387 4283445810
0.59938008 -0.015238676 0.018854916 4283445810
0.60468465 0.0040741647 0.015320323 4283445810
0.60097826 0.030268319 0.017346829 4283445810
0.58568293 0.055365354 0.026583919 4283445810
0.58840758 0.03021303 0.025964528 4283445810
0.25438011 0.58658415 0.019135326 4283445810
0.2566742 0.5767464 0.019523501 4283445810
3.4869692 -0.97025925 2.7441428 4286085200
0.26160881 0.57547832 0.014456972 4283445810
4.0746336 -0.36309201 2.6597548 4286085200
4.6541767 0.11093017 2.6829801 4286085200
0.23766153 0.62550867 0.021451473 4283445810
0.5718087 -0.19615838 0.015461698 4283445810
0.56757116 -0.16883761 0.023944765 4283445810
0.57725573 -0.14606816 0.02168262 4283445810
0.15486947 0.7789855 0.017420381 4283445810
4.8220134 -2.0722106 0.12970096 4286085240
0.084911473 0.82554173 0.02602008 4283445810
0.90965831 1.3470924 -0.091260791 4283445810
-0.028258191 0.86728162 0.028804109 4283445810
0.12634966 0.80062217 0.020727605 4283445810
0.30037126 -0.71054959 0.027760774 4283445810
0.60597718 -0.072359562 0.011502957 4283445810
4.8327866 2.6130228 2.4943273 4286085200
5.2009392 2.0372462 2.5287974 4286085200
5.2204757 2.0257905 2.5340734 4286085200
0.58807808 -0.012137664 0.026631065 4283445810
4.5929379 2.8441238 2.4598575 4286085200
0.18947095 -0.84247017 0.018630624 4283445810
0.23401922 0.61298209 0.027998373 4283445810
5.0526972 2.3010986 2.516135 4286085200
5.3145723 2.2964671 -0.05750069 4278779699
0.32247353 -0.71183866 0.016785368 4283445810
0.59875989 -0.054368831 0.017723858 4283445810
0.081603155 -0.90266913 0.021875799 4283445810
4.6436768 2.8348782 2.4742785 4286085200
3.5938597 -0.91447794 2.7531946 4286085200
4.1371255 -0.26298881 2.636229 4286085200
0.87397987 -0.91303188 0.69308341 4286085240
0.89701092 -0.92819339 0.70126551 4286085240
3.251816 -1.1257704 2.7281249 4286085200
3.2627835 -1.1122055 2.7263827 4286085200
0.58950722 0.012541535 0.025641363 4283445810
0.25364274 0.57323265 0.023099741 4283445810
0.16706032 -0.84934753 0.022503652 4283445810
0.17278068 -0.82971638 0.029241346 4283445810
0.59853929 -0.075515807 0.016310006 4283445810
1.0132371 -0.95306563 0.7346102 4286085240
1.5985587 -1.1215329 0.91051495 4286085240
0.83343256 -0.90170443 0.68214643 4286085240
0.8380233 -0.89234728 0.68285036 4286085240
0.85574508 -0.90832591 0.68876326 4286085240
0.84677476 -0.89594293 0.68561661 4286085240
0.010918447 -0.92587787 0.027483612 4283445810
4.6939502 2.7042565 2.4654851 4286085200
4.9636655 -1.935753 1.9776387 4286085240
0.67143476 -0.91160166 0.6372565 4286085240
0.70556319 -0.90268558 0.64655328 4286085240
0.70588255 -0.89138442 0.64581227 4286085240
4.7728152 -2.7505312 1.8709896 4286085240
4.7847691 -2.7372003 1.8764839 4286085240
0.59106219 -0.130101 0.01496686 4283445810
0.57792056 -0.10392901 0.027337968 4283445810
0.58637631 -0.088223144 0.023379236 4283445810
4.667522 2.7088196 2.457747 4286085200
4.812161 -2.5927753 1.8868022 4286085240
4.829123 -2.5624433 1.8959649 4286085240
4.8720913 0.34890091 2.6611195 4286085200
0.68094963 -0.9003222 0.63888174 4286085240
4.8548236 -2.4199626 1.9069414 4286085240
4.8757753 -2.3154094 1.9218771 4286085240
1.2780991 -1.0609665 0.81449759 4286085240
1.2614868 -1.0539662 0.80917728 4286085240
0.5962522 0.070438996 0.018289387 4283445810
0.23500279 0.63673019 0.019881308 4283445810
0.23177882 0.66926211 0.010882224 4283445810
1.5646951 -1.1201869 0.90039456 4286085240
1.5724927 -1.1144722 0.9027046 4286085240
3.0592017 -1.2419952 2.7127461 4286085200
4.7447739 2.7134941 2.4837754 4286085200
1.5277058 -1.1233521 0.88890791 4286085240
0.77053034 -0.89157784 0.6644578 4286085240
0.78860521 -0.87807679 0.66811544 4286085240
0.050981116 -0.92265534 0.019853964 4283445810
0.079157747 -0.90777898 0.020521879 4283445810
5.1225672 -0.72103572 2.1196098 4286085240
3.1625588 -1.1684755 2.7116504 4286085200
0.729541 -0.90340489 0.65255648 4286085240
0.73539877 -0.89119339 0.65421122 4286085240
1.0472169 -0.96945477 0.74460357 4286085240
5.0553951 -0.32103705 -0.12599975 4286085240
5.16747 -0.42797235 2.1721225 4286085240
4.8682795 -2.5436969 1.9074311 4286085240
4.8507714 -2.5542068 1.9045739 4286085240
0.24678722 0.58954048 0.025090551 4283445810
4.8728862 -2.5068047 1.9129837 4286085240
5.0447617 -1.5711666 2.0310154 4286085240
5.092824 -1.2460266 2.0715227 4286085240
5.0287571 -1.5311863 2.0272188 4286085240
4.7842536 -2.6966894 1.8756211 4286085240
4.786768 -2.6780961 1.8783026 4286085240
4.8176179 -2.6155052 1.8864603 4286085240
5.0485115 -1.3893447 2.0429554 4286085240
4.6239004 2.7826259 2.457747 4286085200
1.39027 -1.0955856 0.84904003 4286085240
0.62262392 -0.89048207 0.62395436 4286085240
5.1738119 -0.51139259 2.1590426 4286085240
5.2065716 -0.19037917 2.2139134 4286085240
1.0477738 -0.95768577 0.74483949 4286085240
5.1936021 -0.13207713 2.2199938 4286085240
0.24259001 0.62649333 0.016271591 4283445810
5.090241 -1.1940755 2.0713511 4286085240
3.4256968 -1.012054 2.7429185 4286085200
0.62121373 -0.042503078 0.0030198991 4283445810
5.1025434 -1.1287258 2.0793715 4286085240
5.1020732 -1.1116252 2.0824749 4286085240
5.0925322 -1.0587914 2.0804319 4286085240
1.1974673 -1.0332283 0.78971589 4286085240
5.0425363 -1.7122688 2.0213294 4286085240
4.8788595 -2.2132099 1.928468 4286085240
5.0111694 -1.8903347 1.9991751 4286085240
4.9980822 -1.8221509 1.9974988 4286085240
0.81595933 -0.91436327 0.67627263 4286085240
4.9085426 -2.0778782 1.9473624 4286085240
5.1665707 -0.31236091 2.1867402 4286085240
0.58089113 -0.13817911 0.020551562 4283445810
5.192822 0.057720911 2.2505145 4286085240
5.0001049 -1.7333843 2.0069628 4286085240
0.068565093 -0.92148638 0.017318934 4283445810
5.0863256 -1.4433298 2.0542083 4286085240
5.203383 0.10742482 2.2634647 4286085240
5.2110338 0.12413982 2.2707865 4286085240
0.25795057 0.54207867 0.027084202 4283445810
0.13204175 -0.85685253 0.02955766 4283445810
