# .PCD v0.7 - Point Cloud Data file format
VERSION 0.7
FIELDS x y z rgb
SIZE 4 4 4 4
TYPE F F F U
COUNT 1 1 1 1
WIDTH 1106
HEIGHT 1
VIEWPOINT 0 0 0 1 0 0 0
POINTS 1106
DATA ascii
0.99717158 1.3363004 -0.0710302 4283445810
3.0993133 -1.8092347 0.33499208 4286085240
1.0046489 1.355318 -0.078367949 4283445810
6.156116 -1.6074653 -0.041897178 4283445810
0.96353257 1.3810091 -0.088712752 4283445810
1.4939976 -1.6234621 0.51721478 4286085240
1.2769887 1.2913239 -0.067465097 4283445810
2.2085662 1.2339592 -0.13621461 4283445810
0.18640968 0.96215916 0.027459547 4283445810
3.3220179 -1.7586464 0.30162644 4286085240
0.63749057 1.2197229 -0.035929769 4283445810
0.69126976 1.2488886 -0.045329675 4283445810
3.3619015 1.0568935 -0.18860996 4283445810
0.39727002 1.0243311 0.027728587 4283445810
0.88092196 1.3065199 -0.059369147 4283445810
2.2639751 1.2389951 -0.14449382 4283445810
2.1497636 -1.8491682 0.47460079 4286085240
4.1687098 1.47472 2.5573721 4286085240
2.1924763 -1.8377193 0.46402016 4286085240
2.2031898 -1.8288116 0.46185338 4286085240
2.7841654 1.1363695 -0.15752292 4283445810
1.0079601 -0.79039621 -0.0041976124 4283445810
5.0190115 -1.784543 0.10060826 4278779699
4.0419903 -1.8430806 0.22707778 4286085240
2.6466784 -1.7623491 0.38974735 4286085240
1.0267067 1.3577247 -0.080084682 4283445810
2.2300951 1.2297127 -0.13688892 4283445810
3.1211364 -1.7953522 0.33191234 4286085240
0.55062431 1.1045039 0.0058435798 4283445810
1.0527254 1.3738278 -0.085754037 4283445810
1.3893853 1.2972347 -0.079720378 4283445810
1.428107 -0.79639721 -0.042267963 4283445810
0.89354098 1.3343974 -0.070092022 4283445810
4.1575313 1.1661328 -0.20897722 4283445810
2.4207964 1.1685128 -0.1359787 4283445810
3.4278247 -1.7867316 0.29204339 4286085240
3.4799454 -1.7787219 0.28151411 4286085240
4.8470206 1.10165 2.6820233 4286085240
1.6741487 -0.6309309 -0.024827778 4283445810
1.4094263 -0.79486239 -0.04003787 4283445810
0.30826247 1.008486 0.024040565 4283445810
0.95277524 -0.77196169 0.0075029433 4283445810
0.89285201 -0.77184933 0.012186974 4283445810
0.88532966 -0.75553298 0.019979239 4283445810
1.904724 -0.08510685 -0.0067138374 4283445810
2.2452793 -1.8098987 0.4510192 4286085240
1.300778 1.2945697 -0.069669366 4283445810
4.5410647 -1.8629586 2.0916991 4286085240
0.65816081 1.2117971 -0.030964196 4283445810
6.4147053 -1.5660517 -0.069928974 4283445810
1.4012438 -0.86561477 -0.069066465 4283445810
1.3624862 -0.8597914 -0.06357339 4283445810
1.3530977 -0.85385811 -0.058829382 4283445810
1.3204238 -0.84507239 -0.051594645 4283445810
1.3041629 -0.85533428 -0.055671617 4283445810
1.271292 -0.84540898 -0.048637956 4283445810
1.2906886 1.321938 -0.077600718 4283445810
3.384841 1.4302717 0.023818851 4286085240
2.2652524 -1.8081666 0.45112488 4286085240
1.6056833 -0.66735506 -0.02343744 4283445810
1.5664583 -0.67460686 -0.020344555 4283445810
1.5472839 -0.69282806 -0.021819592 4283445810
0.93131721 -0.79992539 -0.0035570562 4283445810
3.2861583 -1.7666179 0.30544469 4286085240
0.53800964 1.1423829 -0.0094041228 4283445810
1.0895936 1.3580252 -0.080837667 4283445810
1.7655723 -0.50593108 -0.01596874 4283445810
1.7482572 -0.53127611 -0.016648963 4283445810
1.744958 -0.50605214 -0.012643397 4283445810
0.49209785 1.0989751 0.0047678053 4283445810
4.6144781 -1.8941431 0.16762546 4286085240
1.0181975 1.3287953 -0.069553331 4283445810
1.5258604 -0.73652923 -0.031314105 4283445810
1.5119083 -0.73574972 -0.02918914 4283445810
1.5077407 -0.71595085 -0.023069963 4283445810
2.1294601 -1.8435645 0.47646269 4286085240
4.9264588 -1.5937511 0.089878529 4283445810
3.8855026 1.2800173 -0.11456692 4283445810
2.5285401 -1.8198889 1.3765862 4286085240
1.5497775 -0.72585458 -0.032193352 4283445810
3.2618151 -1.7804711 0.31164697 4286085240
2.7553596 1.5129362 0.14830405 4286085240
2.7226181 1.5063114 0.15116027 4286085240
2.7103264 1.5108531 0.15672442 4286085240
3.8031604 1.2663891 -0.097333133 4283445810
2.6688185 1.5101696 0.16389084 4286085240
3.1484885 -1.7977312 0.32845023 4286085240
2.6109793 1.5051309 0.16924393 4286085240
2.5854566 1.4959315 0.17386273 4286085240
2.5982001 1.5199894 0.17420718 4286085240
2.523912 -1.7334505 0.40063655 4286085240
0.83041501 1.3066852 -0.061913088 4283445810
0.80572736 1.3042954 -0.061639205 4283445810
0.79392141 1.3084075 -0.063378304 4283445810
1.7960842 1.2277488 -0.094745994 4283445810
1.4132134 -0.83000153 -0.054282207 4283445810
1.7020983 1.2119347 -0.080761254 4283445810
1.4146304 1.3123853 -0.084271252 4283445810
1.5010552 1.272736 -0.079966247 4283445810
1.4611921 1.2795429 -0.079657555 4283445810
3.0217083 1.5355309 0.10527045 4286085240
1.1106279 1.3442576 -0.077249438 4283445810
1.2794814 1.3188485 -0.076361418 4283445810
1.3981426 1.2642866 -0.069276333 4283445810
2.9799998 1.5323687 0.11156026 4286085240
1.2098488 1.3265595 -0.074658275 4283445810
2.0730724 -1.8108642 1.2044673 4278779699
1.1854724 1.3279135 -0.073786795 4283445810
1.1681445 1.3339791 -0.076235175 4283445810
3.3143518 1.4381199 0.039054573 4286085240
1.1329907 1.327625 -0.073373199 4283445810
1.1410823 1.3285389 -0.074369401 4283445810
1.1104097 1.3309481 -0.073509365 4283445810
1.0919571 1.3389686 -0.074769258 4283445810
5.9863257 -0.92416662 2.6953728 4286085200
1.089494 1.344682 -0.075610518 4283445810
6.2681699 -1.8187929 2.7236357 4286085200
1.5640185 -0.68541342 -0.02229315 4283445810
1.5435215 -0.7030105 -0.024811506 4283445810
2.8657825 1.5144359 0.13200682 4286085240
4.7226224 -1.4614558 0.093837917 4283445810
2.1689994 -1.8298621 0.46592396 4286085240
1.5243448 1.1565299 -0.047069997 4283445810
0.8716895 -0.77073252 0.01456596 4283445810
2.7902193 1.5031565 0.1410754 4286085240
2.7897279 1.5202149 0.14283201 4286085240
5.4500585 0.39218086 2.7210007 4286085200
3.2507045 -1.76096 0.30941519 4286085240
3.4299121 1.4299723 0.012023628 4286085240
0.77750492 -0.77626634 0.021979243 4283445810
1.2450991 1.3593916 -0.088659465 4283445810
3.0101368 1.5115242 0.10468915 4286085240
1.0764096 -0.80056673 -0.013851464 4283445810
3.2653742 1.4730692 0.053488612 4286085240
3.2764194 1.4591744 0.047462076 4286085240
1.6610358 -0.66255808 -0.031937301 4283445810
3.9467273 1.3563987 -0.10925078 4283445810
3.2386346 1.4797461 0.058519483 4286085240
1.6327958 -0.66947228 -0.027288973 4283445810
1.636287 -0.64363027 -0.022036269 4283445810
3.2187855 1.4831394 0.063002557 4286085240
3.190769 1.5075117 0.072771579 4286085240
1.5406728 -0.68988031 -0.019890785 4283445810
1.3419956 -0.86492437 -0.06314826 4283445810
0.90160298 -0.78951985 0.0036734939 4283445810
3.120085 1.5232428 0.086602956 4286085240
3.1029315 1.5271773 0.090634257 4286085240
1.2948427 -0.84039164 -0.048101127 4283445810
1.270946 -0.86580974 -0.05666095 4283445810
3.070394 1.5233816 0.093661696 4286085240
1.9819854 -0.094893314 -0.026097655 4283445810
3.0516925 1.5446326 0.10231403 4286085240
1.2350997 -0.82990456 -0.038387597 4283445810
0.66859406 1.2499541 -0.047074419 4283445810
1.5486716 1.2547712 -0.078344584 4283445810
1.6934873 1.2139616 -0.079336524 4283445810
1.6782637 1.2111707 -0.0776003 4283445810
1.61085 -0.65149128 -0.020265356 4283445810
3.5399985 1.4295572 -0.0097995996 4286085240
3.4639568 1.4117517 0.001996249 4286085240
3.4514558 1.4195464 0.0058826208 4286085240
1.2387246 1.3309675 -0.078557611 4283445810
2.3757608 1.6020718 0.20863031 4286085240
2.3494425 1.6118064 0.21208684 4286085240
2.4270358 1.5697534 0.20112206 4286085240
2.4000313 1.5851523 0.20557617 4286085240
1.5068015 -0.75116634 -0.034888189 4283445810
2.4066117 1.5784667 0.20321265 4286085240
3.1996129 -1.7798115 0.319015 4286085240
1.9840459 -1.8258275 0.49103278 4286085240
2.5153773 1.1456507 -0.1342724 4283445810
2.5167673 1.1269553 -0.13075691 4283445810
0.53218961 1.127703 -0.0044602603 4283445810
0.50738066 1.1234847 -0.0042764544 4283445810
1.4666152 -1.6091063 0.51857531 4286085240
0.49266523 1.109718 0.0001731813 4283445810
3.127562 -1.8123612 0.334304 4286085240
1.7635803 -0.523669 -0.01820603 4283445810
2.4523017 1.5529244 0.19679476 4286085240
2.4349272 1.5748553 0.19925947 4286085240
2.5458951 1.516839 0.18046007 4286085240
1.4490479 -1.6259574 0.52446383 4286085240
2.5293932 1.5290296 0.18226728 4286085240
2.1153069 -1.8491088 0.47850254 4286085240
2.5001678 1.5277774 0.18780835 4286085240
2.3517916 1.5968744 0.21258253 4286085240
2.1829059 1.2494944 -0.14002299 4283445810
3.8250971 1.2465701 -0.10868055 4283445810
2.4358249 1.1519086 -0.1297757 4283445810
2.4085164 1.1531283 -0.12796777 4283445810
1.9701142 -1.8305106 0.49293774 4286085240
2.2451389 1.2193973 -0.13666743 4283445810
2.2098598 1.1911248 -0.12478125 4283445810
1.751864 -0.54154438 -0.01971814 4283445810
1.7018764 -0.54398543 -0.009655416 4283445810
1.3911206 -1.6813577 0.53975058 4286085240
4.1588602 1.1521703 -0.21199584 4283445810
4.1506 1.1356004 -0.21353126 4283445810
3.9099412 1.4495169 -0.07957387 4286085240
3.1892815 1.1269994 -0.19054598 4283445810
1.8720078 1.219236 -0.099779725 4283445810
0.81266403 1.2969391 -0.05822362 4283445810
4.9956765 -1.7942309 0.10585278 4278779699
1.6775926 -0.58379978 -0.014321744 4283445810
0.31688911 1.0427723 0.0099627376 4283445810
1.9154518 1.2388484 -0.10910523 4283445810
1.4507291 -0.78493828 -0.039555222 4283445810
1.3879722 -1.7331696 0.54964525 4286085240
5.2657223 0.66760677 2.7179847 4286085200
4.0906792 -1.8338202 0.21660845 4286085240
4.2138071 -1.8487694 0.20565537 4286085240
2.0348401 1.2302673 -0.1194478 4283445810
0.36470687 1.0426562 0.01640062 4283445810
5.00596 -1.7082126 0.094775468 4283445810
2.1067293 1.2148279 -0.12310165 4283445810
2.087961 1.226295 -0.12170237 4283445810
4.1651096 -1.8432826 0.21143807 4286085240
2.0623057 1.2245322 -0.12130469 4283445810
0.37285015 1.0659337 0.0066752136 4283445810
1.9946216 1.2277817 -0.11594999 4283445810
1.4523911 -0.80388653 -0.048072159 4283445810
1.4253596 -0.81587505 -0.049811214 4283445810
4.9970765 -1.7408829 0.098708242 4278779699
3.2003548 1.0624754 -0.17526972 4283445810
1.5874954 -0.67468905 -0.023339838 4283445810
3.5399413 1.4163826 -0.0092274249 4286085240
0.89654237 -0.78005004 0.0082717538 4283445810
1.2942225 1.3171271 -0.077335775 4283445810
5.9020672 -0.8630113 2.6712496 4286085200
3.6197326 1.0780141 -0.10818994 4283445810
2.5174949 1.5494453 0.18793413 4286085240
1.2309871 1.3184319 -0.074517131 4283445810
2.8741081 1.530615 0.13063359 4286085240
3.8708951 1.3027116 -0.10411233 4283445810
1.504108 1.1525619 -0.044776604 4283445810
1.7410659 -1.7080292 0.50018716 4286085240
1.7341419 -1.7121366 0.50199938 4286085240
2.4837244 1.5396352 0.19070901 4286085240
1.2360979 -0.83631021 -0.041033864 4283445810
1.0211473 -0.8007254 -0.009314388 4283445810
1.3859446 1.3023207 -0.07997936 4283445810
2.8995094 1.5204154 0.12647408 4286085240
3.2335491 -1.7717481 0.31257012 4286085240
4.8984213 0.99876684 2.6672893 4286085200
1.1682069 1.3170047 -0.069691122 4283445810
2.448163 1.561296 0.19671467 4286085240
0.67302614 -0.80150461 0.017385095 4283445810
5.5603442 0.20424409 2.7228549 4286085200
0.4341661 1.0784481 0.0073670447 4283445810
0.44766158 1.0722767 0.011614054 4283445810
2.7704947 -1.7753665 0.37445474 4286085240
0.83289844 1.2968419 -0.059050262 4283445810
2.0246496 1.2373785 -0.12116683 4283445810
1.7241209 -0.5907613 -0.025149897 4283445810
1.7321311 -0.60897976 -0.030775905 4283445810
2.5149541 -1.7570004 0.40646249 4286085240
2.4961822 1.1465352 -0.13297969 4283445810
1.7725353 -0.48962331 -0.015029848 4283445810
1.7819196 -0.48610371 -0.015494823 4283445810
2.4857061 1.551891 0.19230439 4286085240
2.5598466 1.508562 0.17750934 4286085240
0.46764418 1.1101683 -0.0027066171 4283445810
2.3157928 1.1729861 -0.12698519 4283445810
2.1903164 1.2260627 -0.13077557 4283445810
0.95991874 1.366521 -0.08301574 4283445810
0.72758389 1.2617608 -0.048194796 4283445810
3.9098392 1.4140109 -0.089408398 4286085240
0.74276775 1.2786509 -0.054235011 4283445810
1.8001817 1.213774 -0.091908038 4283445810
3.8229525 1.4451499 -0.066249222 4286085240
3.8256958 1.4322191 -0.066008121 4286085240
1.4089174 -0.81095183 -0.046293646 4283445810
2.9255948 -1.7966641 0.35755682 4286085240
3.85729 1.2298234 -0.1215831 4283445810
1.3897874 -1.6527139 0.53611112 4286085240
1.4936513 -0.73276669 -0.025723457 4283445810
1.5210838 -0.69865763 -0.018854409 4283445810
3.2332246 1.5023476 0.063574374 4286085240
0.2838909 1.0151163 0.017242551 4283445810
0.31104448 1.0295662 0.014519289 4283445810
0.33162987 1.0151479 0.024044499 4283445810
1.3406763 -0.82230294 -0.045241237 4283445810
3.9599283 -1.8593869 0.23689298 4286085240
1.3904539 -0.82261115 -0.048720717 4283445810
4.9948225 -1.6866263 0.087761253 4283445810
4.6711888 -1.9000168 0.16086721 4286085240
5.9585352 -0.89069742 2.6937604 4286085200
6.5104203 -1.5674101 -0.082162678 4283445810
1.8431622 1.2342206 -0.10142529 4283445810
3.8727269 1.2143004 -0.12929985 4283445810
1.4723349 -0.76653188 -0.035655528 4283445810
1.4709706 -0.75393498 -0.030959278 4283445810
0.46427199 1.0875925 0.006766811 4283445810
0.67494392 1.233303 -0.038762689 4283445810
3.5810764 1.419571 -0.016760796 4286085240
2.0538449 1.2283856 -0.1220209 4283445810
3.0543323 -1.8092241 0.34419468 4286085240
2.3895721 1.5947454 0.20694727 4286085240
2.2301443 -1.8094746 0.45533833 4286085240
3.3518662 1.4353187 0.031198665 4286085240
3.9065263 1.3286277 -0.10639328 4283445810
2.945914 1.5208029 0.11750966 4286085240
1.3627222 -0.84783417 -0.056307107 4283445810
-0.12933987 0.8124724 0.02952151 4283445810
0.85353261 1.310509 -0.063607335 4283445810
1.7479949 -0.54952371 -0.020885736 4283445810
1.4329629 -0.77531344 -0.033803344 4283445810
0.51310062 1.1170985 -0.0020043254 4283445810
3.2025318 1.500559 0.069252729 4286085240
1.8550251 1.2593766 -0.10896993 4283445810
2.4663858 1.5508138 0.19367881 4286085240
1.0580425 1.3537381 -0.079120219 4283445810
3.1651623 1.5202552 0.077277958 4286085240
4.9873915 -1.8272924 0.11381957 4278779699
1.5016134 -0.77569735 -0.042732298 4283445810
3.7111635 -1.8227851 0.26337945 4286085240
3.8559003 -1.8558213 0.25097471 4286085240
0.71514368 1.2728174 -0.053677157 4283445810
0.7335881 1.28636 -0.057442605 4283445810
5.0188603 -1.6769106 0.082406223 4283445810
0.8012715 -0.75533473 0.028729916 4283445810
0.27784118 1.0058411 0.020452678 4283445810
0.50864643 1.1073791 0.0022787452 4283445810
2.4246926 -1.7818286 0.42422873 4286085240
4.9488497 -1.6184649 0.087977678 4283445810
3.947443 1.3707768 -0.10668558 4283445810
3.9658904 1.3914126 -0.10651892 4283445810
2.1542766 1.2514181 -0.13662982 4283445810
3.9459212 1.4057034 -0.098192871 4283445810
2.5734987 -1.7494299 0.3965767 4286085240
2.7317965 -1.7690935 0.3788102 4286085240
3.2125144 0.051286936 2.8193805 4286085200
3.2827184 0.17834629 2.8089321 4286085200
1.4890324 1.3123367 -0.090825379 4283445810
3.1636634 0.020201376 2.8016963 4286085200
1.7055403 -0.63655621 -0.031315774 4283445810
3.4744887 0.34500763 2.8758264 4286085200
3.511167 0.40534714 2.873687 4286085200
3.5584149 0.49160945 2.8690507 4286085200
3.572612 0.50519997 2.875833 4286085200
3.55601 0.526034 2.8546605 4286085200
3.0109801 -1.8030665 0.34920943 4286085240
3.5698218 0.56306779 2.8475258 4286085200
3.7305245 1.0572618 2.7567716 4286085200
2.5768402 -1.7337146 0.39306656 4286085240
3.675262 0.80453318 2.8232939 4286085200
1.6775759 -0.6444726 -0.029803276 4283445810
3.7139843 0.98880738 2.7725589 4286085200
3.9122329 1.4475576 2.7495992 4286085240
6.2348256 -1.6590724 2.719574 4286085200
3.8681679 1.4199748 -0.079953372 4286085240
3.4628642 0.32153758 2.8780997 4286085200
2.4642925 -1.7629116 0.4125658 4286085240
3.814126 1.229514 -0.11283946 4283445810
3.8133936 1.2673753 2.7377574 4286085240
3.1479883 1.5244167 0.081360728 4286085240
3.4915428 0.38613477 2.8706951 4286085200
3.6475074 0.7194832 2.8352478 4286085200
3.6405661 0.73019707 2.8241217 4286085200
3.7420385 1.0734432 2.7620187 4286085200
3.4522867 0.33167577 2.8673813 4286085200
3.379029 0.17276059 2.8862329 4286085200
3.78198 1.2035257 2.7376904 4286085200
3.7825513 1.2303607 2.7305524 4286085200
3.6423647 0.76691902 2.8098612 4286085200
0.65879512 -0.79479694 0.022094458 4283445810
3.2272534 0.072137021 2.8191183 4286085200
3.4005497 0.28292826 2.8477137 4286085200
3.5774941 0.59944999 2.8364093 4286085200
3.5438328 0.45504883 2.8760333 4286085200
3.5335846 0.44226995 2.8719869 4286085200
3.7597766 1.1700743 2.7316792 4286085200
3.6442835 0.74305362 2.8200438 4286085200
2.1890726 1.5872549 1.5309284 4286085240
2.1735349 1.597252 1.5233992 4286085240
2.8331881 1.1881251 -0.1763587 4283445810
3.3195608 0.19097933 2.8321762 4286085200
3.7616246 1.1181641 2.7563128 4286085200
3.6422901 0.69432193 2.8450084 4286085200
3.4436572 0.35305259 2.8469946 4286085200
3.8626525 1.4152083 2.7257829 4286085240
3.6042621 0.65136063 2.8356078 4286085200
1.7905524 -0.50691479 -0.021867782 4283445810
3.4261854 0.30710205 2.855412 4286085200
3.4212241 0.29564983 2.8551664 4286085200
2.9844997 -1.8132129 0.35229376 4286085240
2.3165491 1.5693566 1.6132858 4286085240
3.3533888 0.20366924 2.849277 4286085200
2.2901828 1.5621855 1.5973487 4286085240
2.2699623 1.5590351 1.5870869 4286085240
3.7627759 -1.833246 0.2613259 4286085240
3.7638645 1.1319211 2.7558479 4286085200
3.7647386 1.1518788 2.7475545 4286085200
3.0906856 1.5119094 2.1508138 4286085240
3.7192259 1.0029297 2.7697737 4286085200
3.2236583 0.041170619 2.8314021 4286085200
3.0641246 1.511059 2.1321545 4286085240
3.4113495 0.26190475 2.8660007 4286085200
3.1840391 0.030497747 2.8094094 4286085200
3.5839851 0.57703495 2.8502996 4286085200
3.5705881 0.55151123 2.8508544 4286085200
3.689296 0.88198519 2.802314 4286085200
3.040765 1.5116276 2.1153517 4286085240
3.3629911 0.24739443 2.8386977 4286085200
2.1537623 1.5986717 1.5113051 4286085240
3.7452333 1.0356411 2.7739542 4286085200
3.7378638 1.046461 2.7673612 4286085200
3.2344663 0.082630776 2.8208005 4286085200
3.6120865 0.61710876 2.8529029 4286085200
3.5923598 0.5901559 2.849154 4286085200
3.6964152 0.90867746 2.7943563 4286085200
3.5374153 0.47720402 2.8616104 4286085200
2.2171118 1.5914397 1.5472894 4286085240
3.6213441 0.67237544 2.8370175 4286085200
2.3685169 1.5716743 1.6475481 4286085240
3.5903528 0.63701653 2.8329709 4286085200
0.75565112 1.2866305 -0.056721166 4283445810
3.6728811 0.86567384 2.7980323 4286085200
1.4925761 -0.75900722 -0.03558439 4283445810
3.3567238 -1.7633231 0.29759133 4286085240
3.4037943 0.22855401 2.8747408 4286085200
3.3724661 0.23726846 2.8488481 4286085200
3.8288672 1.2589577 2.7529089 4286085240
3.6926038 0.93278366 2.7795138 4286085200
3.8928919 1.3981587 2.7509034 4286085240
-4.152566 -1.5667002 0.02196452 4283445810
-4.1112509 -1.566125 0.025534928 4283445810
3.6188278 0.70183027 2.8268998 4286085200
-4.0569596 -1.5751814 0.023159653 4283445810
-3.891639 -1.5974327 0.026972979 4283445810
3.6735425 0.79187483 2.8245678 4286085200
3.5163913 0.46294174 2.8541064 4286085200
3.5369675 0.51168293 2.8445418 4286085200
2.2350597 1.5667785 1.5621383 4286085240
-1.6072854 -1.7919627 0.013162583 4283445810
-4.2194552 -1.5612321 0.016379982 4283445810
3.8373218 1.288947 2.7505891 4286085240
2.3475287 1.5794327 1.6342123 4286085240
3.7376194 1.0207015 2.7752526 4286085200
-0.34668478 -1.4399942 0.019396633 4283445810
-0.33266661 -1.4014161 0.02951172 4283445810
2.1412964 1.6053801 1.4993587 4286085240
-0.73332757 -1.5112572 0.028933614 4283445810
-0.71888846 -1.5246817 0.023427367 4283445810
2.2057219 1.5726179 1.5438697 4286085240
-0.6928128 -1.5066446 0.02732797 4283445810
-0.6755324 -1.4941027 0.029179454 4283445810
3.6866949 0.89381599 2.7943754 4286085200
-0.47282949 -1.4695736 0.021105498 4283445810
-0.27278355 -1.4065442 0.020948797 4283445810
3.8950021 1.4129723 2.7506614 4286085240
-0.247453 -1.3692665 0.029275656 4283445810
-0.23777515 -1.3654799 0.028532207 4283445810
0.87295705 1.3264031 -0.069153205 4283445810
3.7129018 0.95053184 2.7862368 4286085200
3.250289 0.062270328 2.8437405 4286085200
3.2890282 1.4459114 0.04401648 4286085240
3.6461594 0.75556892 2.8188093 4286085200
-0.18934326 -1.3705201 0.02003324 4283445810
3.6655371 0.81467658 2.8105581 4286085200
-0.19134456 -1.3531275 0.026195407 4283445810
3.6646981 0.82677698 2.8076766 4286085200
1.6903731 -0.60340089 -0.020430937 4283445810
3.6742582 0.84745008 2.8043509 4286085200
2.2417686 1.5875473 1.5644383 4286085240
3.4009836 0.27203384 2.8552637 4286085200
-0.30738342 -1.4484022 0.012175605 4283445810
1.7896851 -0.50050992 -0.019734174 4283445810
-0.63292354 -1.5211407 0.019216627 4283445810
-0.65114421 -1.5236197 0.019581228 4283445810
3.7675912 1.1857132 2.7347057 4286085200
-0.51300484 -1.543576 0.001837492 4283445810
-0.5167377 -1.522261 0.0081619322 4283445810
-0.52687144 -1.5279963 0.0078668743 4283445810
-0.50653744 -1.5080112 0.011256069 4283445810
-0.53065431 -1.5154139 0.012617618 4283445810
-0.43295419 -1.5093139 0.0057152808 4283445810
-0.41199803 -1.4899766 0.0097324699 4283445810
3.5629098 0.53868437 2.8524899 4286085200
-0.43283626 -1.4733186 0.017593771 4283445810
-0.45198953 -1.4744455 0.017726442 4283445810
-0.34962985 -1.4940863 0.0020814836 4283445810
-0.39724863 -1.4638404 0.01702404 4283445810
-0.41316786 -1.4667755 0.016354024 4283445810
4.3107061 -1.850395 0.19407451 4286085240
0.58439249 -0.48508775 0.026545823 4283445810
0.58284539 -0.4682931 0.029879153 4283445810
3.6053505 0.62781107 2.8456836 4286085200
1.6591226 -0.63131791 -0.022740573 4283445810
3.3053956 0.12669866 2.8507662 4286085200
3.2861395 0.094450183 2.8514166 4286085200
3.7217441 0.97181499 2.7846241 4286085200
2.2727129 1.5823761 1.5836298 4286085240
-1.8070419 -1.8302677 0.023137808 4283445810
-1.8315398 -1.8909692 0.021839827 4283445810
-1.8342043 -1.9180776 0.022694021 4283445810
-0.76954871 -1.5418327 0.021358937 4283445810
4.9684248 -1.8383578 0.11465144 4278779699
-0.55719578 -1.5436476 0.0060780942 4283445810
3.1985059 1.5236996 0.071361601 4286085240
-0.48591715 -1.526955 0.0042577684 4283445810
3.3453655 0.16033258 2.8653035 4286085200
-0.59219301 -1.5038391 0.021754414 4283445810
-4.073411 -1.5666218 0.025391132 4283445810
-0.72263354 -1.5200257 0.025421977 4283445810
1.4324174 1.3036084 -0.084588289 4283445810
-2.7409594 -3.8057258 -0.092064023 4283445810
-2.730865 -3.8693237 -0.086143911 4283445810
-2.6755042 -3.9903722 -0.067501426 4283445810
-1.8684599 -2.0303733 0.023844481 4283445810
-3.9565225 -1.5946224 0.024618477 4283445810
-2.3701782 -4.2609296 0.0081354976 4283445810
-1.8166264 -1.8517634 0.021690637 4283445810
3.283998 0.11013314 2.8443751 4286085200
2.1607232 1.6091945 1.5112853 4286085240
-0.54971939 -1.512816 0.014660358 4283445810
-0.54237646 -1.533178 0.0085817575 4283445810
-0.49107367 -1.5097295 0.010801762 4283445810
-0.47117546 -1.4971541 0.012988329 4283445810
-0.58954877 -1.540234 0.0093862414 4283445810
-2.7174647 -5.9095178 -0.062454909 4283445810
-2.4873335 -4.2144451 -0.01611957 4283445810
-2.2088807 -6.308002 -0.024480283 4283445810
-1.5793025 -6.4244571 0.010716349 4283445810
-0.67497402 -1.5121162 0.023872107 4283445810
-2.5236988 -3.994169 -0.02996397 4283445810
3.5173528 0.42883718 2.8678129 4286085200
-1.2466234 -6.7142072 0.0077218711 4283445810
-2.5431073 -3.9407861 -0.033866465 4283445810
-4.0157571 -1.5739559 0.026789665 4283445810
-2.7049727 -3.8067822 -0.082575917 4283445810
3.3407981 0.21361208 2.8367753 4286085200
-2.4601882 -4.0060463 -0.013116956 4283445810
-1.3036423 -6.3936739 0.02147764 4283445810
-2.6662869 -3.8556912 -0.066343457 4283445810
-2.653616 -3.8636761 -0.062642634 4283445810
-1.7929933 -1.8393837 0.027703702 4283445810
-1.6585921 -1.4498688 0.018863618 4283445810
-1.8938578 -6.4464207 -0.0061713755 4283445810
-1.9965199 -6.3439169 -0.0068683028 4283445810
-2.4602127 -4.2299671 -0.0085210204 4283445810
-1.2107317 -6.6389322 0.017897815 4283445810
-2.4342401 -4.3110633 -0.0060127079 4283445810
-2.6765442 -5.9198222 -0.056866437 4283445810
-1.4673895 -6.754921 -0.0027662814 4283445810
-0.28491777 -1.4324129 0.014245123 4283445810
-2.2801473 -6.0435729 -0.019195169 4283445810
-1.7047298 -1.5095117 0.012272745 4283445810
-2.1874218 -6.3112521 -0.024208933 4283445810
-1.8502724 -6.450069 -0.00044006109 4283445810
-2.5392144 -3.9073179 -0.034488678 4283445810
-2.4241967 -4.3254762 0.00098085403 4283445810
-2.6682353 -5.9519968 -0.0588094 4283445810
-2.7044425 -3.7298529 -0.086416721 4283445810
-2.6373174 -3.8796308 -0.06306076 4283445810
-0.4907575 -1.4925396 0.015141785 4283445810
2.9324138 1.5257317 0.12098378 4286085240
-1.5197209 -6.7361789 -0.0023288727 4283445810
-0.7400912 -1.5440143 0.018410206 4283445810
3.3504534 0.14985655 2.8725824 4286085200
-0.45293868 -1.5148754 0.0060100257 4283445810
-1.7968578 -1.7968578 0.020025462 4283445810
-2.552182 -3.982702 -0.034174174 4283445810
-2.5319743 -3.9790742 -0.032806963 4283445810
-2.5318668 -3.8689184 -0.034465671 4283445810
-1.4968933 -6.5376902 0.01010552 4283445810
-0.30881053 -1.4000025 0.027818412 4283445810
-1.7075589 -1.5814873 0.021454662 4283445810
-1.6715946 -1.4993222 0.023394614 4283445810
-2.0901854 -6.2891417 -0.010445744 4283445810
-1.6538013 -6.4599609 0.0022485852 4283445810
3.6961861 0.9211449 2.7879868 4286085200
-0.39099249 -1.4592038 0.017441094 4283445810
-1.0703136 -6.9294162 0.012625158 4283445810
-2.5206199 -4.0462828 -0.026719481 4283445810
-2.7399535 -6.0088921 -0.070004463 4283445810
-2.4357731 -4.1573515 -0.0055230856 4283445810
-0.97106081 -6.8670311 0.027841568 4283445810
-2.7134142 -3.7929552 -0.085499585 4283445810
-0.13616002 -1.3280964 0.025469065 4283445810
3.1196511 1.5137546 2.170898 4286085240
-1.5848174 -1.7556043 0.022313654 4283445810
-0.30366307 -1.4308448 0.016640097 4283445810
-2.7845602 -6.0048418 -0.071136892 4283445810
-0.64767373 -1.502208 0.02612552 4283445810
-1.7073805 -6.4129658 0.0042970777 4283445810
-1.4358462 -6.4604049 0.015666604 4283445810
-1.8038599 -1.8154151 0.019121617 4283445810
-1.5706073 -6.7603626 -0.0045158267 4283445810
-1.7140176 -1.5672559 0.016799808 4283445810
-1.7063911 -1.5503086 0.018008828 4283445810
-1.0355021 -6.8489017 0.017675966 4283445810
-1.1772238 -6.7604856 0.010949194 4283445810
-3.9921951 -1.5794431 0.028651208 4283445810
-1.2919201 -6.718852 0.006919533 4283445810
-0.14360674 -1.3375648 0.024632841 4283445810
-1.8817515 -2.0579643 0.023899555 4283445810
-1.8762835 -2.0784798 0.026610285 4283445810
-1.8653088 -1.9883871 0.020136118 4283445810
-1.9623183 -6.305479 -0.003787607 4283445810
-1.8434817 -1.9401423 0.023462683 4283445810
-2.3883915 -4.1985025 0.0046024919 4283445810
-2.3464599 -5.9867043 -0.022117049 4283445810
-1.6775097 -1.5636361 0.029265285 4283445810
1.4117191 -1.67879 0.6452412 4286085240
-1.6742283 -6.6277575 -0.008506 4283445810
-2.2765822 -5.9762774 -0.019662142 4283445810
-1.1662253 -6.8261938 0.0071091354 4283445810
4.9732647 -1.8041297 0.11100891 4278779699
1.7661576 -1.7161244 0.72326422 4286085240
-1.7273281 -6.4055543 0.0044251382 4283445810
-1.6606337 -6.4015193 0.0057694316 4283445810
1.3945788 -1.7131965 0.63992804 4286085240
1.4082158 -1.6213397 0.64739215 4286085240
2.4067287 -1.7804898 0.87066972 4286085240
-2.0613706 -6.2692413 -0.0085889697 4283445810
3.1305623 -1.7941288 1.0434189 4286085240
3.409287 -1.7701473 1.1119108 4286085240
1.7347977 -1.7073233 0.71796781 4286085240
3.0271437 -1.793119 1.0170383 4286085240
2.5655761 -1.7681084 0.90941811 4286085240
-0.80967891 -1.535376 0.026806563 4283445810
3.9607654 -1.8290051 1.2442012 4286085240
2.3109186 -1.7673757 0.84684342 4286085240
-1.9176422 -6.3765402 -0.0073926449 4283445810
2.3969827 -1.7614654 0.87018478 4286085240
1.7836087 -1.7220436 0.72717649 4286085240
3.7684789 -1.8285861 1.1951163 4286085240
2.2006192 -1.8089426 0.81810647 4286085240
3.4981987 0.36993405 2.8820801 4286085200
2.7930689 -1.7710276 0.96357262 4286085240
2.881294 -1.7821507 0.98459125 4286085240
2.4585238 -1.794631 0.88043183 4286085240
4.7919207 -1.8605403 1.4466057 4286085240
2.1851356 -1.8079368 0.81417608 4286085240
5.2331328 -1.8984009 1.5531375 4286085240
2.9516084 -1.7932289 1.0007956 4286085240
5.5098629 -1.9195275 1.6211536 4286085240
2.1722286 -1.8148415 0.81011534 4286085240
5.718327 -1.9309357 1.6669893 4286085240
-2.2250173 -6.2896304 -0.023666143 4283445810
2.3347521 -1.7679417 0.85305142 4286085240
-2.2670467 -6.2805958 -0.029196531 4283445810
2.0974879 -1.8394469 0.790483 4278779699
2.1605918 -1.822769 0.80849683 4286085240
2.6605968 -1.7654926 0.9300853 4286085240
2.6741509 -1.7499961 0.93806124 4286085240
3.2727475 -1.7594082 1.0793009 4286085240
1.4125761 -1.6090087 0.64950538 4286085240
-2.6012123 -3.9064744 -0.052364975 4283445810
-0.59639049 -1.5360339 0.011776492 4283445810
5.2797594 -1.8962613 1.5618393 4286085240
-1.9157536 -6.4448018 -0.011653185 4283445810
-1.9336329 -6.3560658 -0.0064094663 4283445810
4.1209989 -1.800211 1.287142 4286085240
2.1339173 -1.8355378 0.80029404 4278779699
-0.29751459 -1.4591513 0.0073104799 4283445810
6.2349844 -1.9731811 1.7964895 4286085240
-2.5125864 -4.0622258 -0.023913801 4283445810
1.4009962 -1.7323468 0.64172554 4286085240
-1.836134 -1.9448062 0.025814712 4283445810
9.1819839 -1.2535934 2.6050944 4286085200
-2.5636876 -3.8768959 -0.044095993 4283445810
2.8767874 -1.7920878 0.98215288 4286085240
4.4339027 -1.8531905 1.3612459 4286085240
4.2967796 -1.8281947 1.3274479 4286085240
7.0590196 1.2172871 2.5346653 4286085240
5.8598356 -1.9371254 1.6998339 4286085240
-0.78054124 -1.5391812 0.023544997 4283445810
-0.19982846 -1.3812963 0.018764943 4283445810
2.4431412 -1.7714728 0.87894094 4286085240
7.5425458 0.90714073 2.5863183 4286085240
4.0755987 -1.8114555 1.2729977 4286085240
2.805352 -1.7600433 0.96690971 4286085240
7.9214182 0.56987214 2.592345 4286085200
8.529562 -0.081699103 2.6054778 4286085200
-1.8442135 -1.9162586 0.019743145 4283445810
4.1702833 -1.8059084 1.2998028 4286085240
1.7423701 -1.7038586 0.71832025 4286085240
2.2694049 -1.7703325 0.83788908 4286085240
-1.2038602 -6.785193 0.0091815591 4283445810
3.3022392 -1.7616972 1.086992 4286085240
-1.7353497 -6.6027312 -0.0079298913 4283445810
3.1369925 -1.7779117 1.0458505 4286085240
1.390187 -1.6856998 0.63933402 4286085240
-2.7034192 -6.2702832 -0.076438844 4283445810
8.1942596 0.24854834 2.5946674 4286085200
1.6059825 -1.6580921 0.6905365 4286085240
-2.5094776 -4.0141029 -0.027204007 4283445810
-2.3881133 -4.3916688 0.0052026808 4283445810
3.3209045 -1.7580569 1.0895855 4286085240
7.8912253 0.61836022 2.5981879 4286085200
-1.2909896 -6.5448279 0.01235494 4283445810
-1.7469405 -1.7028815 0.024878234 4283445810
8.6470289 -0.33144942 2.5945835 4286085200
1.5619794 -1.6334034 0.68157339 4286085240
-1.3085731 -6.6902051 0.0084624887 4283445810
8.516613 -0.027191313 2.6090474 4286085200
3.477392 0.41270226 2.847116 4286085200
-2.3048544 -6.3220658 -0.032764167 4283445810
-2.4947233 -4.1210604 -0.016611397 4283445810
8.1879454 0.30068535 2.6001878 4286085200
2.2907114 1.5840728 1.5952108 4286085240
-2.4111328 -4.367321 0.0022217035 4283445810
-1.0975091 -6.8166738 0.013686568 4283445810
7.9077334 0.64505565 2.6098228 4286085200
-1.1386508 -6.7954283 0.0092425048 4283445810
1.5155612 -1.6468945 0.67044556 4286085240
1.5166327 -1.6375345 0.6715169 4286085240
1.4518499 -1.6238708 0.65641177 4286085240
1.4748991 -1.6181883 0.66437232 4286085240
-2.1375787 -6.36378 -0.016148597 4283445810
8.4849558 1.4835568e-06 2.607873 4286085200
3.0962517 1.4897695 1.597657 4286085240
8.4340658 0.040380899 2.6086347 4286085200
-2.2644393 -6.3366542 -0.032764167 4283445810
7.4743667 1.0445073 2.5972004 4286085240
2.0676119 -1.8485793 0.78404927 4286085240
-2.7219598 -3.7289047 -0.091072381 4283445810
3.0931244 1.5126594 1.6045163 4286085240
3.0780935 1.5175023 1.600642 4286085240
7.7685189 0.65866715 2.5784507 4286085200
-1.6869212 -1.5033785 0.017254382 4283445810
2.3093362 1.5585907 1.4355867 4286085240
2.2735624 1.5716995 1.4335908 4286085240
2.272249 1.5869211 1.4375546 4286085240
2.2331872 1.5916748 1.4329091 4286085240
2.224472 1.6015739 1.4336159 4286085240
2.2096035 1.6016027 1.4315839 4286085240
2.1816125 1.6134031 1.4305804 4286085240
2.175941 1.6092143 1.4279854 4286085240
2.3083775 1.568691 1.439765 4286085240
2.2348199 1.5767531 1.42667 4286085240
2.2786677 1.5591563 1.4313366 4286085240
1.3833795 -1.6665773 0.63918364 4286085240
-1.7242482 -1.5565116 0.013060033 4283445810
2.584003 -1.7385336 0.91531789 4286085240
2.5672925 -1.7392241 0.91078371 4286085240
7.4994431 0.97489339 2.5828366 4286085240
-2.6696446 -3.8083344 -0.073258817 4283445810
3.0019217 -1.7911495 1.013253 4286085240
5.1275125 -1.8786303 1.527391 4286085240
4.648859 -1.8736573 1.4092689 4286085240
2.2961032 -1.7676927 0.84291828 4286085240
2.2529867 -1.7924957 0.8319993 4286085240
6.6793213 1.2398227 2.4486814 4286085240
2.225625 -1.7940556 0.82617176 4286085240
5.6370344 -1.9235578 1.6507263 4286085240
7.3766627 1.1270511 2.5914726 4286085240
9.0640163 -1.061061 2.5941145 4286085200
8.4807997 -2.0991673 2.3396559 4286085200
-2.2657306 -6.0639043 -0.020166397 4283445810
7.3910499 1.0810117 2.5874116 4286085240
-1.7733996 -1.7176658 0.018069655 4283445810
-2.2674747 -6.1281791 -0.024398208 4283445810
8.1634684 0.27369767 2.5867531 4286085200
1.6649787 -1.6703022 0.70168501 4286085240
3.5111666 -1.7876161 1.137208 4286085240
2.9286475 -1.7985389 0.99530566 4286085240
1.821888 -1.7477982 0.73458827 4286085240
1.6694243 -1.6854911 0.70328718 4286085240
3.5194526 -1.8060077 1.1400347 4286085240
6.8326855 1.2232223 2.4810441 4286085240
2.3973348 -1.7854103 0.86764824 4286085240
4.7341375 -1.8729779 1.4328053 4286085240
4.7005954 -1.8770874 1.4229317 4286085240
-2.5504048 -3.8837001 -0.04032895 4283445810
6.9092846 1.214188 2.5028636 4286085240
-1.9641886 -6.3832397 -0.0087035894 4283445810
-2.6217904 -3.8833966 -0.058839321 4283445810
-2.1436615 -6.3150263 -0.018346906 4283445810
-0.61463857 -1.504204 0.023534179 4283445810
-0.6102044 -1.5210178 0.017379075 4283445810
-1.1129578 -6.7747207 0.016033858 4283445810
3.1692123 1.469191 1.6096219 4286085240
1.5288429 -1.6297197 0.67526865 4286085240
3.1300299 1.4814924 1.6023605 4286085240
1.6034366 -1.6660753 0.69098508 4286085240
-0.7486822 -1.518167 0.027213231 4283445810
4.0244198 -1.8118356 1.2554346 4286085240
-0.99317795 -6.865253 0.017081797 4283445810
3.3644121 -1.7673618 1.1001089 4286085240
4.5926294 -1.8680625 1.3947277 4286085240
3.9630086 -1.8147142 1.2434673 4286085240
4.5575833 -1.8707892 1.3886157 4286085240
8.587472 -2.038487 2.3662872 4286085200
-2.4447963 -4.0678425 -0.0063242316 4283445810
5.7597709 -1.9244649 1.6746187 4286085240
5.1040177 -1.8885283 1.5236475 4286085240
3.7543931 1.0899721 2.763731 4286085200
3.2769794 0.13608848 2.8263991 4286085200
6.3215923 -1.9784063 1.8140793 4286085240
3.2214379 -1.7517698 1.0678807 4286085240
-4.1948595 -1.567376 0.01830253 4283445810
2.7034085 -1.7568418 0.94508779 4286085240
3.9349709 -1.8323594 1.2366519 4286085240
8.5302277 -0.108941 2.6057248 4286085200
3.8776174 -1.8283002 1.2215784 4286085240
7.3495646 1.1469291 2.5907805 4286085240
-2.4904051 -4.0844326 -0.020905733 4283445810
1.3997159 -1.6431015 0.64347899 4286085240
-2.3624961 -5.9714394 -0.026482373 4283445810
-0.84516495 -1.5366514 0.029012159 4283445810
3.8283675 -1.8275378 1.2082539 4286085240
3.8124127 -1.834891 1.202843 4286085240
5.5261531 -1.9054385 1.623354 4286085240
7.4122658 1.1082914 2.5946259 4286085240
6.1252155 -1.9599771 1.7686484 4286085240
5.0390429 -1.8827978 1.5067151 4286085240
9.1124716 -1.0962384 2.5990717 4286085200
8.5662289 -2.0913134 2.3573794 4286085200
-2.4634306 -4.1286473 -0.012000293 4283445810
3.1191356 -1.7743762 1.040067 4286085240
6.7092905 1.2232456 2.450856 4286085240
-1.731934 -1.5938206 0.014980853 4283445810
2.2070444 -1.7907319 0.8216579 4286085240
2.2107558 -1.8054795 0.8211062 4286085240
-2.7118878 -3.8949914 -0.076197207 4283445810
2.2442508 1.5780483 1.4297514 4286085240
-0.24822962 -1.3990711 0.019606471 4283445810
8.5960989 -2.055037 2.3618636 4286085200
1.3892283 -1.6627918 0.64094228 4286085240
2.556829 -1.7440698 0.90986443 4286085240
7.1032538 1.2015809 2.5406966 4286085240
2.1551833 -1.8359457 0.80576974 4278779699
1.3980536 -1.7400419 0.64039171 4286085240
7.5243363 0.92932415 2.5819495 4286085240
2.5879602 -1.801867 0.91149396 4286085240
3.6809955 -1.8152653 1.1731868 4286085240
2.5501134 -1.7876325 0.90306753 4286085240
-2.3343005 -6.0406761 -0.025343448 4283445810
3.1732652 -1.7717948 1.0564785 4286085240
4.9833107 -1.8801283 1.4918344 4286085240
-1.7110424 -1.6051321 0.023741335 4283445810
7.6266022 0.84324753 2.5888696 4286085240
-1.2537808 -6.6346765 0.012474209 4283445810
3.0856576 -1.7880783 1.0334765 4286085240
3.0654566 -1.7894709 1.0306401 4286085240
7.1506019 1.1861261 2.5536301 4286085240
-1.8423065 -1.9764754 0.025925636 4283445810
7.3856344 1.0561527 2.5786364 4286085240
7.4813099 0.99682921 2.584794 4286085240
2.1697433 1.583299 1.4181406 4286085240
6.6159897 1.249925 2.4307363 4286085240
3.7463553 -1.8326521 1.1885026 4286085240
1.3807902 -1.7298369 0.63691092 4286085240
2.5064127 -1.7870007 0.89396924 4286085240
2.9821961 -1.7923162 1.0077858 4286085240
3.8185501 1.2286026 2.7541578 4286085200
8.4203377 0.067192867 2.6051331 4286085200
7.7877765 0.68534309 2.5908244 4286085200
-2.3689308 -4.3234434 0.0072624087 4283445810
1.5606521 -1.6530187 0.67952377 4286085240
2.2852197 -1.770962 0.8397131 4286085240
6.9717727 -2.0119786 1.9752805 4286085240
4.8317137 -1.8582623 1.453784 4286085240
6.0677309 -1.9629623 1.7523439 4286085240
6.5630021 -1.9851466 1.8736897 4286085240
3.1547096 -1.7746687 1.0539304 4286085240
4.8634686 -1.8526714 1.463403 4286085240
-2.4334636 -4.2304764 -0.0016984195 4283445810
2.0324388 -1.8524642 0.77461874 4286085240
4.2726002 -1.8340379 1.3199172 4286085240
3.6496282 -1.8143064 1.1680197 4286085240
3.0392659 -1.7872152 1.0210598 4286085240
-1.3363632 -6.6080256 0.0079185367 4283445810
2.2748904 -1.7863227 0.83763427 4286085240
7.6120305 0.89085901 2.5990067 4286085240
-1.8538818 -6.3856683 0.0034648776 4283445810
8.3689699 0.12021506 2.6057231 4286085200
6.9875665 -1.9923899 1.9773633 4286085240
-1.8348386 -6.4741864 -0.0016563535 4283445810
-1.6802654 -1.4783051 0.015875936 4283445810
7.5282788 0.9542166 2.590229 4286085240
2.002214 -1.8366518 0.76836908 4286085240
-0.61147147 -1.4964142 0.024978384 4283445810
8.1067743 0.32361829 2.5789366 4286085200
-0.62925839 -1.4988211 0.026027948 4283445810
2.0881178 -1.8489914 0.7882154 4286085240
4.0780706 -1.7969853 1.27586 4286085240
-0.57024455 -1.5114666 0.01667282 4283445810
1.5651044 -1.6471684 0.68115771 4286085240
1.454103 -1.6108031 0.65808141 4286085240
-2.3124793 -6.0127392 -0.022958726 4283445810
2.5298541 -1.7855027 0.90036428 4286085240
4.7457685 -1.8600798 1.4380693 4286085240
7.5705862 0.86152244 2.5800908 4286085240
-2.1547494 -6.281724 -0.016468763 4283445810
2.7509003 -1.7690274 0.95509052 4286085240
7.315783 1.1655891 2.5880952 4286085240
2.1252625 -1.8399304 0.797616 4278779699
3.2030861 -1.7617112 1.0630201 4286085240
1.9940414 -1.8468173 0.76530343 4286085240
3.1398871 1.4739091 1.6042845 4286085240
4.4842401 -1.857433 1.3705678 4286085240
2.0464141 -1.8414177 0.7792784 4286085240
5.4133277 -1.9247447 1.5937371 4286085240
2.4926424 -1.795252 0.88939095 4286085240
3.5769827 -1.8067685 1.1524731 4286085240
3.5950508 -1.8015109 1.1549571 4286085240
-0.59531611 -1.4977255 0.02421543 4283445810
5.9181194 -1.9354535 1.7160978 4286085240
7.4726391 1.0199593 2.589483 4286085240
1.4190974 -1.6551185 0.64731711 4286085240
2.6376956 -1.762452 0.92683595 4286085240
8.6172113 -2.0165043 2.3786483 4286085200
1.6980969 -1.6872928 0.70855904 4286085240
1.5359612 -1.6478188 0.67550457 4286085240
-1.8417835 -1.988606 0.028900862 4283445810
-3.9822223 -1.5902202 0.02582702 4283445810
8.5174513 -0.05438596 2.6092951 4286085200
1.4309586 -1.610119 0.76285046 4286085240
1.6303744 -1.667202 0.69591564 4286085240
1.7104714 -1.7097884 0.78220379 4286085240
1.8005023 -1.7432344 0.79104054 4286085240
2.1165981 -1.8442855 0.79494381 4278779699
7.2374363 1.1768059 2.5721855 4286085240
2.3452826 -1.7753143 0.82614803 4286085240
1.3954829 -1.6111808 0.76717687 4286085240
1.4106396 -1.6078254 0.76498902 4286085240
1.5840009 -1.6557508 0.76998347 4286085240
1.6458268 -1.6769741 0.77586597 4286085240
2.799587 -1.7871557 0.85917079 4286085240
2.9884243 -1.8019983 0.87547404 4286085240
3.0448012 -1.809589 0.87662494 4286085240
3.1332192 -1.7752303 0.87848109 4286085240
3.2538323 -1.7554123 0.88467276 4286085240
3.5592792 -1.8115771 0.9056083 4286085240
1.4206585 -1.7847857 0.81241155 4286085240
4.0849276 -1.8228939 0.93835425 4286085240
3.2025175 -1.7542149 0.879058 4286085240
2.0902638 -1.8442503 0.81848878 4278779699
3.4603481 -1.7961307 0.90035713 4286085240
-1.8771144 -2.0927951 0.027198285 4283445810
3.1129217 -1.7900777 0.88000011 4286085240
4.9992833 -1.7590864 0.95826614 4278779699
1.3936301 -1.7009099 0.64066923 4286085240
6.3848262 -1.975839 1.8318887 4286085240
10.566541 0.86040521 0.53166926 4286085240
1.4938759 -1.6488582 0.77146983 4286085240
1.4685935 -1.6313866 0.76860297 4286085240
2.2812915 -1.7848498 0.82236433 4286085240
2.2035875 -1.8048544 0.82029164 4286085240
8.9555874 0.98841733 0.45419422 4286085240
4.1274295 -1.826087 0.93940884 4286085240
4.0799947 -1.8363312 0.93846714 4286085240
4.7991199 -1.9070208 0.97677869 4278779699
2.6939266 -1.7685184 0.85142922 4286085240
2.6027701 -1.7687502 0.84398848 4286085240
2.5725646 -1.7602515 0.84007549 4286085240
1.777915 -1.7323943 0.7876184 4286085240
4.1559873 -1.8228817 0.94221276 4286085240
1.5517849 -1.6587842 0.77147889 4286085240
1.6714319 -1.6868405 0.77768481 4286085240
1.5067716 -1.6314192 0.76560116 4286085240
3.3087306 -1.7714177 0.88862908 4286085240
1.5734056 -1.660521 0.77210277 4286085240
3.213412 -1.7735405 0.8813771 4286085240
1.5314935 -1.6476038 0.76993436 4286085240
2.4504356 -1.7821389 0.8357029 4286085240
3.855449 -1.8399307 0.92876995 4286085240
6.7984729 1.1590872 0.3532792 4286085240
3.7516592 -1.8347079 0.92084098 4286085240
6.5302072 1.1991864 0.34085631 4286085240
0.51575702 -0.69252539 0.026747912 4283445810
2.0663967 -1.8527534 0.8189683 4286085240
4.9847598 -1.7898164 0.9620316 4278779699
2.0490665 -1.8549796 0.81737214 4286085240
3.4198289 1.4453486 0.23185433 4286085240
1.7516884 -1.7177732 0.78536546 4286085240
1.996084 -1.8362094 0.81223559 4286085240
3.3402278 1.4748548 0.22670111 4286085240
4.3755774 1.335885 0.26321018 4286085240
4.3201122 1.349106 0.26152346 4286085240
2.5143635 -1.8042039 0.84195495 4286085240
1.4009303 -1.6924435 0.78791857 4286085240
5.8235893 1.2430147 0.30892184 4286085240
5.0099411 -1.6557194 0.93959671 4286085240
5.4754062 1.2602185 0.30282086 4286085240
2.6164064 1.5013344 0.21789919 4286085240
2.588918 1.5075655 0.21858223 4286085240
2.5552917 1.5153732 0.21653226 4286085240
2.5373781 1.5322006 0.21358685 4286085240
2.5036435 1.5391767 0.21202494 4286085240
2.4983203 1.5249569 0.21291253 4286085240
2.1390812 -1.8452532 0.82150441 4278779699
2.1197989 -1.8523535 0.82013166 4278779699
2.3476572 1.6081824 0.19917654 4286085240
5.0616856 -1.8999466 0.98567057 4278779699
5.3033981 1.2741269 0.29397795 4286085240
5.4158287 -1.9061776 1.5975463 4286085240
-0.55530208 -1.4934543 0.021027327 4283445810
5.0932178 1.3097922 0.28270108 4286085240
4.9357657 -1.9067982 0.98203254 4278779699
4.004096 -1.8175628 0.9331466 4286085240
3.9803345 -1.8375121 0.93503195 4286085240
4.8782973 -1.9025143 0.98034304 4278779699
3.8728726 1.4158243 0.23847084 4286085240
3.81111 -1.8487333 0.9278447 4286085240
3.7337108 1.096905 2.7449486 4286085200
2.8768501 -1.7979398 0.86306465 4286085240
2.8290741 -1.7869719 0.86237454 4286085240
2.1758151 -1.8290154 0.81947714 4286085240
3.3707194 1.4691021 0.22810416 4286085240
3.5007024 1.4337307 0.23392798 4286085240
5.3835745 -1.5160635 0.92688918 4286085240
3.3294909 1.4891694 0.22692347 4286085240
3.2878428 1.4957476 0.22333077 4286085240
3.157342 1.5409073 0.21275081 4286085240
1.7491126 -1.7372897 0.78708559 4286085240
1.727882 -1.705281 0.78163832 4286085240
2.6017771 -1.7924595 0.84810829 4286085240
4.4190364 1.333776 0.26171643 4286085240
2.5797508 -1.7894546 0.8454845 4286085240
2.5528941 -1.7829214 0.84207344 4286085240
3.1632831 1.5313466 0.21538503 4286085240
8.9487276 0.95881039 0.46107143 4286085240
1.6067781 -1.6635422 0.77225208 4286085240
3.2421086 -1.7624713 0.88381827 4286085240
4.1396484 1.4095129 0.24369086 4286085240
4.1011257 1.4109942 0.24522321 4286085240
4.2524376 1.3727187 0.25335908 4286085240
3.1952884 -1.7768674 0.88247311 4286085240
4.0847688 1.4272358 0.24232952 4286085240
4.2384133 1.3831185 0.25033331 4286085240
1.5063488 -1.6467183 0.76988906 4286085240
8.6915817 1.043462 0.44007486 4286085240
8.7614002 1.0235368 0.44691876 4286085240
4.9753156 1.3473006 0.26979417 4286085240
8.7249403 1.0756778 0.42662752 4286085240
4.8985839 1.3432888 0.26822752 4286085240
1.4210333 -1.7056166 0.78991354 4286085240
2.9465115 1.5381682 0.21166417 4286085240
1.4016104 -1.715443 0.79437304 4286085240
5.8883595 1.2372366 0.31689358 4286085240
8.3312931 0.093077123 2.5890162 4286085200
6.685535 1.1837217 0.34926012 4286085240
2.3086081 -1.7884707 0.82558596 4286085240
3.8197801 1.4240742 0.24065152 4286085240
2.2698746 -1.7935086 0.82300508 4286085240
3.7814324 1.4235169 0.2392222 4286085240
3.745928 1.4237944 0.23770384 4286085240
2.9540136 -1.8070614 0.87205511 4286085240
2.6523798 -1.7478697 0.93248421 4286085240
4.9947505 -1.686143 0.94730151 4286085240
2.4067054 1.5873946 0.20281988 4286085240
3.1694248 -1.7563994 1.0546099 4286085240
2.3991442 1.5933999 0.20305556 4286085240
2.3680599 1.6000835 0.20259088 4286085240
2.4871452 1.5509619 0.21034341 4286085240
5.3863268 1.2759116 0.29620558 4286085240
2.039475 -1.858176 0.81667817 4286085240
2.0094419 -1.851441 0.81614256 4286085240
3.3911459 1.4587648 0.23014151 4286085240
1.9862803 -1.8507383 0.81473744 4286085240
3.2281811 1.5122881 0.22054134 4286085240
1.9688069 -1.8462325 0.81249243 4286085240
3.1822832 1.51559 0.2201836 4286085240
4.9752622 -1.8223455 0.97046202 4278779699
2.5347288 -1.7944171 0.84340644 4286085240
7.0041728 1.1482759 0.36193281 4286085240
2.4994974 -1.8056502 0.8428694 4286085240
5.0333209 1.3286409 0.27619722 4286085240
1.4025413 -1.672538 0.7821579 4286085240
2.9234307 1.5201977 0.21609269 4286085240
2.9045055 1.5280358 0.21441713 4286085240
2.8425555 1.5128338 0.21848102 4286085240
2.8036022 1.5151069 0.21575403 4286085240
5.6278229 1.2575909 0.30389529 4286085240
5.564312 1.2620264 0.30522895 4286085240
2.4515607 1.5670125 0.20858797 4286085240
2.430577 1.5700071 0.20869327 4286085240
4.3315363 -1.8506278 0.95066339 4286085240
3.4185293 -1.7882988 0.8954463 4286085240
4.2807155 1.3668017 0.25581869 4286085240
1.5619957 -1.6590539 0.77077162 4286085240
1.4030982 -1.6357356 0.77175391 4286085240
1.3860474 -1.6315992 0.77202463 4286085240
1.3851205 -1.6410958 0.77477646 4286085240
2.4151452 -1.7682871 0.83079255 4286085240
6.915607 1.1563948 0.35737872 4286085240
5.0056171 -1.5311227 0.91529137 4286085240
0.17018516 1.8365902 -0.046443194 4283445810
2.6958873 1.5072351 0.21640271 4286085240
0.6047346 1.8431807 0.013782054 4283445810
6.561614 1.1833547 0.34559602 4286085240
2.6625345 1.5053319 0.21730003 4286085240
0.57043159 1.8472797 0.0074132681 4283445810
2.1689808 -1.8351178 0.8215214 4286085240
2.3490853 1.6201818 0.19852975 4286085240
2.3438494 1.5946258 0.20224048 4286085240
0.530204 1.8522152 -0.0014501413 4283445810
0.25942722 1.8816756 -0.045140326 4283445810
1.3828911 -1.6338888 0.64170736 4286085240
3.813755 -1.8350016 0.92413127 4286085240
1.4078639 -1.7861773 0.81395161 4286085240
0.085951492 1.7970266 -0.047997057 4283445810
4.7547793 -1.9069948 0.97639185 4278779699
3.0716612 1.4960934 1.5925331 4286085240
4.7916613 1.3468571 0.26765549 4286085240
4.8342586 -1.9031394 0.97605735 4278779699
4.8403482 1.3439162 0.27001011 4286085240
1.4179124 -1.7241337 0.79541957 4286085240
2.8040183 1.5268949 0.21535157 4286085240
0.1489338 1.8291215 -0.046306476 4283445810
0.14771786 1.8141878 -0.042412356 4283445810
