# .PCD v0.7 - Point Cloud Data file format
VERSION 0.7
FIELDS x y z intensity
SIZE 4 4 4 4
TYPE F F F F
COUNT 1 1 1 1
WIDTH 265
HEIGHT 1
VIEWPOINT 0 0 0 1 0 0 0
POINTS 265
DATA ascii
3.1820607 1.7554238 -3.4029129 15
3.2440119 1.8578556 -3.316788 16
3.505482 1.8165631 -3.2844584 15
3.1657743 2.0316403 -3.3078105 17
3.2219956 2.227474 -3.3239882 18
2.0708635 0.39402103 -3.1166258 6
2.2502849 0.477732 -3.0833766 7.5
2.1926305 0.76421559 -3.0092542 10
2.201005 0.6373471 -3.1131833 9
1.7434967 1.103099 -3.1755507 13.5
1.7183352 1.3090974 -3.1268108 15
1.2117957 1.905619 -3.0459268 21.5
19.414835 0.18773304 -2.6117024 2
-1.675988 0.094735451 -1.7267861 4
-1.6409378 0.9586969 -1.4083686 16.5
-1.979678 0.090878949 -1.2965649 3.5
-1.6615907 0.063448362 -1.3952458 3.8
-1.9788513 0.21348301 -1.2668525 5
-1.6721166 0.23577292 -1.3773396 6.5
-1.973712 0.41772312 -1.2291412 8
-1.6521993 0.54710507 -1.3423738 11
-1.9754626 0.16398741 -1.1072986 4.6666665
-1.9801397 0.22704512 -1.137513 6
-1.9698263 0.50750023 -1.1026578 9.5
-1.6566186 0.50632954 -1.1940786 10.666667
-1.9629699 0.73049796 -1.0025557 13
-1.6587211 0.71940553 -1.1478269 14
1.7691624 0.66863602 -1.0569521 13
-1.9083667 0.93894237 -1.0829153 16
-1.9388077 0.066561803 -0.98063987 3
-1.9460536 0.28752357 -0.94747853 7
-1.924175 0.48838532 -0.9049719 10
-1.6197602 0.75877869 -0.89570266 15
-1.5894964 1.1667144 -0.84371972 21.5
-1.8649043 1.2792765 -0.96975905 20
-1.9778587 0.1028356 -0.72000283 4
-1.6272943 0.31331199 -0.72416067 8.25
-1.8650159 0.89940017 -0.65942878 16
-1.6224442 1.069839 -0.75749719 20
-1.8628544 1.3030982 -0.67553383 21.5
-1.827731 1.4362825 -0.69002885 23
-1.9500775 0.13087057 -0.47913906 5
-1.5518352 1.2093358 -0.46386263 23
4.0692039 2.351264 -0.52363658 19.5
3.9264872 2.4319222 -0.48766881 21
-1.926615 0.35761356 -0.31560284 8.5
-1.4647068 0.26552695 -0.3179929 8
-1.8838702 0.56194973 -0.27946663 12
-1.589892 0.96941555 -0.34850556 19
-1.8143364 1.1988168 -0.23759256 21
-1.8194587 1.2044256 -0.24414374 22
-1.7716815 1.3193691 -0.22938007 23
4.0995712 2.3340054 -0.27092972 19
3.928335 2.4201334 -0.2596153 21
-1.8849534 0.17830645 -0.17328544 5
-1.8502728 0.50581968 -0.046891447 11
-1.5378941 0.904881 -0.10215291 19
-1.5215043 1.0586346 -0.0056070685 21
4.0154533 2.3624432 -0.19831842 20
-1.7385377 0.060191706 0.17412262 3.5
-1.8713967 0.32643858 0.018953685 8
-1.7707064 0.31460622 0.11504017 8
-1.8561794 0.4802058 0.0075939 11
-1.8028564 0.63094044 0.172547 13
-1.765666 0.76089227 0.19449337 16
-1.814817 1.0916525 0.099015556 20
-1.786574 1.1670754 0.12037504 21
2.9852827 1.7593892 0.17518324 20.5
-1.7001933 0.14522097 0.33602333 5.5
-1.6984659 0.22902146 0.32707277 7
4.0564675 2.3587954 0.35324886 20
3.9686074 2.4462743 0.30989599 21
-1.6351957 0.038812093 0.56383502 3
-1.6992291 0.32817525 0.44352713 8.5
-1.7160747 0.4015145 0.45857915 10
-1.4065365 0.70945096 0.40658087 15.5
-1.4825945 1.1024776 0.5286575 20.4
-1.4100305 1.2540764 0.45734179 23
-1.3812169 0.59285653 0.68547565 13
-1.3706127 0.70149696 0.63037997 15
1.6208849 0.30594888 0.98538119 7.5
1.6495845 0.51815736 0.91425639 11
-1.3244997 0.63414335 0.97604793 13
1.6102474 0.71557724 0.94706851 14
-1.3245888 0.88503504 0.86712223 17
1.5936295 0.87628639 0.98179692 16.5
-1.4072685 1.0601329 0.80579334 19
-1.2864052 1.1055496 0.92448968 20.5
-1.5271826 1.2240686 0.96781003 22
-1.263726 1.2461506 0.84078246 22
-1.5945446 0.0018063858 1.1273251 2
1.6737326 0.14477177 1.0022767 5
-1.6115394 0.42917466 1.0818423 10
1.6384733 0.45139515 1.0836322 10
-1.6255409 0.66938323 1.0209103 13
-1.2925392 0.70927322 1.1866989 13
1.5949914 0.61978316 1.1541491 12
-1.1675608 0.98066938 1.1828558 18
-1.1596997 1.0620301 1.1779137 19
-1.5589538 0.00048020482 1.2380886 2
1.5717041 0.13437951 1.3595433 4.5
1.6115227 0.27783161 1.2372601 6.75
-1.5544199 0.46503678 1.2592167 9.5
-1.1105609 0.74948132 1.3956561 13.5
-1.1318315 0.88656199 1.2785223 16
-1.3773929 1.133775 1.3926061 20
-1.407261 1.2026067 1.2626122 21
-1.3823357 1.3243408 1.382695 22
-1.3641193 1.4289399 1.3748305 23
5.5528665 1.9541073 1.3886981 13
5.5189667 2.0779493 1.3674942 14
5.4626274 2.219811 1.3603944 15
4.4560442 0.15880552 1.5688678 3
-1.3374618 0.71696836 1.589754 13
-1.0796345 0.72562194 1.5929151 13
4.4504118 0.7182188 1.570515 7.5
-1.3335012 0.81212604 1.5845308 15
-1.065816 0.88391709 1.564379 15
-1.3667722 1.0863793 1.4924148 18.5
-1.375175 1.2497673 1.471507 20.5
-1.2853566 1.4149897 1.5568576 22.5
-1.3042376 0.055454701 1.746446 3
3.3240037 0.094551429 1.7887692 3.5
4.0967841 0.14354528 1.7588475 3
-1.3203272 0.30212137 1.726464 7
4.0815434 0.26138973 1.7621845 4.5
-1.3351203 0.50751036 1.6726781 10
4.1322894 0.58807832 1.7746596 7
-1.3139521 0.75147694 1.6863123 13.333333
-1.0258203 0.7456032 1.7320857 13
-1.3335525 0.92513132 1.6921028 16
-1.0081 0.9056412 1.6866767 15
4.3641329 0.99868947 1.629204 9
-1.3078641 1.0295528 1.6842484 17.333334
-0.99794006 1.0397877 1.6019878 17
4.3327131 1.0658425 1.6151558 10
-1.2014354 1.3597437 1.7910824 21
4.273912 1.3105704 1.659097 11.5
-1.2150968 1.4534931 1.763996 22
4.2076459 1.5494177 1.6769567 13
4.1874032 1.7241466 1.6670266 14
4.1426044 1.9419022 1.6903349 16
4.2038927 1.8331552 1.6408894 15
3.974227 2.2494466 1.7256707 18
-1.2607306 0.13334908 1.9475096 4.5
2.9255674 0.047431272 1.9215176 2
3.0056171 0.14476374 1.8762932 4
-1.2652894 0.32943368 1.9379491 7
3.0028572 0.25956541 1.8971099 5
-1.2634315 0.47051778 1.9247249 9
2.9925437 0.49179292 1.8927451 6.5
3.2964723 0.5106709 1.8381941 7
-1.2539519 0.69347256 1.8799045 12
-1.1842246 0.65328515 1.9910742 11
2.8701291 0.64914423 1.9373692 8.5
3.3011494 0.727332 1.8513554 8.5
4.0332813 0.70031053 1.8161157 8
2.8824525 0.88619876 1.9397658 10.5
4.0094228 0.89847791 1.8164527 9
-1.197583 1.1621684 1.8663945 18
2.7839751 1.0835171 1.953846 13
2.8790045 1.0694851 1.9200585 12
3.179131 1.0487194 1.8608074 11.5
3.8819196 1.122867 1.8661242 11
4.0103278 1.0360007 1.8182635 10
-1.2042916 1.2823222 1.8601925 20
-1.1972605 1.2416487 1.8717995 19
2.6652281 1.2878171 1.9897447 15
2.9590964 1.2956908 1.9426279 14
3.8613799 1.3222573 1.8746318 12.5
3.679981 1.5811611 1.9331163 14
3.6685674 1.688682 1.9251142 15
3.6450446 1.9055984 1.9504628 16.5
3.9154685 1.9761912 1.8073914 17
3.6145067 2.1591911 1.964558 18
-1.0260974 0.12353218 2.161598 4
2.5152249 0.012521911 2.1810727 1
-1.1540357 0.3255851 2.1191506 7
-1.1407075 0.45183092 2.1135907 9
2.6740823 0.43041277 2.106215 7
-1.1381649 0.7289089 2.123384 12.5
-1.1407698 0.93923926 2.0691404 14.5
-1.1586397 1.0291036 2.0068393 16
2.5451193 1.5578181 2.0433218 17
2.624517 1.4124229 2.0135908 16
2.0496707 1.8846141 2.166311 21
-0.86661774 0.16078401 2.2455659 4.5
1.7281437 0.11465359 2.2562563 3.6666667
2.0577891 0.15398219 2.2954931 4
2.2670636 0.071232982 2.2781589 3
2.4170651 0.0032809749 2.2186983 1
-0.854922 0.30888006 2.2306225 6.5
1.6416945 0.27935198 2.2762802 5.5
1.8348187 0.3005445 2.2628284 6
2.1084254 0.37599337 2.2980292 6
2.3432534 0.32880235 2.2535031 5.5
1.6432657 0.42705077 2.2736092 7.5
2.081228 0.44860592 2.3218114 7
2.4268861 0.52540982 2.2431056 8
1.8913468 0.70432943 2.359724 10
2.095495 0.68293035 2.3175104 9
1.7838521 0.825665 2.3776228 11
1.8006546 1.5759748 2.2537742 18
2.0176566 1.4369047 2.3013728 17
1.7420511 1.7261298 2.3206422 19.5
1.6909151 1.9020258 2.2902374 21
1.5720391 2.050878 2.3672478 23
1.6307994 2.0143986 2.3252809 23
1.7810721 0.94081831 2.4057794 12.5
1.8282931 1.1212933 2.423892 14
1.8159474 1.228905 2.4053016 15
1.6955867 1.4700832 2.4490304 17.5
-1.2445065 1.7959093 2.537986 21
1.6323673 1.7659791 2.4547048 20
-1.2117516 1.9108639 2.55335 22
1.5950518 1.8728114 2.4546418 21
-1.2082722 2.0253716 2.5011611 23
1.8392743 0.26932064 2.7516322 4.75
1.8538805 0.54288769 2.6580052 8
1.8568366 0.69142389 2.6654751 9
-0.97902083 1.0903803 2.6803234 13
-0.97982776 1.2066461 2.6629558 14
1.6640549 1.3571219 2.6352122 16
-1.2073679 1.5769079 2.6981816 19
1.6328182 1.5584829 2.6065183 18
-1.2173657 1.7194556 2.6126499 20
-1.1518762 1.9221805 2.6367161 22
-1.0465034 2.108139 2.7403605 23
-1.1445907 1.1608418 2.8770843 14
-1.1293789 1.3073885 2.8836894 15.5
-1.1332548 1.4330058 2.8000185 17
-1.0417889 1.7104944 2.9624052 19
-0.96825439 1.9077828 2.9535806 20.5
-1.0051372 2.0852408 2.8558414 22
-1.0879453 0.7331956 3.0963209 9.5
-1.0702029 0.81733376 3.0340564 11
-1.0318655 1.045527 3.1408279 12.5
-0.93629718 1.5187017 3.126688 17
-0.95748705 1.6928939 3.0873377 18
-0.85098726 1.8076768 3.1149189 19
-0.96337283 0.30487525 3.350739 5
-1.0108274 0.63615483 3.2559388 8
-0.89772791 0.94339371 3.3271098 11.5
-0.91528106 1.1072686 3.2693028 13
-0.91328955 1.3113227 3.2141104 14.5
-0.90449643 1.4344822 3.2230127 16
-0.86386997 0.33198291 3.4632089 5
-0.87164307 0.5377261 3.4467885 7
-0.85250443 0.67559469 3.4248416 9
-0.8546297 0.82625079 3.4058256 10
1.8579751 1.1075937 3.5044174 11
1.8479532 1.2375691 3.5052283 12
-0.70958942 0.66312587 3.7669046 8
-0.72119027 0.92115772 3.7305982 9.5
0.52607799 2.3661885 3.7404311 20
0.93563497 2.3579834 3.6566093 20
1.0354202 2.2945752 3.7512915 19
0.29020625 2.2926397 3.922375 19
0.97532183 2.2583523 3.8520858 18
0.31792337 2.1692803 4.1106648 17
0.32742769 2.2370868 4.0455723 18
0.81083208 2.2739851 4.1322498 19
-0.69936675 2.0709007 4.2619557 17
-0.6908828 2.2230842 4.240747 18
0.87313145 2.244967 4.2094846 18
