# .PCD v0.7 - Point Cloud Data file format
VERSION 0.7
FIELDS x y z intensity
SIZE 4 4 4 4
TYPE F F F F
COUNT 1 1 1 1
WIDTH 1199
HEIGHT 1
VIEWPOINT 0 0 0 1 0 0 0
POINTS 1199
DATA ascii
-2.4900908 2.4391651 -4.1051555 18.012501
-2.5100522 2.122606 -3.7494965 17.0135
-2.0567856 2.4948485 -3.569113 20.011999
-1.5594933 2.5477238 -3.3394239 22.01
11.431051 1.988225 -2.8243818 8.1134996
9.9828358 2.0324848 -2.6920066 9.1140003
9.9777899 2.0284328 -2.4536715 9.1134996
8.4792795 2.1226223 -2.4880383 10.1145
11.535723 1.9313477 -2.3200727 8.1125002
8.6174078 2.1060672 -2.3060358 10.114
10.416849 2.0098271 -2.2922134 9.1129999
7.1535039 2.2102437 -2.241626 12.115
8.8009462 2.0937641 -2.1456475 10.1135
11.763986 1.9038646 -2.0952597 8.1120005
10.441253 2.023484 -2.0897412 9.1125002
6.2342854 2.2211213 -1.9599069 13.115
6.6026444 2.2013369 -1.939222 13.1145
10.397009 2.0070634 -1.8414069 9.1120005
8.2924004 2.1334903 -1.858397 10.113
5.3288593 2.2990582 -1.8127016 15.1155
0.5951252 1.2911034 -1.7483665 22.136499
0.60116011 1.3340935 -1.7718627 23.136499
5.5514026 2.2733037 -1.7580876 15.115
6.3985057 2.2166045 -1.7131877 13.114
5.0205736 2.3325071 -1.7127706 16.115499
0.7089119 1.1541891 -1.6082425 22.134501
0.65327048 1.2414793 -1.6576351 22.385376
0.63973302 1.3212335 -1.6522597 23.1355
6.2936649 1.7316962 -1.6855729 11.114
11.099158 1.9700248 -1.6987305 8.1114998
10.446044 2.0258098 -1.6113698 9.1114998
6.8117642 2.1711929 -1.6636384 12.1135
8.4186535 2.1062841 -1.6914299 10.1125
5.4937425 2.2558434 -1.6066723 15.1145
4.8328629 2.346431 -1.6529202 17.115499
0.73331714 0.92402238 -1.5751904 18.134001
0.7292586 1.1556582 -1.5591629 22.134001
0.69755274 1.285924 -1.5864666 23.134501
0.73551434 1.2453194 -1.5295827 23.133751
6.4297023 2.1979871 -1.5688591 13.1135
6.9530292 2.1754513 -1.5581375 12.113
8.7068367 2.1242063 -1.5491773 10.112
5.0410385 2.2767198 -1.5901819 16.115
3.9291131 2.3332818 -1.5221837 19.116501
4.9181347 2.3791828 -1.5608969 17.115
0.75474572 0.85970551 -1.4432755 18.132999
0.76895839 1.1690605 -1.4531142 22.7995
11.06599 1.9944508 -1.4788952 8.1110001
6.4920783 2.1921704 -1.4532734 13.113
5.1194563 2.2959824 -1.4905767 16.1145
5.5150533 2.2606835 -1.4801791 15.114
3.9832652 2.3423345 -1.4480671 19.115999
4.096837 2.3186696 -1.4961264 18.115999
4.1500707 2.3172939 -1.4115189 18.115499
3.7808633 2.4413199 -1.4706569 20.116501
-1.9980891 0.48243952 -1.3958675 9.0220003
-1.9369854 0.6046114 -1.3611515 11.022
0.75528038 0.81704873 -1.3054347 19.132
0.79777426 1.166194 -1.3793056 23.132
0.81519794 1.1197444 -1.3409851 23.1315
10.316968 2.0037718 -1.3573018 9.1110001
6.5948825 2.1922114 -1.3117687 13.1125
6.9701982 2.1881332 -1.3936102 12.1125
8.8323812 2.1023281 -1.3557408 10.1115
4.1658158 2.2924945 -1.3140047 18.115
5.4746256 2.2720335 -1.3395822 15.1135
4.0311284 2.3307514 -1.3645811 19.115499
5.180759 2.3086956 -1.3842143 16.114
3.1773739 2.4834681 -1.3177817 23.117001
-1.979678 0.090878949 -1.2965649 3.5
-1.9738725 0.12983327 -1.2391647 4
-1.9788513 0.21348301 -1.2668525 5
-1.973712 0.41772312 -1.2291412 8
-1.9509871 0.58591145 -1.2256881 10.5
2.4914021 2.0041423 -1.2317674 23.1185
6.9552917 2.1983948 -1.2305986 12.112
4.1946917 2.2801781 -1.2209772 18.1145
5.4487762 2.2849302 -1.2055206 15.113
4.0647702 2.3228192 -1.2899917 19.115
4.1177678 2.3157184 -1.2065163 19.1145
4.6727099 2.3258533 -1.2620726 17.114
5.2055497 2.3075399 -1.2762713 16.113501
3.2607903 2.4488204 -1.2655566 22.116501
3.4333198 2.4373121 -1.2478125 22.115999
3.5228925 2.4464667 -1.2049054 22.115499
3.7091007 2.4608426 -1.2555764 21.115499
-1.9754626 0.16398741 -1.1072986 4.6666665
-1.9801397 0.22704512 -1.137513 6
1.6549201 0.35689321 -1.1078259 8.1215
1.7463871 0.38908863 -1.1086789 9.1210003
-1.9614673 0.44514588 -1.1861454 8.5235004
2.0531855 0.40018234 -1.1285309 8.1195002
-1.9698263 0.50750023 -1.1026578 9.5
0.75329077 0.79758179 -1.1777679 19.131001
-1.9388255 0.85814393 -1.1163607 14.024
0.77822745 0.87096822 -1.1694803 21.130501
-1.9037374 0.95146114 -1.1533192 16.0235
-1.827942 1.314387 -1.10939 20.5235
10.644023 1.9241858 -1.1657454 8.1105003
10.32994 2.0010314 -1.1259243 9.1105003
8.883461 2.1296091 -1.171411 10.111
4.1596875 2.302465 -1.1117021 19.114
4.2360935 2.3310425 -1.1348318 18.114
5.2336693 2.3128088 -1.1604142 16.113001
3.0611832 2.4218132 -1.1075342 23.115999
3.5772638 2.4292178 -1.1353542 21.115
-1.9601077 0.18821481 -1.016116 5.0769229
-1.9524711 0.361377 -1.0177795 8.0249996
-1.9782171 0.46841815 -1.0637671 9.3579998
-1.9416794 0.5867961 -1.0059268 11.025
-1.9561977 0.66434354 -1.054328 11.691333
1.5368054 0.65105855 -1.076146 13.122
1.6396452 0.63939011 -1.0946518 13.1215
1.7691624 0.66863602 -1.0569521 13
-1.9519081 0.75208265 -1.0316299 13.01225
0.76740181 0.79367596 -1.0453606 20.129499
1.5289295 0.77993387 -1.0726445 15.122
1.6554172 0.75140685 -1.0701293 14.454501
-1.9350376 0.84104729 -1.0343188 14.26225
0.78588617 0.85036999 -1.0220655 22.129
1.4598526 0.82663369 -1.0741618 16.122499
1.6328533 0.88196301 -1.0643258 16.12125
-1.9164863 0.93875831 -1.0673941 16.012249
1.5602407 0.97059894 -1.0679926 18.12175
-1.8993987 1.0501155 -1.0446926 17.0245
1.5533558 1.0526776 -1.0422999 19.1215
1.6184206 1.0705125 -1.0309104 19.121
-1.8839281 1.1374043 -1.0374715 18.0245
1.4499558 1.1419166 -1.0325198 21.4555
1.544171 1.1878639 -1.0101742 21.12125
-1.8302553 1.2486755 -1.0616314 20.024
-1.8521885 1.3163453 -1.0638783 21.024
12.761344 1.8751179 -1.097397 7
6.7855825 2.1913354 -1.0599591 13.1115
6.8006363 2.1834381 -1.0401418 12.1115
4.1803293 2.2968626 -1.0199143 19.113501
4.7673635 2.291966 -1.062714 17.113001
5.4304986 2.2967865 -1.0754155 15.1125
3.0519249 2.3759646 -1.0362849 23.115499
4.2153935 2.3128366 -1.0407627 18.113501
5.2503018 2.3194821 -1.0467663 16.112499
3.387552 2.4261029 -1.0668484 22.115
3.4497056 2.4294937 -1.0026805 22.1145
3.6312132 2.4647899 -1.0639621 21.1145
3.7468615 2.429882 -1.001917 21.114
-1.9388077 0.066561803 -0.98063987 3
-1.9460536 0.28752357 -0.94747853 7
-1.9508708 0.34577259 -0.95843792 8.0255003
0.71738398 0.36612993 -0.94524425 12.5291
-1.9349943 0.46430135 -0.93008912 9.5127506
0.71624446 0.47147435 -0.95439035 15.12925
0.73111242 0.55726779 -0.9432103 16.878876
-1.9418569 0.62564147 -0.97749662 11.619893
-1.9375566 0.75357223 -0.95171458 13.5255
-1.9375284 0.84211117 -0.93066287 15.02575
0.78373384 0.84625399 -0.97625685 22.1285
-1.9056549 1.0745963 -0.94156021 18.025499
-1.8649043 1.2792765 -0.96975905 20
1.4277016 1.2941531 -0.99796724 23.122
-1.8301551 1.349001 -0.95041293 21.025
1.4756746 1.3188776 -0.9901787 23.1215
-1.8373193 1.4123204 -0.90288645 22.025499
10.300563 1.991896 -0.92440885 9.1099997
10.884039 1.9273521 -0.9482215 8.1099997
8.6733818 2.1390493 -0.94813865 10.1105
4.3726282 2.2841849 -0.96839619 18.113001
4.8666248 2.2993817 -0.96375692 17.112499
5.1522412 2.296324 -0.9041031 16.112
5.3841043 2.2942708 -0.95997649 15.112
4.1297474 2.3516083 -0.92551225 19.113001
3.5459604 2.4542701 -0.95775938 22.114
0.75849319 0.19404072 -0.82709074 8.1269999
0.75151831 0.29446927 -0.82048398 11.127
0.73826987 0.33524737 -0.85424721 11.794333
0.72725868 0.4309321 -0.84995174 14.62775
0.74206293 0.51553363 -0.83959234 16.527401
0.84440827 0.51576108 -0.80988401 16.1255
0.75546598 0.66751897 -0.82781535 20.127001
-1.906281 0.73403299 -0.83632129 14.0265
0.76351297 0.77818555 -0.87323797 22.127501
0.80755514 0.88410252 -0.88099539 23.127001
-1.9244975 1.0147922 -0.84661585 17.026501
-1.8451295 1.3815976 -0.84438157 22
9.1475 2.069984 -0.81541193 10.11
4.2663016 2.2872162 -0.84663594 18.112499
5.3199401 2.2885599 -0.82694632 16.1115
5.5548406 2.2863848 -0.86575353 15.1115
3.169724 2.3774335 -0.85614514 23.114
4.2535915 2.3228235 -0.84543616 19.112499
3.5885646 2.4409902 -0.88414854 22.113501
3.6866245 2.4605112 -0.82181633 21.113001
3.8809373 2.4274189 -0.8679114 20.113001
-1.9778587 0.1028356 -0.72000283 4
0.82401282 0.2686308 -0.790546 10.1255
-1.9444374 0.38750172 -0.70642805 8.0279999
0.75476658 0.38186723 -0.78974265 13.1265
0.82839125 0.30275199 -0.7899062 11.1255
0.77252173 0.48434544 -0.7905798 16.126249
0.74937707 0.53053772 -0.78066927 17.126499
0.76000267 0.6932326 -0.79645097 21.126499
-1.8987237 0.97010386 -0.78183979 17.027
-1.9065607 1.0708754 -0.79104966 18.027
-1.8942568 1.0671531 -0.73703045 18.0275
-1.847295 1.3577163 -0.74447191 22.2635
6.5890255 2.184269 -0.71747243 13.1105
4.447154 2.2732534 -0.79335958 18.112
5.5483408 2.2861714 -0.73016149 15.111
3.0760112 2.3627555 -0.75996518 23.113501
3.9273558 2.391958 -0.74161381 20.112249
4.1895852 2.3386903 -0.74319458 19.112
5.3303642 2.3099642 -0.70757711 16.111
3.7279162 2.438607 -0.73826927 21.112499
-1.9542247 0.37852848 -0.66124225 8.0284996
-1.9644918 0.41928318 -0.66438812 9.0284996
-1.9464978 0.50267422 -0.6587624 10.0285
-1.8884516 0.7124964 -0.63703501 14.0285
-1.8650159 0.89940017 -0.65942878 16
-1.8375491 1.2258954 -0.62121689 21.0285
-1.8472891 1.3089943 -0.64803427 21.76425
-1.827731 1.4362825 -0.69002885 23
10.283257 1.9853185 -0.69272232 9.1094999
9.2763062 2.0573175 -0.61978352 10.1095
7.6372647 2.1449232 -0.67709911 11.11
4.32337 2.2578087 -0.66638547 18.1115
5.5189729 2.273494 -0.60211068 15.1105
7.2561455 2.2163372 -0.6408934 12.11
3.1913583 2.3761356 -0.63974965 23.112499
4.0023003 2.3874824 -0.61857253 20.1115
4.11484 2.3436301 -0.63596421 19.1115
5.0057964 2.3387308 -0.65676105 17.111
3.3688071 2.4282525 -0.60191846 23.112
3.7579675 2.4207861 -0.67005885 21.112
-1.9565665 0.19448261 -0.59951586 5.5
-1.9586135 0.43082762 -0.52654278 9.0299997
-1.9325831 0.60828882 -0.59223348 12
-1.9007781 0.83478922 -0.56536341 15.5
-1.8611325 1.0582554 -0.54270589 19.029499
-1.8347019 1.1689277 -0.55457962 20.529249
-1.8388826 1.4241008 -0.57529849 23.028999
11.238385 1.8938926 -0.51394916 8.1090002
7.747376 2.1456625 -0.51328874 11.1095
4.4334192 2.2638249 -0.58524001 18.111
4.5721235 2.2612493 -0.50333762 17.1105
5.2241206 2.2928476 -0.58103675 16.1105
3.3140035 2.3922842 -0.51263142 23.1115
4.077085 2.3497691 -0.52780557 19.25
3.4026327 2.4076967 -0.59556168 22.112
3.8636587 2.4247789 -0.55655706 21.11125
-1.9500775 0.13087057 -0.47913906 5
-1.9435432 0.41636947 -0.47283411 9.0305004
-1.9421999 0.54593682 -0.47800016 11.0305
-1.9243569 0.62340623 -0.47276717 12.5305
-1.9222298 0.768664 -0.46868792 14.5305
-1.855324 1.0579928 -0.45372823 19.0305
-1.8311038 1.1338153 -0.45859829 20.280375
-1.8270749 1.3441312 -0.46711513 23.030251
10.289967 1.9840397 -0.44719979 9.1090002
6.431251 2.1969883 -0.42256975 13.1095
7.1369624 2.1355653 -0.45894903 12.1095
4.4395099 2.2650492 -0.48300382 18.1105
4.5120049 2.2837436 -0.40387145 18.110001
5.3923826 2.2860138 -0.47173014 16.110001
5.5277505 2.287008 -0.47928473 15.11
4.0504966 2.3525455 -0.44932717 20.1105
3.2633495 2.405833 -0.42882025 23.111
3.9145274 2.4393811 -0.46113354 21.05525
5.1674914 2.4010336 -0.45332435 17.110001
-1.9362413 0.37075496 -0.35218698 8.7657499
-1.9381566 0.77837658 -0.33766747 15.032
-1.9072242 0.82323933 -0.33644807 16.032
-1.8608494 1.0308038 -0.34075022 18.6985
-1.8404033 1.1095569 -0.36504078 20.0315
-1.7993895 1.2646786 -0.35588372 22.0315
-1.7962337 1.324074 -0.35723636 23.0315
7.2189264 2.1331005 -0.32590222 12.109
5.3384762 2.2793303 -0.34740385 16.109501
5.4869256 2.2723041 -0.37080941 15.1095
3.4360828 2.3980646 -0.3818799 22.1105
4.0855904 2.3507204 -0.36151347 20.110001
3.577913 2.4014559 -0.31389719 22.110001
3.8342245 2.448719 -0.34089568 21.110001
-1.8922527 0.21161272 -0.20433848 6
-1.9267038 0.39735955 -0.25585976 9.033
-1.89768 0.35553044 -0.20741199 8.5334997
-1.9168515 0.46365076 -0.20907505 10.0335
-1.8950447 0.49895799 -0.20708869 11.0335
-1.9199951 0.53391498 -0.26659703 11.366166
-1.8902643 0.55437881 -0.28451887 12.016251
-1.9113436 0.60813916 -0.20723018 12.2355
-1.8771386 0.94238335 -0.21481255 17.599958
-1.854407 1.0397044 -0.2574473 18.699501
-1.8143364 1.1988168 -0.23759256 21
-1.8114147 1.2272627 -0.23549268 22
-1.7970728 1.2498844 -0.27253121 22.032499
-1.7686876 1.3164549 -0.25184393 23.016251
11.497247 1.8801836 -0.27039978 8.1084995
10.267877 1.9785584 -0.21762083 9.1084995
4.5009542 2.2528467 -0.29478469 18.109501
4.6968899 2.2767038 -0.29845881 17.109501
4.7202525 2.2677343 -0.20946299 17.108999
5.3412189 2.2538769 -0.22997709 16.108999
5.4444141 2.2719381 -0.24679279 15.109
5.7552514 2.2045567 -0.26402715 14.109
6.353931 2.212244 -0.27588779 13.109
4.0918908 2.3409243 -0.24376808 19.166668
3.590673 2.4256217 -0.23845758 22.109501
3.9257555 2.4254856 -0.2428017 21
-1.8849534 0.17830645 -0.17328544 5
-1.8774074 0.29841712 -0.11895376 8.0345001
-1.8897012 0.35802019 -0.15268476 8.7008333
-1.8933389 0.48553503 -0.12544999 10.5345
-1.8984978 0.55614841 -0.16527574 11.534
-1.8384964 1.0613327 -0.13953078 20.03425
-1.8216139 1.1763071 -0.15792127 21.034
-1.7864903 1.2473497 -0.15459588 22.534
-1.7673434 1.3170502 -0.1728422 23.033751
7.8011909 2.1752486 -0.16832994 11.1085
4.4076686 2.2962081 -0.10162604 18.1085
4.5482273 2.2816145 -0.19046371 18.108999
5.4402075 2.2977591 -0.12579402 16.1085
5.6604834 2.2521806 -0.13356303 15.1085
4.0154533 2.3624432 -0.19831842 20
5.1048746 2.3645537 -0.11428519 17.1085
3.6497347 2.429534 -0.16115801 22.108999
-1.8716191 0.36018619 -0.0035287989 9.0360003
-1.8808557 0.47393 -0.08064077 10.535
-1.8554715 0.54826087 -0.044324033 11.76775
-1.8733511 0.73055232 -0.079516448 15.035
-1.8364872 1.0665053 -0.080794789 20.035
-1.8258889 1.1304805 -0.060092684 20.53525
-1.7792015 1.2629193 -0.058574632 23.03525
11.732634 1.870643 -0.015591593 8.1079998
10.282454 1.9890049 -0.021871997 9.1079998
7.5010581 2.1308703 -0.004063365 11.108
5.3399 2.2848535 -0.0050173895 16.108
5.7229052 2.2554867 -0.007661236 15.108
6.1689191 2.2113481 -0.013136749 14.108
4.1274791 2.3118567 -0.049802963 19.10825
3.8585112 2.4710672 -0.043377731 21.10825
-1.8479764 0.34692147 0.042112857 8.3517494
-1.8553174 0.4789508 0.014769604 11.018126
-1.8658153 0.62144125 0.038713451 13.0365
-1.8652058 0.71926749 0.041317679 14.5365
-1.8553296 0.84986699 0.061877351 16.536751
-1.8200889 1.0782639 0.07514438 19.893312
-1.7761059 1.1838176 0.079977952 22.037001
-1.7914943 1.2281873 0.020905536 22.036251
4.8445535 2.2828386 0.0089243753 17.108
4.1607661 2.3095036 0.088553235 19.1075
3.869766 2.4578409 0.086809814 21.1075
3.7949088 2.5132327 0.074733734 22.1075
-1.7385377 0.060191706 0.17412262 3.5
-1.7818009 0.15739971 0.13335547 5.1500001
-1.7725086 0.33296376 0.15488912 8.5192499
-1.8076952 0.51797712 0.15696593 12.038
-1.7945949 0.52600074 0.19609745 12.0385
-1.8120178 0.64444315 0.15568376 13.384615
-1.7585809 0.61520553 0.17368133 13.03825
-1.765666 0.76089227 0.19449337 16
-1.8379415 0.87736338 0.1190919 17.0375
-1.8003036 0.96707988 0.19624802 19.0385
-1.7846632 1.1472288 0.14879888 21.019125
9.4789553 2.0131233 0.1940033 9.1075001
7.4245434 2.1839578 0.14627813 12.1075
7.6270599 2.1219876 0.16587518 11.1075
4.1479902 2.2960277 0.18056817 19.107
4.9093394 2.2901943 0.10288843 17.1075
5.7077637 2.2301297 0.11938898 15.1075
6.0444407 2.2051528 0.14063853 14.1075
5.3077431 2.3199012 0.11275332 16.1075
3.9024696 2.4465156 0.1618308 21.107
3.5238197 2.5085688 0.15202443 23.107
3.7358527 2.5176339 0.15667932 22.107
-1.763867 0.3907837 0.23376949 9.0389996
-1.6159234 0.30389768 0.28802487 8.04
-1.7752111 0.53106427 0.23400728 12.039
-1.7925694 0.72003496 0.27818176 15.0395
-1.8017017 0.85827684 0.21911357 17.03875
-1.8018939 0.9504711 0.21673074 18.117647
-1.7924352 0.94149834 0.23585579 18.039
-1.7630862 1.0730324 0.27490032 20.039499
-1.7625345 1.1211163 0.25443867 21.039249
10.976568 1.9192245 0.2481247 8.1075001
4.9197669 2.273793 0.21292424 17.107
5.7250295 2.2131188 0.2472828 15.107
5.9447851 2.2022629 0.26111275 14.107
5.2105742 2.3180039 0.21811229 16.107
3.6046932 2.4825311 0.23726389 22.106501
3.9506023 2.4248264 0.25071925 20.106501
3.4991634 2.5344055 0.22897945 23.106501
-1.7001933 0.14522097 0.33602333 5.5
-1.6984659 0.22902146 0.32707277 7
-1.6273321 0.62042344 0.34317192 14.040751
-1.7519714 0.7196672 0.32936698 15.04025
-1.790534 0.82565737 0.35698953 16.040501
-1.7547013 1.0535139 0.30798173 20.040001
-1.7484658 1.1827935 0.39029679 22.041
7.7633934 2.109139 0.34205383 11.107
4.9596014 2.271492 0.32556909 16.106501
5.5827036 2.2259283 0.35432675 15.1065
5.8154078 2.2292237 0.38098341 14.1065
3.152616 2.3651006 0.34756508 23.105499
4.0564675 2.3587954 0.35324886 20
4.1351895 2.3260045 0.32403168 19.5
4.9639006 2.30512 0.31504449 17.106501
3.9686074 2.4462743 0.30989599 21
-1.6788177 0.27701724 0.49319324 8.0424995
-1.6992291 0.32817525 0.44352713 8.5
-1.4700993 0.39816928 0.49956828 11.0435
-1.7160747 0.4015145 0.45857915 10
-1.735952 0.57459372 0.42884442 13.0415
-1.7524916 0.65928328 0.42873043 14.0415
-1.7590742 0.7814486 0.47053716 16.042
-1.7547522 0.88789076 0.46887699 17.042
-1.7556473 0.9634912 0.47086072 18.542
-1.7187167 1.1866007 0.42397389 22.0415
-1.7104429 1.2131367 0.4770934 22.04225
9.1290789 1.7900305 0.41595361 9.1070004
7.8613749 2.0982838 0.49698162 11.1065
9.2771711 2.0625608 0.41954285 10.107
7.479794 2.1604342 0.49240053 12.1065
4.1521468 2.2719717 0.44599384 19.105499
4.8857484 2.2781405 0.42018673 17.106001
4.9850297 2.2636518 0.43905464 16.106001
5.6598501 2.2343621 0.48578146 15.106
3.1014698 2.3268867 0.4141866 23.105
3.9397705 2.3868186 0.43347895 20.105499
-1.6351957 0.038812093 0.56383502 3
-1.6666607 0.19815148 0.58721507 6.0625
-1.7074851 0.36126941 0.5003444 9.0424995
-1.7188507 0.45145965 0.5022772 10.5425
-1.454917 0.43116692 0.53285873 11.044
-1.641058 0.69689888 0.5161069 15.043
-1.5701957 0.65588611 0.5723089 15.044
-1.4248544 0.63208699 0.55146432 15.0445
-1.5124955 0.72836709 0.51456529 16.043501
-1.72694 0.89940697 0.58449799 17.043501
-1.7305224 0.95216513 0.59061408 18.089931
-1.6837375 1.2477579 0.55288571 22.543251
5.7949882 2.1999764 0.50936264 14.106
6.8750095 2.1898985 0.59529018 12.106
4.1769614 2.2786081 0.54280198 19.105
4.8705354 2.2444723 0.52842826 17.105499
5.2446761 2.2491751 0.58080608 16.105499
3.9336226 2.3640437 0.50867772 20.105
3.8684068 2.4027791 0.59988379 21.1045
-1.6880947 0.59160888 0.69865102 13.045
-1.5567683 0.73916733 0.60708833 16.0445
-1.653618 0.83368045 0.6039601 17.044001
-1.7220181 0.96476853 0.64943129 18.29425
-1.6976508 0.9696101 0.66455197 18.0445
-1.6412343 1.2788707 0.63734043 23.0445
6.0498428 2.1771672 0.65798843 14.1055
8.0188541 2.1162333 0.69576019 11.106
4.1799645 2.2670445 0.64473975 19.1045
4.3866811 2.277122 0.67640984 18.1045
4.9710903 2.272316 0.65169334 16.105
5.7046909 2.2166216 0.63324082 15.1055
3.9765494 2.361511 0.6494987 20.10425
3.7860639 2.4205403 0.66010016 21.104
-1.6533215 0.3371557 0.7250042 8.0454998
-1.6670011 0.48439527 0.75876552 11.04575
-1.6753782 0.5654754 0.77911699 12.046
-1.6853505 0.66691172 0.76295531 13.522875
-1.6723392 0.72133476 0.7777037 15.046
-1.7015452 0.83115101 0.74921274 16.0455
-1.6919686 0.91241938 0.743222 17.0455
-1.6045088 1.2160845 0.75024045 22.046
-1.6043828 1.3041232 0.70674336 23.0455
-1.5917473 1.3070012 0.74445856 23.046
6.7151809 2.1905775 0.73212492 13.1055
2.9945459 2.2982495 0.73865771 23.102501
4.1721072 2.262619 0.73728263 18.604
4.9970388 2.2631438 0.7686978 16.1045
5.6460733 2.2193916 0.73583007 15.105
3.9941354 2.3510797 0.79611439 20.1035
4.0381742 2.3301053 0.79844034 19.1035
3.7204227 2.4383445 0.7404061 21.1035
-1.6654109 0.4984006 0.8219198 11.0465
-1.6525211 0.52700692 0.84729052 11.7135
-1.6499915 0.66413879 0.85941821 14.047
-1.654525 0.74642211 0.8608647 15.047
-1.6213958 1.0382141 0.89062345 19.047501
-1.6013234 1.195062 0.83304572 22.047001
-1.586253 1.1738808 0.87391186 21.047501
-1.5688789 1.274964 0.8417896 23.047251
6.1338758 2.190912 0.80559665 14.105
4.1602144 2.2355161 0.81871516 18.1035
5.1446457 2.2688687 0.89509481 16.104
5.3483019 2.2513046 0.82047904 15.1045
3.9819868 2.3334994 0.87934744 19.103001
3.5465603 2.4317925 0.86541444 22.102501
3.6327801 2.4364572 0.80129391 21.103001
-1.6179533 0.20428522 0.97616333 6
-1.6306957 0.53595579 0.95194602 11.4481
-1.6349735 0.94344699 0.92303264 17.83625
-1.5395252 1.2363764 0.95244271 21.849335
-1.483412 1.3259966 0.99141502 23.0495
5.8766642 2.1852105 0.9052512 14.1045
6.8922687 2.1826663 0.9179666 12.105
4.2067475 2.2457252 0.93243372 18.103001
5.3880506 2.246335 0.94923997 15.104
3.0209191 2.3142762 0.95244867 23.101
3.9893348 2.3320746 0.96756703 19.102501
3.2065396 2.4133959 0.93432927 23.1015
3.3959308 2.435261 0.98472452 22.1015
3.4860966 2.4432409 0.9273414 22.101999
3.7461174 2.4238441 0.91066194 21.102501
-1.6115394 0.42917466 1.0818423 10
-1.6237631 0.66279399 1.0149236 13.111111
-1.5582371 1.0067672 1.0467172 18.636364
-1.5136822 1.2056408 1.0141549 22.0495
-1.4723693 1.3305318 1.0572768 23.050251
4.2217264 2.2439423 1.034694 18.102501
5.1742129 2.2668953 1.0195882 16.1035
5.4057364 2.2274969 1.0649552 15.1035
5.9698486 2.2005148 1.0560946 14.104
6.2137146 2.2062871 1.0992386 13.104
6.4985695 2.2232287 1.0024127 13.1045
3.982903 2.3247464 1.060089 19.101999
3.2230875 2.4587703 1.0966835 23.1005
-1.5945446 0.0018063858 1.1273251 2
-1.5856302 0.15471023 1.1209743 5
-1.5728207 0.45119506 1.1545184 10.0505
-1.5797496 0.62119621 1.1485177 12.428572
-1.4406183 1.3209674 1.1336483 23.05125
6.0000854 2.1939681 1.199707 14.1035
4.2160954 2.2325795 1.133204 18.101999
5.1612654 2.2526104 1.1371379 16.103001
3.0695693 2.3440168 1.1202213 23.1
3.9266756 2.3169296 1.1396664 19.6015
3.3266106 2.4229436 1.1246325 22.1005
-1.5589538 0.00048020482 1.2380886 2
-1.5438917 0.47895703 1.2722151 9.776
5.8169837 0.99829364 1.2844554 8.1029997
-1.4161097 1.1632752 1.236849 21.0525
-1.407261 1.2026067 1.2626122 21
-1.4145305 1.3264916 1.2711446 22.55275
3.9333806 2.2968774 1.2361574 19.101
4.209301 2.215539 1.217809 18.1015
5.1894922 2.251986 1.2653078 16.102501
5.438314 2.226927 1.2087576 15.103
3.1249342 2.3753831 1.2543377 23.099251
3.7676952 2.3669999 1.2779049 20.1005
3.8524663 2.3605843 1.2120781 20.101
-1.5555687 0.3421939 1.3086222 8.052
-1.5178853 0.50476003 1.330791 10.0525
-1.4152863 0.98993051 1.3832754 17.6
5.6022458 1.0094961 1.3685139 8.1025
-1.3773929 1.133775 1.3926061 20
-1.4025722 1.3299227 1.3415501 22.053499
-1.3823357 1.3243408 1.382695 22
5.5692677 1.3460984 1.3590267 10.1025
-1.374051 1.4283185 1.3522891 23.026749
5.5528665 1.9541073 1.3886981 13
5.5539398 2.043108 1.3686461 13.55125
5.4767346 2.1408057 1.3947527 14.5
3.9073298 2.2859626 1.3239017 19.1005
4.2096248 2.2091856 1.3199643 18.101
5.1553736 2.2601788 1.3849593 16.101999
5.2578812 2.2632694 1.397922 15.102
5.454299 2.2173233 1.339947 15.05125
3.0064287 2.3723927 1.3283281 23.098499
3.1225259 2.3716381 1.3761041 22.098499
3.7160299 2.3979561 1.352995 20.1
3.6870482 2.411932 1.3404173 21.1
-1.4795085 0.18186493 1.4397956 5.2222223
-1.4609075 0.62407231 1.4159483 12.210526
-1.354147 0.9506923 1.4727598 17.055
-1.367656 1.079362 1.4796987 18.527374
-1.3801395 1.159368 1.4404106 20.054501
-1.3683597 1.2549145 1.4626671 20.777374
-1.3434229 1.3303162 1.4789875 21.884644
-1.3435633 1.4451072 1.4664246 23.055
5.4909115 1.9477868 1.405712 13
3.9132783 2.2943661 1.4234517 19.1
4.0141287 2.2588987 1.4547247 18.1
4.1100588 2.2210388 1.4014658 18.1005
4.2797813 2.2234025 1.4547575 17.1005
4.9385576 2.2224946 1.4423282 16.1015
2.9596367 2.3835289 1.4535513 23.0975
3.0030954 2.3961651 1.404556 23.098
3.5637712 2.4148078 1.46644 21.099001
3.6515701 2.4174352 1.4220146 21.099501
4.4560442 0.15880552 1.5688678 3
4.4895034 0.21919721 1.5607388 4
-1.4415731 0.36377755 1.57048 8.0550003
4.4782057 0.66976953 1.5732698 7
-1.3374618 0.71696836 1.589754 13
4.4504118 0.7182188 1.570515 7.5
4.5601506 0.76356286 1.5435112 8.1005001
-1.3335012 0.81212604 1.5845308 15
-1.3407005 1.0627161 1.5260764 18.0555
4.3417883 1.0618749 1.5871248 10.1
4.4971299 1.065425 1.5158116 10.1005
-1.2831509 1.4254292 1.5745156 22.52825
3.8696733 2.2817144 1.5981473 19.099001
3.9474361 2.273694 1.5332446 18.599501
5.1911511 2.2268298 1.5228152 15.1015
3.1448848 2.3826656 1.5441397 22.0975
2.9187069 2.4047804 1.5981389 23.0965
3.3586125 2.4152496 1.5658375 21.598
3.4685345 2.4153545 1.524603 21.098499
4.4056296 0.24484482 1.6145347 4
-1.3480579 0.39964977 1.6863142 8.0565004
-1.3351203 0.50751036 1.6726781 10
4.4052277 0.64883715 1.614946 7
-1.3147353 0.75108767 1.6618534 13.694917
-1.3331596 0.92787129 1.6601527 16.028126
4.3641329 0.99868947 1.629204 9
4.4306178 0.99878824 1.6138582 9.1000004
-1.3250859 1.02535 1.6436038 17.194668
4.3327131 1.0658425 1.6151558 10
4.273912 1.3105704 1.659097 11.5
-1.2578266 1.4671167 1.665424 22.723833
4.2076459 1.5494177 1.6769567 13
4.4180579 1.5337064 1.604423 13.1
4.1874032 1.7241466 1.6670266 14
4.2038927 1.8331552 1.6408894 15
4.1426044 1.9419022 1.6903349 16
3.9778609 2.2463212 1.6377385 18.099001
2.7818434 2.3530879 1.6879983 23.095501
2.8555336 2.3829546 1.6470464 23.096001
3.1252611 2.3633027 1.6217843 22.097
-1.3042376 0.055454701 1.746446 3
3.3240037 0.094551429 1.7887692 3.5
-1.3295983 0.17294353 1.7554744 4.875
4.0967841 0.14354528 1.7588475 3
4.0815434 0.26138973 1.7621845 4.5
4.2026157 0.23162176 1.7098988 4
-1.3140185 0.33328545 1.7157993 7.5285001
-1.2940075 0.3632952 1.7672981 8.0574999
-1.3170083 0.40916672 1.7190241 9.0570002
-1.311939 0.59076989 1.7056196 11.057
4.1322894 0.58807832 1.7746596 7
-1.2970142 0.60541219 1.7683477 11.067211
4.2250714 0.67769349 1.7179306 7.4000001
-1.3061926 0.71808255 1.7851027 13.0575
-1.299302 0.78444761 1.773821 14.0575
-1.2708061 0.97866529 1.7812698 16.070499
4.1410127 0.9457854 1.7559152 9.1111107
-1.2800899 1.0022151 1.7430125 17.057501
-1.216418 1.3373311 1.7724199 20.785713
-1.2308059 1.4548273 1.7334838 22.028751
4.1381993 1.4564389 1.72954 12.571428
4.1295414 1.7389064 1.7068989 14.75
3.974227 2.2494466 1.7256707 18
3.1774294 2.3978734 1.7396687 22.0965
2.9490571 2.4107471 1.7854136 22.095501
3.0255747 2.4128194 1.7408524 22.096001
3.0056171 0.14476374 1.8762932 4
3.3426485 0.17929715 1.8148533 3.5
3.0028572 0.25956541 1.8971099 5
-1.2771747 0.35991824 1.8282464 8.0579996
-1.2721301 0.44606742 1.8222203 9.0579996
2.9925437 0.49179292 1.8927451 6.5
-1.2889557 0.5025869 1.845111 10.058
3.2964723 0.5106709 1.8381941 7
-1.2731903 0.65792722 1.862174 11.528999
3.1220551 0.68222219 1.8947304 8.0955
3.2730687 0.66321474 1.8567096 8
-1.2836574 0.74140579 1.8363194 13.058
3.1169109 0.7236771 1.8834577 9.0955
3.2297843 0.7338528 1.8686196 9.0959997
3.3016043 0.72932321 1.8325334 8.7982502
4.0332813 0.70031053 1.8161157 8
-1.282334 0.80538332 1.8293295 14.058
3.91874 0.80094564 1.8172045 8.0979996
4.0094228 0.89847791 1.8164527 9
-1.2751694 0.91979259 1.8235766 15.058
3.1412954 1.0550363 1.8719138 11.79775
3.2123711 1.0546825 1.8940403 11
3.8039985 1.0377439 1.8726275 10.0975
3.9318383 1.0986409 1.8319893 11.098
4.0103278 1.0360007 1.8182635 10
-1.197583 1.1621684 1.8663945 18
3.8819196 1.122867 1.8661242 11
3.9343233 1.1136926 1.8372473 11
-1.2042916 1.2823222 1.8601925 20
-1.1959958 1.2477945 1.8673429 19.25
3.827914 1.2733666 1.8795236 12.0975
3.8613799 1.3222573 1.8746318 12.5
3.88884 1.4989538 1.8518267 13.25
3.8215668 1.813454 1.8658384 15.75
3.9154685 1.9761912 1.8073914 17
3.8125057 2.2226689 1.8190045 18.375
2.7973883 2.37852 1.8729413 23.0945
2.8540969 2.3935585 1.8160024 23.094999
2.9255674 0.047431272 1.9215176 2
-1.2607306 0.13334908 1.9475096 4.5
2.7997034 0.11882199 1.9981796 4
2.9037316 0.21806583 1.9463092 4.5
-1.2652894 0.32943368 1.9379491 7
-1.2671736 0.46438241 1.9174367 9.0292501
2.8845317 0.55567688 1.952474 7.5
-1.1842246 0.65328515 1.9910742 11
2.7928162 0.67762256 1.9922527 9
2.8701291 0.64914423 1.9373692 8.5
-1.1908399 0.74440718 1.9801252 12.5
2.9978445 0.71304995 1.903715 9.0950003
2.8824525 0.88619876 1.9397658 10.5
-1.1892182 0.91161937 1.9479655 14.8
2.9749444 0.96837842 1.9287771 11.2
3.0134428 0.98415375 1.9195474 11.095
-1.189813 1.0191609 1.9604741 16.0595
2.7784069 1.0484462 1.9669181 12.5
2.8790045 1.0694851 1.9200585 12
3.1403782 1.0309129 1.9057071 11.0955
-1.168963 1.148226 1.9276041 18.0595
3.0076921 1.1277311 1.9125237 12.595
-1.1672877 1.270835 1.9308735 19.0595
2.6652281 1.2878171 1.9897447 15
2.8235795 1.2623165 1.9708718 14.094
2.9776835 1.2859225 1.9353285 13.875
2.7227552 1.3204699 1.9831442 14.5
2.9428074 1.3031756 1.9587045 14.0945
3.0417619 1.3041065 1.9419298 14.095
3.1439698 1.3753181 1.909148 14.0955
2.819207 1.4289503 1.9698608 15.094
2.9161041 1.4469705 1.9507625 15.0945
3.0234191 1.4481959 1.924823 15.095
3.5030742 1.4195105 1.9231912 14.0965
2.9199052 1.5917895 1.9445081 16.0945
3.679981 1.5811611 1.9331163 14
3.6685674 1.688682 1.9251142 15
2.8327005 1.7736413 1.9854387 18.094
2.7254021 1.8953172 1.9983735 19.0935
3.4385915 1.8619784 1.9870046 17.096001
3.5612276 1.8505355 1.9535667 16.0965
3.5746796 1.9361346 1.9609462 17.0965
3.6450446 1.9055984 1.9504628 16.5
3.5784214 2.1379499 1.9595412 18.0965
3.6387191 2.1705093 1.9329987 18.0485
2.586206 2.354599 1.9340924 23.09325
2.7126975 2.3692079 1.9047039 23.094
3.1878366 2.3980951 1.934508 21.095501
-1.2187126 0.2482288 2.0280828 5.6666665
2.8121216 0.20537601 2.0157762 4.5
-1.2159057 0.4581551 2.0217898 8.5
2.8078644 0.54649478 2.0074065 7.5
-1.1653739 0.61545718 2.0709507 10.6
-1.1511785 0.9174332 2.0642614 14.3535
-1.1447749 1.0544293 2.0347683 16.530251
-1.1583596 1.2575998 2.0161397 19.059999
2.5279253 1.358584 2.0727451 15.5
2.7333395 1.3314768 2.0031974 15.0935
2.624517 1.4124229 2.0135908 16
2.7411065 1.4306405 2.0075867 16.0935
2.5451193 1.5578181 2.0433218 17
2.6474543 1.6224583 2.0323446 17.093
2.7393661 1.6688968 2.0079167 17.0935
2.4460797 1.7994679 2.0481877 19.091999
2.5611975 1.9494485 2.0466027 20.092501
2.6416225 1.9054322 2.0287025 19.093
3.0127032 1.9461721 2.0164671 19.0945
3.1641788 1.9127954 2.0242918 18.094999
3.3104327 1.9936395 2.0157895 18.095501
3.4689205 2.0805576 2.0008614 18.096001
2.3863287 2.3518541 2.0925217 23.091499
2.5725288 2.3504713 2.064327 23.092501
2.5152249 0.012521911 2.1810727 1
-1.0260974 0.12353218 2.161598 4
2.5637128 0.18225861 2.1553757 4
-1.0064588 0.24278226 2.1729934 5.625
-1.1540357 0.3255851 2.1191506 7
-1.1407075 0.45183092 2.1135907 9
2.6740823 0.43041277 2.106215 7
-1.1366249 0.52676773 2.1792464 9.0609999
2.5810428 0.5712018 2.1424227 8.0459995
2.641876 0.5758329 2.1120656 8.0924997
2.6455989 0.69979137 2.1179643 9.0924997
-1.1284151 0.74379957 2.1421788 12.2805
2.5650067 0.7025733 2.1497002 9.092
2.5337987 0.99790221 2.1314559 12
2.1809404 1.7120011 2.1742132 19.09
2.2681084 1.7570918 2.1181662 19.09075
-1.3065636 1.8575587 2.15816 23.0595
2.0496707 1.8846141 2.166311 21
2.1564846 1.8761817 2.1523986 21.09
2.0543442 1.9368557 2.1764045 21.29475
2.1549945 2.0601666 2.1517558 22.09
1.9995141 2.1514316 2.1782577 23.089001
2.054549 2.1789632 2.1470001 23.0895
2.5397456 2.3375235 2.1260321 23.091999
2.2670636 0.071232982 2.2781589 3
2.4170651 0.0032809749 2.2186983 1
-0.86661774 0.16078401 2.2455659 4.5
1.7281437 0.11465359 2.2562563 3.6666667
2.0577891 0.15398219 2.2954931 4
2.2313519 0.1857819 2.2575212 4.1111112
1.6416945 0.27935198 2.2762802 5.5
1.7952381 0.20264368 2.2595384 4.8000002
-0.854922 0.30888006 2.2306225 6.5
1.8348187 0.3005445 2.2628284 6
2.1084254 0.37599337 2.2980292 6
2.3432534 0.32880235 2.2535031 5.5
-1.0988053 0.4956581 2.2240489 9.0614996
1.6432657 0.42705077 2.2736092 7.5
-1.098309 0.56220007 2.2332683 10.0615
2.4268861 0.52540982 2.2431056 8
2.2503717 0.62693733 2.2858708 8.5714283
2.2326899 1.0352823 2.2806659 12.666667
2.235024 1.3449539 2.239151 15.583333
2.0448518 1.6578628 2.2716482 19.088749
2.1182473 1.6833489 2.2078454 19.0895
1.8323473 1.9190232 2.2895334 21.4
1.7988282 2.0420847 2.2721643 22.5
-1.0520555 0.46150282 2.3971138 8.0625
2.081228 0.44860592 2.3218114 7
1.7609366 0.52886015 2.3119519 8.333333
1.7112509 0.67862839 2.3296013 10.0865
1.9441156 0.67858893 2.3220029 10.088
2.095495 0.68293035 2.3175104 9
2.114846 0.68427783 2.3091819 9.0889997
1.6581545 0.70078647 2.3618801 10.086
1.8913468 0.70432943 2.359724 10
1.6869422 0.80607307 2.399317 11.086
1.7838521 0.825665 2.3776228 11
1.8138716 0.81352955 2.3547535 11.087
1.7611277 0.9335314 2.3946574 12.5865
1.8845809 0.95003998 2.3791676 12.375
1.9488245 1.353108 2.3746505 16
2.0176566 1.4369047 2.3013728 17
1.844643 1.5929884 2.3935304 18.087
1.9279716 1.6186645 2.3512275 18.587749
1.7074374 1.7968676 2.3981054 20
-1.2901063 1.9711924 2.3477561 23.060499
1.6078609 1.9402473 2.3965449 22
1.5773544 2.0511055 2.3715482 23
1.6307994 2.0143986 2.3252809 23
-0.63962781 0.048058677 2.4031651 3
0.00034739834 0.019889582 2.4644222 3
1.6991384 0.9139083 2.4186659 12.086
1.7810721 0.94081831 2.4057794 12.5
1.8105004 1.0531919 2.4673398 13.25
1.6867926 1.1021652 2.4131901 14.086
1.7459347 1.1517091 2.4355175 14.58625
1.8282931 1.1212933 2.423892 14
1.7753347 1.2169703 2.422518 15.0865
1.8159474 1.228905 2.4053016 15
1.6512316 1.3932713 2.4601073 17.085501
1.8060187 1.3304024 2.4602048 16.0865
1.6955867 1.4700832 2.4490304 17.5
1.7681444 1.4059128 2.4126554 17.0865
-1.2362149 1.5911852 2.4963305 19.061501
1.6510973 1.526891 2.4752839 18.085501
1.7458093 1.5595369 2.4409041 18.08625
-1.2521114 1.6726809 2.4014318 21.061001
1.6323673 1.7659791 2.4547048 20
1.5950518 1.8728114 2.4546418 21
1.6337429 1.868523 2.4183507 21
1.5953594 1.940042 2.4278672 22
-1.2617307 2.0239313 2.4219794 23.061001
1.6890401 1.3262035 2.5297201 16.085501
1.7371843 1.3778292 2.5075059 16.4
1.6600523 1.4462838 2.5962265 17.084999
1.6486456 1.5562086 2.5767524 18.084999
-1.2445065 1.7959093 2.537986 21
1.6155466 1.7728478 2.5242493 20.084999
-1.2206531 1.8176532 2.5772111 21
-1.2117516 1.9108639 2.55335 22
-1.2082722 2.0253716 2.5011611 23
1.704115 0.83798277 2.6769588 11.085
1.6776158 1.2682482 2.6429913 15.085
1.672475 1.3603665 2.6391749 16.0425
-1.2073679 1.5769079 2.6981816 19
1.6328182 1.5584829 2.6065183 18
-1.2173657 1.7194556 2.6126499 20
-1.1693174 1.8383206 2.664979 20.833334
-1.1518762 1.9221805 2.6367161 22
-1.115779 2.0687983 2.6568372 22.666666
-1.1204062 2.1065831 2.6291418 23.06275
1.5518415 2.30352 2.6738467 23.084
1.6289593 2.3147852 2.6874075 23.084499
-1.1521238 1.2082665 2.7864447 15.063
-1.1523654 1.4428481 2.7957051 17.063
-1.1372852 1.5955687 2.7497547 19.063
-1.1270858 1.691924 2.7304821 20.063
-1.1284686 1.8350697 2.7385004 21.063
-1.1220633 1.932139 2.7198038 22.063
-1.0307859 2.1070352 2.7651899 23.032
1.4586471 2.2869391 2.7307196 23.08325
1.7034352 0.97791386 2.8085825 12.0845
-1.1445907 1.1608418 2.8770843 14
-1.1293789 1.3073885 2.8836894 15.5
-1.1332548 1.4330058 2.8000185 17
-1.0429484 1.8665075 2.8737626 20.063999
-1.0145574 2.0720911 2.8394423 22.032
-1.1349688 0.96125269 2.9275887 12.0635
-1.0508323 1.7065029 2.9325953 19.032
-0.98578185 1.7862406 2.9914632 19.416666
-0.96825439 1.9077828 2.9535806 20.5
-0.94848382 2.0721958 2.9490535 22
0.73412001 2.2612782 2.9836321 23.077499
0.80094045 2.2847488 2.9693604 23.077999
1.4612136 2.29529 2.963922 22.0825
-1.1141888 0.6549527 3.0624638 9.0640001
-1.0879453 0.7331956 3.0963209 9.5
-1.0702029 0.81733376 3.0340564 11
-1.0464094 1.0254165 3.09829 12.0645
-1.0252872 1.356468 3.0400958 15.571428
-0.95748705 1.6928939 3.0873377 18
-0.82205683 1.8594729 3.0932918 20.066
-0.74507064 2.2570622 3.05828 23.0665
-0.64171857 2.2740388 3.0618312 23.067249
-0.43114394 2.2596109 3.0072362 23.06875
0.13107133 2.2672122 3.038449 23.073
0.20415999 2.2800875 3.0572381 23.0735
0.60519701 2.2758822 3.0230956 23.0765
0.67032009 2.3204517 3.0471547 23.077
-1.0718032 0.65206891 3.1391046 8.5322495
-1.0562288 0.74488705 3.132463 10.0645
-1.0278606 0.99422503 3.110821 12.125
-1.0318655 1.045527 3.1408279 12.5
1.8255078 1.4678346 3.1780334 15
-0.93629718 1.5187017 3.126688 17
-0.84885359 1.8150842 3.1266658 19.033001
-0.83877653 2.0008509 3.1237965 21.066
-0.82353681 2.2812872 3.101315 23.066
0.074771568 2.2865264 3.1273873 23.0725
0.55234206 2.2879148 3.1599619 23.076
-1.0130424 0.63451666 3.2449145 8.0324993
-1.0175929 0.77005249 3.2191095 10.065
-0.91528106 1.1072686 3.2693028 13
-0.91328955 1.3113227 3.2141104 14.5
-0.89535421 1.3503389 3.2423832 15
-0.90449643 1.4344822 3.2230127 16
-0.87895167 1.4770437 3.2612085 16.066
-0.88839322 1.6688013 3.2535563 17.5
0.36546034 2.2734625 3.2735496 22.074499
-0.21584964 2.3106625 3.2335727 23.070499
-0.14555317 2.3065114 3.2743554 23.070999
-0.92308605 0.29558051 3.3842046 5
-0.96337283 0.30487525 3.350739 5
-0.95552289 0.69116622 3.3008702 8.833333
-0.90631026 0.9440015 3.3230946 11.333333
-0.89772791 0.94339371 3.3271098 11.5
1.8520212 1.3305256 3.3630898 13.0835
0.29973063 2.2967255 3.3599355 22.073999
-0.28941175 2.3216605 3.3647108 22.07
-0.14400975 2.3382988 3.3653142 22.070999
0.00046146338 2.3296204 3.3114564 23.072001
1.7590493 2.3485744 3.3725059 21.083
1.8190114 2.3721843 3.3176482 21.0835
-0.86386997 0.33198291 3.4632089 5
-0.87164307 0.5377261 3.4467885 7
-0.85250443 0.67559469 3.4248416 9
-0.8546297 0.82625079 3.4058256 10
1.8527046 1.381681 3.4389715 13.25
-0.45533308 2.3437412 3.4729328 22.069
0.22050481 2.3262582 3.4628792 22.0735
1.1691258 2.3430023 3.4216392 21.0795
1.8429968 0.69020784 3.550293 8.0830002
1.8493638 0.88224077 3.5402646 10.083
1.8567978 1.0421462 3.5080733 10.5
1.8579751 1.1075937 3.5044174 11
1.8479532 1.2375691 3.5052283 12
-0.86469841 2.3717408 3.5580046 21.0665
-0.54844666 2.3636105 3.5512288 22.068501
-0.39057681 2.3867667 3.5414751 22.0695
0.052632168 2.3280964 3.5311451 21.739
1.6678988 2.3661292 3.5793982 20.082001
1.7622764 2.347877 3.5534072 20.0825
1.8219651 2.3666317 3.5044632 20.083
-0.81776488 2.3830309 3.6657252 21.066999
0.00050612644 2.3484607 3.6431208 21.072001
0.32043675 2.3920584 3.6548381 21.073999
1.0553259 2.3678422 3.605685 21.078501
1.6119667 2.3564994 3.6715784 20.081499
1.7642477 2.2599807 3.7769876 19.082001
1.8369622 2.2711716 3.7141387 19.0825
-0.1607334 2.3547444 3.757977 21.070999
0.49742857 2.3992138 3.7955484 21.075001
1.4803752 2.3255234 3.7921426 19.0805
1.5530545 2.3411555 3.7299652 20.080999
1.701887 2.2605937 3.8496017 19.081499
-0.33616382 2.3756721 3.8479269 20.57
-0.24844296 2.3619354 3.8179026 21.070499
0.83659452 2.3599644 3.8060582 20.077
1.4053589 2.3050191 3.8520222 19.08
-0.75369543 2.4120035 3.8154969 21.067499
-0.080278672 2.4066434 3.8997853 21.071501
0.59808272 2.4115338 3.8904247 20.0755
1.2489495 2.2775104 3.9876802 19.079
1.3295248 2.2902212 3.9137387 19.0795
1.5464591 2.2492454 3.9680622 18.0805
1.6270096 2.266 3.9318724 18.580999
-0.60574728 2.3769999 3.9495895 20.068501
-0.42965358 2.3651299 3.9097497 20.0695
0.00054960739 2.3923852 3.966006 20.072001
0.42495304 2.380754 3.9162221 20.074499
0.52364498 2.3760588 3.9955988 20.075001
0.69473135 2.3932726 3.9347329 20.076
0.79381418 2.3745501 3.9775138 20.0765
0.83381128 2.3558555 3.980119 20
-0.68796563 2.4081006 3.9047465 20.068001
1.9920057 1.582242 4.0617094 13
2.0027018 1.5844411 4.050921 13
1.9714267 1.7585814 4.0434999 14.5
2.0192437 1.7026774 4.0843806 14
1.9932879 1.9688423 4.0341253 16.0825
1.0952061 2.2582548 4.083952 19.077999
1.1759003 2.2596409 4.0231404 19.078501
1.3909068 2.2382123 4.0797477 18.0795
1.4685913 2.2356057 4.0121055 18.08
-0.53008205 2.3773241 4.0555043 20.069
0.097099639 2.373209 4.0451937 20.0725
0.17674196 2.3599348 4.099391 20.073
0.89247829 2.3480587 4.0058765 19.077
0.99317217 2.3176484 4.0333481 19.077499
-0.73427582 0.69330835 4.1249776 8.0679998
-0.36732009 1.7891177 4.1922841 16.07
1.8434563 1.703221 4.1803889 14.0815
1.9344103 1.7060506 4.1356249 14.082
2.1833038 2.0384767 4.1906972 16.083
0.18044093 2.2923512 4.1873097 19.073
0.7597748 2.2702847 4.1506991 19.038
0.82608104 2.2660918 4.1510792 18.75
0.92343867 2.2452219 4.1825285 18.077
1.2568194 2.2110324 4.1351614 18.078751
-0.44543353 2.3482029 4.1176858 19.0695
-0.35879606 2.3257108 4.1841059 19.07
0.27841845 2.3385203 4.1525102 19.0735
1.6577885 1.6850172 4.2620916 14.0805
1.7429221 1.6884998 4.2025471 14.081
-0.74235916 1.7593371 4.2397904 15.068
-0.46759677 1.7998402 4.2463274 16.0695
-0.37364644 1.7966483 4.2666621 15.07
-0.28479013 1.7742809 4.265224 15.0705
-0.74167818 1.8493896 4.2347956 16.068001
-0.55659068 1.8340226 4.2916899 15.569
-0.28249905 1.8165017 4.2287583 16.070499
-0.69936675 2.0709007 4.2619557 17
1.0487576 2.1975241 4.2692685 18.077499
-0.70262599 2.230267 4.2283516 18
-0.67493331 2.2185073 4.2676229 18.03425
0.00058280875 2.2624402 4.2125564 19.072001
0.10104787 2.2873971 4.2118273 19.0725
0.46071649 2.284101 4.2371855 19.074499
0.66128552 2.2471118 4.2443857 18.5755
0.75340468 2.2247076 4.2417622 18.076
0.87313145 2.244967 4.2094846 18
1.1344038 2.2007613 4.2099953 18.077999
-0.26992729 2.3064711 4.2565951 19.070499
0.37674382 2.3162084 4.2115312 19.073999
-0.66100234 1.8134644 4.3425646 15.0685
-0.69709122 1.928089 4.3101816 16
-0.46675587 2.2436922 4.3125982 18.0695
-0.37122199 2.2628531 4.3268013 18.07
-0.27381498 2.2702742 4.3156838 18.070499
-0.1840868 2.280797 4.3083191 18.070999
-0.089651212 2.2502027 4.3749743 18.071501
0.37883991 2.20383 4.3756547 18.073999
0.4800165 2.2319343 4.3978195 18.074499
0.58078063 2.2364984 4.3519216 18.075001
1.3819001 2.2216332 4.36622 17.079
0.00061952486 2.1898646 4.4852071 17.072001
1.9860766 2.1112344 4.4910393 16.081499
-0.58056837 2.2363377 4.4474325 18.069
0.049753126 2.2242241 4.4421496 18.07225
0.1931217 2.2104638 4.4623675 18.073
0.29908085 2.2254031 4.443748 18.0735
1.7394555 2.2066946 4.499383 17.0805
-0.19735549 2.1928043 4.5778403 17.070999
1.8779043 2.1027901 4.5153403 16.080999
-0.49088088 2.2256715 4.5435987 17.0695
-0.094136424 2.2010407 4.5530171 17.071501
0.10939245 2.2187572 4.5631437 17.0725
-0.29645911 2.1993906 4.6334467 17.070499
1.5869161 2.1212142 4.6724687 16.0795
1.7468035 2.1315777 4.6414452 16.08025
1.504862 2.1415572 4.7508993 16.079
0.21651807 2.1946962 4.8319998 16.073
1.3129357 2.1749511 4.8907065 16.077999
1.4167143 2.1680419 4.8443451 16.078501
0.32426086 2.2464719 4.8424101 17.0735
0.98506343 2.1703751 4.9447827 16.0765
1.2152573 2.1949103 4.9653363 16.077499
-0.21854287 2.2455435 4.9374661 16.070999
0.4525362 2.1938322 5.0781288 16.073999
1.9453887 2.164788 5.0223041 15.0805
-0.11285026 2.220777 5.0954638 16.071501
0.0006897854 2.2146492 5.0069556 16.072001
0.12134621 2.2028825 5.0745873 16.0725
0.56740218 2.2618783 5.0747709 16.074499
0.65864015 2.2164979 5.0218592 16.075001
0.78985775 2.225667 5.0802736 16.0755
0.90623575 2.2156377 5.0815759 16.076
1.110514 2.2064254 5.0181828 16.077
-0.56957448 1.2214247 5.1789937 10.0695
1.0293022 2.1969264 5.1508193 15.0765
1.8665886 2.1798289 5.1064715 15.08
0.33657596 2.2249804 5.1620631 16.0735
-0.57341319 1.3370818 5.2218947 11.0695
1.7891583 2.0592351 5.255074 14.0795
0.91988987 2.1860559 5.2032957 15.076
-0.11787827 2.2238929 5.3062325 15.0715
-0.47267619 0.99680614 5.4057269 8.0699997
0.11254633 2.1926312 5.4071369 15.0725
0.24418956 2.1970491 5.4633975 15.073
0.35648954 2.197233 5.4205747 15.0735
0.00074818288 2.2197723 5.4406099 15.072
-0.35305238 1.618377 5.5574737 12.0705
1.7769774 2.0974083 5.5942259 14.079
0.60554707 2.1951473 5.5706706 15.0745
0.73325026 2.1683221 5.5557938 14.575
0.49720025 2.2016165 5.5595756 15.074
1.6616412 2.0884469 5.6636333 14.0785
0.13593909 2.1557293 5.6678185 14.0725
0.86465102 2.1746786 5.6143861 14.0755
1.0137298 2.1606352 5.6887498 14.076
1.1291951 2.1538308 5.6477833 14.0765
1.4014142 2.1262486 5.680841 14.0775
-0.36202976 1.1263864 5.721983 9.0705004
-0.12806183 2.1472781 5.7955742 14.0715
0.0007870316 2.1527579 5.7290974 14.072
0.37794748 2.1616557 5.7688169 14.0735
0.50936145 2.1636236 5.7921424 14.074
0.63418144 2.1449642 5.7416568 14.0745
1.2747794 2.1568551 5.7114439 14.077
1.5355425 2.1237922 5.7138853 14.078
-0.50470722 2.1088347 5.881125 14.07
-0.36919066 2.1134887 5.81742 14.0705
-0.24993317 2.1410444 5.8448219 14.071
1.8469969 2.1282907 5.8247757 13.079
-0.62770545 2.2040906 5.808548 14.0695
0.25731599 2.120157 5.989552 14.073
0.3898465 2.1031389 5.977612 13.0735
2.1596377 2.1217616 5.9163222 13.08
2.3215857 2.116873 5.9455886 13.0805
1.2176888 2.0896459 6.0623841 13.0765
1.4903235 2.0968039 6.0908384 13.0775
1.3374085 2.1230876 6.0592642 13.077
1.6205018 2.14485 6.0412173 13.078
1.7795695 2.1234188 6.0639806 13.0785
2.0441241 2.1275094 6.0108008 13.0795
1.1000243 2.0896287 6.1841612 13.076
0.97493798 2.0833218 6.2868223 13.0755
1.7054871 2.0738795 6.3146067 12.078
2.3258595 2.0576768 6.3525839 12.08
0.72411746 2.0715361 6.4929609 12.0745
0.84774017 2.0950992 6.4653726 13.075
1.4502649 2.0507972 6.5061855 12.077
1.6235827 2.1153023 6.5710664 12.0775
0.58985764 2.066927 6.6191535 12.074
0.16262841 2.0757046 6.7858577 12.0725
0.28984636 2.0839279 6.7332253 12.073
0.44797701 2.0338335 6.706995 12.0735
1.1834964 2.0356936 6.7622762 12.076
0.00093463843 2.0583229 6.8252125 12.072
0.00095879822 0.38996643 7.0046277 4
0.94060749 2.0399222 7.0863218 12.075
1.8916892 2.0219545 7.0522232 11.078
0.00097827101 1.1672242 7.1492243 8.0719995
0.00098150584 2.0289962 7.1732454 11.072
2.5932126 2.0690362 7.1630707 11.08
0.00099884067 1.421181 7.3019719 9.0719995
0.65052927 2.0357904 7.4162989 11.074
1.6549215 2.0109522 7.4282098 11.077
1.5139618 1.9924258 7.5860438 11.0765
0.34345853 2.0280273 7.6942792 11.073
2.6358092 1.9582363 7.7803679 10.0795
2.5448122 1.9726505 8.0634804 10.079
1.0673683 1.9647624 8.1445951 10.075
2.3947067 1.9507753 8.1667423 10.0785
0.37044993 2.0327673 8.2968884 10.073
0.93037349 1.9690454 8.3276291 10.0745
2.2562883 1.9395733 8.3825531 10.078
2.0610273 1.9617189 8.4056158 10.0775
1.889627 1.9572191 8.5233355 10.077
0.56811982 1.9542611 8.6980667 10.0735
1.7138104 1.9521717 8.6366186 10.0765
2.9566121 1.9005936 8.6932192 9.0795002
1.9465383 1.8986801 8.707552 9.0769997
1.5475473 1.953602 8.7424145 10.076
2.7977719 1.8847282 8.8173952 9.0790005
2.6064832 1.9282463 8.9103918 9.0784998
1.7763917 1.8954968 9.0201969 9.0764999
0.98378956 1.9344186 9.0434895 9.0745001
2.4725802 1.85302 9.1863518 9.0780001
2.2862148 1.8791301 9.2944164 9.0775003
0.58949339 1.9207882 9.2277164 9.0734997
1.4446294 1.8687578 9.3659821 9.0754995
1.6574661 1.8800997 9.310895 9.0760002
1.2391351 1.8504074 9.5414715 9.0749998
0.85734022 1.8604226 9.7641878 9.0740004
1.3065816 1.8800861 9.9546938 8.0749998
1.998741 1.8519627 9.9996128 8.0764999
1.7735982 1.8740321 10.029798 8.0760002
2.2317781 1.853807 10.15363 8.0769997
2.5380769 1.8552805 10.291288 8.0775003
2.7654574 1.8315496 10.293333 8.0780001
1.5794305 1.7927409 10.303176 8.0754995
0.90832967 1.8117664 10.350171 8.0740004
3.0451772 1.8361176 10.404551 8.0784998
3.3165131 1.8147727 10.462025 8.0790005
1.1816235 1.7739856 10.760969 8.0745001
2.1658149 1.7112253 10.937421 7
2.6513984 1.6817708 13.272058 6
