# .PCD v0.7 - Point Cloud Data file format
VERSION 0.7
FIELDS x y z intensity
SIZE 4 4 4 4
TYPE F F F F
COUNT 1 1 1 1
WIDTH 736
HEIGHT 1
VIEWPOINT 0 0 0 1 0 0 0
POINTS 736
DATA ascii
2.314713 1.2510744 -4.0686293 12.12725
2.6171732 1.3063493 -4.0956993 12.125999
2.9530895 1.3791157 -4.0556874 12.1245
4.4593353 1.4622121 -4.010684 11.1195
3.5964382 1.941044 -4.1538415 14.1225
3.7955585 1.9884217 -4.1982212 14.122
4.175487 1.8441882 -4.3349319 13.12125
5.7805538 1.6644675 -4.1625257 10.117
6.0670204 1.7180469 -4.1819687 10.1165
3.9529927 2.0275683 -4.2140641 14.1215
4.1282206 2.0683684 -4.2159882 14.121
5.1144814 2.3286529 -4.3986702 14.119
5.2666588 2.3059084 -4.1609225 14.118
8.6408558 2.1679606 -4.2918205 10.11325
8.8880672 2.1681948 -4.0563436 10.1125
12.567309 2.0488553 -4.3519344 8.1105003
-2.4900908 2.4391651 -4.1051555 18.012501
2.1683502 1.3755367 -3.7224998 14.127
2.6812794 1.4023832 -3.8321443 13.125
3.0617814 1.3644278 -3.7803845 12.12325
3.2595193 1.3574156 -3.7792113 12.1225
4.8264127 1.4912698 -3.98895 11.1185
1.3621519 1.8298383 -3.6575527 18.13125
1.8164549 1.7328624 -3.8695621 16.4625
2.2086277 1.7545037 -3.9810748 15.627501
2.5901413 1.7525535 -3.9746754 15.12575
2.8649774 1.7630041 -3.9424577 15.1245
-2.5100522 2.122606 -3.7494965 17.0135
1.7247553 2.3393109 -3.8100965 20.629499
2.2659445 2.3152919 -3.646523 20.126249
4.1693864 2.3321028 -3.6121216 16.118999
5.493289 2.2706442 -3.9746103 14.117
5.7238116 2.2528312 -3.7897022 13.116
9.1026964 2.1457057 -3.7892418 10.11175
9.8739643 2.1174493 -3.848717 9.1112499
1.9133025 2.4883025 -3.8096845 21.1285
2.0158617 2.528347 -3.6585138 22.127501
2.4511733 2.4440057 -3.6053405 20.62525
1.5487615 0.50624442 -3.2164936 8.1289997
3.5272002 0.73398018 -3.394165 8.1202497
3.7097261 0.75120449 -3.3571832 8.1195002
1.4710155 0.916255 -3.2461841 12.1295
1.8301423 1.064063 -3.2555764 12.877375
2.0878861 1.1773949 -3.2669499 13.126
3.5265815 1.0727139 -3.3997321 10.12025
3.7433186 0.93139976 -3.2764418 9.1191254
2.3679762 1.2981699 -3.2652071 14.1245
2.8821018 1.577659 -3.3553762 15.1225
3.3921711 1.4278992 -3.2139795 12.786667
0.95123005 1.7096127 -3.2495856 19.383062
1.4449561 1.7617776 -3.3175569 18.879875
1.6999184 1.8070588 -3.3586338 18.628416
2.3491683 1.9832225 -3.5297534 18.1255
3.0937622 1.7439376 -3.3959901 15.414666
3.3622656 1.8403692 -3.3218625 15.547
2.6778023 2.0690169 -3.499166 18.373875
2.9741907 2.1768925 -3.388051 18.108776
3.3815777 2.1952572 -3.2902553 17.746834
3.766736 2.352289 -3.2763188 18.118999
4.3367262 2.232368 -3.5174305 15.61825
4.6405859 2.3277431 -3.4407737 15.9172
4.8734474 2.3363304 -3.2941086 15.4495
5.3864403 2.3177352 -3.4156778 14.6155
5.7872334 2.2755146 -3.3268232 14.114499
6.1653824 2.23578 -3.5218613 13.114499
6.5339274 2.2463467 -3.367173 13.1135
9.3409243 2.1124907 -3.4424338 9.6107502
-2.0567856 2.4948485 -3.569113 20.011999
-1.5594933 2.5477238 -3.3394239 22.01
1.5804306 2.4726927 -3.3218477 23.129
1.827213 2.4820819 -3.302321 23.127501
2.1298873 2.5119424 -3.3654485 22.525999
2.558862 2.495827 -3.3331451 21.5238
2.9490745 2.4022541 -3.2417784 20.12175
4.2804222 2.4219022 -3.4109757 17.118
1.8599571 0.35814977 -3.151993 6
1.4990155 0.73205453 -3.0493107 10.37875
1.8171149 0.73459077 -3.0772164 10.058666
2.1630676 0.65805376 -3.0395722 9.0996504
2.5165398 0.59319603 -3.0655169 8.1230001
1.8219497 1.1516987 -3.1324692 13.969999
2.2305551 1.1771159 -3.0746412 13.1245
2.4140575 1.1928761 -3.0689769 13.1235
0.99138033 1.5150689 -2.9957213 18.63225
1.4909705 1.5101981 -3.1100264 17.462292
1.8065395 1.450195 -3.0769217 16.366209
2.2170606 1.3490598 -3.0606411 14.8745
2.4732335 1.3427131 -3.0726256 14.12325
3.6985984 1.3579477 -3.1469803 12.11875
4.0926886 1.3935057 -3.1169467 12.1175
0.78723472 1.9731158 -3.0943885 22.134001
0.96571803 1.8527585 -3.049464 21.440229
1.3308074 1.8151067 -3.0247636 20.466724
1.72466 1.7268823 -2.9757345 19.627001
2.1133337 1.7373314 -3.0109367 18.124834
3.4336798 1.6212888 -3.1811571 14.11975
11.431051 1.988225 -2.8243818 8.1134996
0.73928106 2.0261998 -3.1571715 23.134501
0.99080896 2.0145588 -2.9678683 23.132126
1.324664 2.0699155 -2.9428515 22.879562
1.8103464 2.2129483 -3.0428898 22.626751
2.6264942 2.2761643 -3.1986876 20.122999
3.1955819 2.3585012 -3.1708357 19.120501
3.3285408 2.3683543 -3.0261524 19.369438
3.7489736 2.350445 -2.9683292 18.7845
4.2258482 2.3662891 -2.9635379 17.116501
4.6253438 2.2942567 -2.9156349 16.448668
4.8405542 2.2726469 -2.8168941 16.1145
5.3470573 2.2979376 -2.9389191 15.113999
5.7777863 2.2919497 -2.856612 14.113
6.1048393 2.2598679 -2.9343922 13.11275
7.1412687 2.2393334 -3.1266601 12.112
7.3594875 2.1993446 -2.9243226 11.61125
8.7362728 2.1862936 -3.0216384 10.11025
9.7471933 2.0917706 -3.1096768 9.1097498
10.010994 2.0496597 -2.8333597 9.1090002
11.604435 2.0431111 -2.9738905 8.1084995
2.2694049 2.4982293 -3.0146456 23.124001
2.655009 2.496989 -3.0200565 22.050678
3.0176556 2.4573359 -2.995317 20.987133
3.3411641 2.4162409 -2.9293482 20.118999
19.340401 0.21761954 -2.4795082 2
-1.7979752 1.7877101 -2.6275501 20.011002
3.5986309 2.3427534 -2.6753469 19.117001
3.7905636 2.3403268 -2.5207298 19.11578
4.5755992 2.3443975 -2.6751034 17.1145
4.8641005 2.2997313 -2.5437026 16.513401
5.450963 2.2211843 -2.4867246 14.61225
5.740315 2.2971523 -2.6375492 14.445666
6.3004723 2.2435985 -2.6935222 13.11175
6.520453 2.2102292 -2.4012301 13.1105
8.5311375 2.1629951 -2.4752707 10.61175
9.3405704 2.1630685 -2.4463985 10.1085
9.9803123 2.0304589 -2.572839 9.1137505
10.179786 2.033181 -2.639667 9.1084995
10.731793 2.0387478 -2.5259902 9.1079998
11.524846 2.0494351 -2.7080672 8.1079998
2.7549772 2.484235 -2.61288 22.786501
3.0890923 2.4844077 -2.6258593 21.86854
3.4226747 2.4194582 -2.5605814 20.367062
-1.3557963 0.53981966 -2.0694599 10.011125
10.615375 1.9933171 -2.2713726 8.1075001
11.535723 1.9313477 -2.3200727 8.1125002
11.763986 1.9038646 -2.0952597 8.1120005
3.8099639 2.3682227 -2.1955063 19.6975
4.1343689 2.3206086 -2.1608672 18.113251
4.5407195 2.3278897 -2.0653768 17.612
5.0674944 2.2588537 -2.2188027 16.11175
5.3985801 2.3037815 -2.2145123 15.11125
6.1517138 2.2660334 -2.1990049 14.11025
6.6603422 2.2141004 -2.2878397 13.11
6.9682679 2.2101662 -2.1576271 12.4445
7.4374437 2.1893067 -2.3355832 12.1095
7.7719784 2.1548085 -2.0791931 11.1085
8.6748352 2.1214337 -2.213737 10.111
8.8009462 2.0937641 -2.1456475 10.1135
10.42905 2.0166554 -2.1909773 9.1127501
11.016337 2.0091686 -2.1154225 8.1070004
2.7764318 2.476125 -2.3716977 23.1185
3.0946214 2.517942 -2.2117283 23.116375
3.4754844 2.4374723 -2.3513272 21.115875
-1.6418657 0.26058742 -1.7885698 6.2572498
-1.5918638 0.3521274 -1.7571561 8.0150003
-1.637917 0.58060586 -1.7925014 10.681708
-1.5279652 0.58524817 -1.7774192 11.139406
-1.6385511 0.8339299 -1.767859 14.01525
-1.5385066 0.90994316 -1.7502583 15.681359
0.7089119 1.1541891 -1.6082425 22.134501
-1.393929 1.4184929 -1.7100468 22.014
0.6223222 1.2969774 -1.707531 22.698467
6.2936649 1.7316962 -1.6855729 11.114
11.099158 1.9700248 -1.6987305 8.1114998
3.9294257 2.3575349 -1.9658816 19.612751
4.0997648 2.3248708 -1.7429512 19.11125
4.6029353 2.316184 -1.867257 17.361
4.9893541 2.3200929 -1.7458709 16.7122
5.3897567 2.2840652 -1.7499053 15.444667
6.2273636 2.2309268 -1.7843018 13.511
6.5412235 2.219559 -1.790019 13.11125
6.9494896 2.187695 -1.7981921 12.111
8.2103424 2.1573131 -1.7675577 10.775833
8.4186535 2.1062841 -1.6914299 10.1125
8.8985081 2.1867151 -1.8524766 10.10725
10.397009 2.0070634 -1.8414069 9.1120005
10.446044 2.0258098 -1.6113698 9.1114998
11.037724 2.0517631 -1.8869295 8.1064997
3.881824 2.4198966 -1.722912 20.361563
-1.7096446 0.25528905 -1.3169768 6.7114501
-1.7302461 0.61261874 -1.3702159 11.79016
-1.5138352 0.61975884 -1.4366219 12.562637
-1.6330117 1.0438038 -1.3540598 18.072111
-1.575737 0.96464539 -1.3815398 17.268124
0.75655574 1.0152816 -1.4525806 20.577417
0.81519794 1.1197444 -1.3409851 23.1315
-1.4965569 1.4251696 -1.4027144 23.017418
0.71653354 1.2656217 -1.5580246 23.134125
11.06599 1.9944508 -1.4788952 8.1110001
2.4914021 2.0041423 -1.2317674 23.1185
3.9561892 2.3378081 -1.4851253 19.116249
4.1430736 2.3305969 -1.3666563 19.040838
4.5473871 2.3065715 -1.3795394 17.86025
5.0517178 2.315635 -1.4833794 16.445917
5.3940315 2.2820866 -1.3516721 15.611667
5.7202587 2.2656779 -1.414133 15.10775
6.16046 2.2587271 -1.43286 14.107501
6.5549331 2.2074552 -1.3913567 13.110499
6.95082 2.2063956 -1.4381659 12.36125
7.6640315 2.167685 -1.4603001 11.60675
8.7068367 2.1242063 -1.5491773 10.112
8.8323812 2.1023281 -1.3557408 10.1115
10.316968 2.0037718 -1.3573018 9.1110001
10.525187 2.0474658 -1.4563961 9.1057501
11.287575 2.0184302 -1.4002302 8.1055002
3.1676681 2.4427724 -1.4746265 23.113832
3.4077687 2.4498684 -1.2902601 22.684143
3.8001623 2.4593227 -1.3696983 21.236313
4.0195317 2.4220266 -1.382797 20.109501
-1.7527937 0.33273044 -0.98369014 7.9737134
-1.5728806 0.31554595 -0.92184454 8.5229158
0.74141634 0.29747182 -0.86176658 10.894358
1.7006536 0.37299091 -1.1082524 8.6212502
-1.7440426 0.60547543 -1.0309297 12.212887
-1.5623293 0.66508228 -0.98576546 14.02225
0.74454373 0.62652129 -0.93891585 18.084785
0.84440827 0.51576108 -0.80988401 16.1255
1.5328674 0.71549618 -1.0743952 14.122
1.6475313 0.69539845 -1.0823905 13.788
2.0531855 0.40018234 -1.1285309 8.1195002
-1.7640408 0.96578723 -1.0287904 17.045908
0.78261584 0.85586405 -1.0559343 21.796
0.80755514 0.88410252 -0.88099539 23.127001
1.5135152 1.0359381 -1.0454296 19.188499
1.6256369 0.97623777 -1.0476182 17.621124
-1.8371649 1.3370544 -0.98876351 21.103666
-1.568025 1.3073372 -1.0253414 22.736071
1.4516881 1.3065153 -0.99407297 23.12175
10.300563 1.991896 -0.92440885 9.1099997
10.644023 1.9241858 -1.1657454 8.1105003
10.884039 1.9273521 -0.9482215 8.1099997
11.435081 1.9877987 -1.0515687 8.1047497
12.761344 1.8751179 -1.097397 7
3.1108246 2.376699 -0.94621503 23.11475
4.2207608 2.324002 -0.99925429 18.929819
4.6030622 2.2912579 -0.96120095 17.858126
5.0094328 2.297853 -0.93393004 16.612249
5.3902059 2.299629 -0.97425556 15.745773
5.8712916 2.2477612 -1.0502474 15.10625
6.1316128 2.2700651 -1.0262501 14.106
6.7113857 2.2151437 -0.97783625 13.106999
6.9385862 2.1875672 -0.93398684 12.10825
8.6733818 2.1390493 -0.94813865 10.1105
8.9614363 2.1239483 -1.0542331 10.108833
10.3361 2.0148914 -1.1124815 9.1077499
10.41614 2.0497055 -0.87509412 9.1044998
3.0611832 2.4218132 -1.1075342 23.115999
3.521101 2.4383168 -0.98439121 22.113167
3.7738829 2.4569094 -0.98965436 21.473501
4.0684967 2.4229887 -0.94367784 20.440332
-1.8216436 0.3234925 -0.66999507 7.7165999
-1.5580901 0.30509374 -0.54871994 8.5691881
0.75476658 0.38186723 -0.78974265 13.1265
0.82620203 0.28569138 -0.7902261 10.6255
-1.8013436 0.60767102 -0.59580815 12.604535
-1.5733036 0.54243994 -0.53940505 12.902687
0.76063377 0.56937194 -0.78923339 18.126417
-1.7459323 1.0232884 -0.65011656 18.829687
-1.5822095 1.1152571 -0.58414721 21.307596
-1.8383034 1.3374084 -0.62885153 22.273874
-1.5594761 1.2340859 -0.62077904 22.854332
10.286612 1.9846791 -0.56996107 9.1092501
11.392393 1.9274403 -0.60445559 8.1065006
11.710012 1.9615595 -0.44252867 8.1035004
3.1336846 2.3694456 -0.69985741 23.112999
3.3140035 2.3922842 -0.51263142 23.1115
3.9273558 2.391958 -0.74161381 20.112249
4.127593 2.3380721 -0.60756975 19.259499
4.5064001 2.2739997 -0.57156539 17.983562
5.0544333 2.335155 -0.61617738 17.106251
5.4009876 2.2976248 -0.60368639 15.886333
5.7543888 2.2461476 -0.60407579 14.8545
6.1056461 2.240448 -0.76517195 14.105
6.5101385 2.1906285 -0.57002109 13.110001
6.9760971 2.1702476 -0.55774635 12.607
7.230092 2.1988401 -0.66070801 12.10725
7.6923203 2.1452928 -0.59519392 11.10975
9.2763062 2.0573175 -0.61978352 10.1095
10.300165 2.0308909 -0.52905071 9.1037502
3.4180984 2.4312894 -0.62234473 22.9095
3.8299055 2.4491763 -0.60845351 21.471159
4.077136 2.4122868 -0.60173601 20.355
5.1674914 2.4010336 -0.45332435 17.110001
-1.9001759 0.33786038 -0.19022124 8.3384762
-1.4537026 0.31824002 -0.24824193 9.2058096
1.1837891 0.22541 -0.29209492 9.6036243
1.2540178 0.034035347 -0.098630659 3.1666667
-1.8996757 0.57290453 -0.18475826 12.011889
-1.4853463 0.60736883 -0.18240258 14.400961
1.2613144 0.5029403 -0.14626101 16.60075
-1.8122452 1.0020267 -0.21818137 18.780306
-1.5427227 0.98298037 -0.13715556 20.083906
2.3652325 0.8036412 -0.0086893439 14.1005
3.3838825 1.0089551 -0.063832186 12.435
-1.7868494 1.2786996 -0.2341017 22.591375
-1.5383443 1.223478 -0.19482237 23.032333
10.275166 1.9837816 -0.11974642 9.1082497
11.497247 1.8801836 -0.27039978 8.1084995
11.732634 1.870643 -0.015591593 8.1079998
3.4100556 2.3953819 -0.39047265 22.60725
4.1240444 2.3563144 -0.18626618 19.809849
4.5794168 2.2824557 -0.23974414 17.821714
5.1048746 2.3645537 -0.11428519 17.1085
5.3985238 2.2766769 -0.22096576 15.775584
5.6968298 2.25734 -0.18798569 14.85725
6.261425 2.211796 -0.14451227 13.6085
7.359992 2.1319854 -0.1649828 11.6085
7.8011909 2.1752486 -0.16832994 11.1085
3.5503461 2.4275732 -0.19308461 22.605877
3.7695367 2.4605122 -0.1930823 21.805002
4.0926566 2.4158518 -0.34399539 20.1035
-1.7520916 0.31416136 0.18303199 7.9942002
-1.3623174 0.39699861 0.20579195 11.03825
1.1603209 0.23524559 0.082997397 9.8955002
1.3047482 0.27791414 0.23238516 9.7605
2.1710298 0.24853042 0.19776437 6
-1.7922374 0.61152035 0.17747906 13.241158
-1.4430215 0.63244247 0.2133774 14.571367
1.157353 0.7102294 0.12849237 21.427834
1.3617538 0.53368473 0.26132676 14.89375
1.978418 0.70178396 0.30799699 14.096168
2.1182714 0.65504998 0.21119352 12.740517
2.4172943 0.60009515 0.1983991 11.0985
-1.779548 0.99937642 0.198477 19.060368
-1.5031711 0.98528957 0.17890012 19.782181
1.5263839 1.0959196 0.29438242 23.094248
1.9011085 0.98081744 0.29649055 18.720968
2.0515442 0.87705737 0.22964294 16.09725
3.2411389 1.1680517 0.15607214 14.1
-1.7914943 1.2281873 0.020905536 22.036251
-1.4788095 1.2234048 0.25241441 22.87179
1.8329338 1.2960968 0.30583143 23.095501
3.2038443 1.2884957 0.018279076 15.101
3.0704789 1.7397293 0.15658006 19.799999
10.976568 1.9192245 0.2481247 8.1075001
3.152616 2.3651006 0.34756508 23.105499
4.1479821 2.3105118 0.19771768 19.238167
4.9194322 2.2846878 0.19307013 16.907101
5.3670068 2.2879446 0.22839744 15.773666
5.7982464 2.2186837 0.25219199 14.607
6.0444407 2.2051528 0.14063853 14.1075
7.4245434 2.1839578 0.14627813 12.1075
7.6952267 2.1155634 0.25396451 11.10725
9.4789553 2.0131233 0.1940033 9.1075001
3.5114915 2.5214872 0.19050194 23.10675
3.8097155 2.4737635 0.16133948 21.440332
-1.6765714 0.29339844 0.57643926 7.7982497
-1.4700993 0.39816928 0.49956828 11.0435
-0.51009911 0.21954674 0.56926244 9.718751
-0.37158415 0.22701736 0.66951519 9.3890839
1.422561 0.32620263 0.52476984 9.4654999
1.661521 0.28627819 0.75993997 8.0895004
-1.6982675 0.62366563 0.62605852 13.35809
-1.4216195 0.65065449 0.55061275 14.44485
1.4610144 0.60899329 0.53603971 14.840601
1.6301737 0.60074908 0.70272732 13.423249
-1.7167183 0.94121355 0.59452868 17.938419
-1.4414828 0.99361306 0.61734062 18.930622
1.4642361 0.93726212 0.56148946 20.090284
1.7436607 0.82829636 0.58153284 16.091875
-1.6488613 1.2519945 0.62486064 22.5443
-1.4027871 1.2458955 0.60055488 22.745428
1.5181118 1.2421789 0.70316219 23.088999
9.1290789 1.7900305 0.41595361 9.1070004
3.048008 2.3125682 0.57642215 23.10375
3.9610195 2.3658633 0.59694242 20.104561
4.184339 2.281245 0.64094472 18.8545
4.9418883 2.2643447 0.56161219 16.5054
5.2446761 2.2491751 0.58080608 16.105499
5.7014008 2.2175879 0.59105372 14.855624
6.0498428 2.1771672 0.65798843 14.1055
6.7151809 2.1905775 0.73212492 13.1055
6.8750095 2.1898985 0.59529018 12.106
7.479794 2.1604342 0.49240053 12.1065
7.8613749 2.0982838 0.49698162 11.1065
8.0188541 2.1162333 0.69576019 11.106
9.2771711 2.0625608 0.41954285 10.107
3.791631 2.4205546 0.66679668 21.104
-1.6179533 0.20428522 0.97616333 6
-1.5856302 0.15471023 1.1209743 5
1.4670947 0.37354386 0.9380728 9.0862503
1.6449987 0.27552667 1.007852 7.0713615
-1.6458549 0.60468811 0.89172941 12.754054
-1.348536 0.60106796 1.042828 12.256317
1.5397873 0.65893465 1.062264 13.08575
1.630532 0.58313948 1.0000116 11.971025
-1.6231666 1.0300425 0.89243364 19.19175
-1.3510367 0.97840512 0.95905912 17.965961
-1.1710713 0.9655062 1.1865187 17.6
1.4920703 0.93220723 1.0421237 17.520304
1.6119978 0.92465878 0.872585 17.587999
-1.407568 1.2815753 1.0059562 22.045107
-1.196569 1.2202915 1.0393963 21.049
1.4626857 1.2459942 0.96484727 22.335938
3.0452442 2.3291464 1.036335 23.1005
3.9702249 2.3268125 1.0116675 19.227251
4.2011962 2.2394407 0.97976172 18.102749
5.1600413 2.2627914 1.0172737 16.1035
5.3806968 2.2417123 0.94489145 15.104
5.9232564 2.1928625 0.98067296 14.10425
6.1158919 2.1970558 1.0348474 13.770833
6.4985695 2.2232287 1.0024127 13.1045
6.8922687 2.1826663 0.9179666 12.105
3.3641376 2.4342339 0.98885423 22.434752
3.6894488 2.4301505 0.85597789 21.102751
-1.433867 0.31489152 1.3864597 7.3448057
1.474869 0.34061128 1.2959833 7.6664
4.4895034 0.21919721 1.5607388 4
-1.4202989 0.57522476 1.3503321 10.930789
-1.1358893 0.73115456 1.4179156 13.234583
1.5047071 0.54324567 1.3425062 10.821334
1.6220958 0.56739104 1.3324143 10.584249
4.5191784 0.71666622 1.5583905 7.5502501
-1.3486196 1.0662823 1.3920709 18.207449
-1.0955991 0.94655752 1.4111503 16.45134
1.3372463 0.92795688 1.2832662 16.915499
1.6726937 1.1792688 1.5842848 17.083
4.3417883 1.0618749 1.5871248 10.1
4.4971299 1.065425 1.5158116 10.1005
5.7096148 1.0038948 1.3264847 8.1027498
-1.3384714 1.3659059 1.3880341 22.169552
-1.092577 1.3658131 1.379474 21.802532
1.5310887 1.4584951 1.4845121 21.0825
1.6445613 1.5032271 1.4418987 21.750334
5.5692677 1.3460984 1.3590267 10.1025
5.4909115 1.9477868 1.405712 13
3.060251 2.3802955 1.3935028 22.764875
3.8634109 2.3197694 1.369735 19.412687
4.1645789 2.2256129 1.3697443 17.9007
5.1186438 2.2403722 1.4038526 15.851875
5.4415627 2.1708207 1.338146 14.581999
2.9187069 2.4047804 1.5981389 23.0965
3.4636395 2.4151373 1.5189601 21.265167
3.6693091 2.4146836 1.3812159 21.099751
-1.3113096 0.33205125 1.7484934 7.4208002
1.3614252 0.38140264 1.6830201 8.0799999
2.7997034 0.11882199 1.9981796 4
2.9037316 0.21806583 1.9463092 4.5
3.3426485 0.17929715 1.8148533 3.5
4.2026157 0.23162176 1.7098988 4
4.4056296 0.24484482 1.6145347 4
-1.2960063 0.60288996 1.7846583 11.309201
-1.070544 0.75865668 1.7772671 12.932899
1.3419342 0.44158709 1.8580451 8.0790005
1.729472 0.56845367 1.8575064 9.3318748
2.7928162 0.67762256 1.9922527 9
3.0303357 0.66865653 1.9085944 8.4464998
3.2683041 0.70946068 1.8463469 8.730834
4.2250714 0.67769349 1.7179306 7.4000001
4.4052277 0.64883715 1.614946 7
-1.2934685 0.94806856 1.7413743 15.918107
-1.0958713 0.97891396 1.8287479 15.771584
1.695395 1.0269961 1.810426 14.831876
2.7728386 1.0133753 1.9799902 12
3.0479834 1.0345058 1.9099152 11.6162
3.2123711 1.0546825 1.8940403 11
3.8972249 1.0127558 1.8397671 10.073375
4.1410127 0.9457854 1.7559152 9.1111107
4.4306178 0.99878824 1.6138582 9.1000004
-1.2452474 1.4127322 1.7073842 21.784254
-1.1097064 1.2763437 1.8126739 19.538252
2.7227552 1.3204699 1.9831442 14.5
2.9585583 1.3818864 1.9442929 14.611889
3.5030742 1.4195105 1.9231912 14.0965
3.858377 1.3861601 1.8656752 12.67375
4.1381993 1.4564389 1.72954 12.571428
4.4180579 1.5337064 1.604423 13.1
-1.2729549 1.7114155 1.6055176 23.0525
2.7254021 1.8953172 1.9983735 19.0935
2.8327005 1.7736413 1.9854387 18.094
3.5248327 1.8828827 1.9671725 16.763
3.8215668 1.813454 1.8658384 15.75
4.1295414 1.7389064 1.7068989 14.75
2.7195337 2.3638537 1.8499339 23.094311
3.0400314 2.387157 1.7518018 22.296001
3.5784214 2.1379499 1.9595412 18.0965
3.8177662 2.2169392 1.7860608 18.190332
2.9873159 2.4117832 1.763133 22.095751
-1.2187126 0.2482288 2.0280828 5.6666665
-1.0064588 0.24278226 2.1729934 5.625
1.7952381 0.20264368 2.2595384 4.8000002
2.2313519 0.1857819 2.2575212 4.1111112
2.5637128 0.18225861 2.1553757 4
2.8121216 0.20537601 2.0157762 4.5
-1.3334374 0.60260415 2.0968862 9.7770004
-1.1116389 0.57004601 2.2109337 9.8179169
1.7688812 0.63285244 2.2851605 9.5349665
2.1826088 0.65560758 2.2975264 8.8302135
2.6029134 0.62412024 2.132915 8.4737988
2.8078644 0.54649478 2.0074065 7.5
-1.3338134 0.94229001 2.2886925 12.55525
-1.1421245 1.0219338 2.1403077 15.146799
1.7866306 0.87579346 2.3819737 11.783625
2.2326899 1.0352823 2.2806659 12.666667
2.5337987 0.99790221 2.1314559 12
-1.0725429 1.4145061 2.1463165 19.058083
1.8057982 1.4301555 2.3002753 16.949499
2.235024 1.3449539 2.239151 15.583333
2.6674573 1.3735671 2.0278432 15.562333
-1.317258 1.8492119 2.1743989 22.057251
-0.99095023 1.8095498 2.3696704 20.558001
1.5171562 1.8154199 2.3484197 20.578251
1.769125 1.8436929 2.2717938 20.403965
2.1253316 1.7943138 2.18244 20.005499
2.6071439 1.7891407 2.0327508 18.4928
3.0884409 1.9294838 2.0203795 18.594749
3.3104327 1.9936395 2.0157895 18.095501
1.5826697 2.0513327 2.3758488 23
1.7847903 2.1218181 2.192801 22.965948
2.1986241 2.1969945 2.1304259 22.756998
2.5561371 2.3439975 2.0951796 23.092251
3.4689205 2.0805576 2.0008614 18.096001
-0.63962781 0.048058677 2.4031651 3
0.00034739834 0.019889582 2.4644222 3
1.8399891 0.29478288 2.6967545 5.125
1.8570446 0.67939943 2.623122 9.0567856
-1.3693855 1.0324823 2.722517 12.056499
-1.0085673 1.0161344 2.5518589 12.793625
1.5269468 0.83638573 2.7718875 10.077
1.7490283 0.99203444 2.4822445 12.666469
-1.2524117 1.5089927 2.5887892 17.55925
-1.0425739 1.387363 2.7092979 16.240562
1.337254 1.483438 2.5896525 17.07625
1.7185645 1.3733048 2.5185869 16.305317
-1.2363822 1.745167 2.4893215 21.0305
-1.1034347 1.7889595 2.6727481 20.616167
1.5953594 1.940042 2.4278672 22
1.6246448 1.8206854 2.4713001 20.5425
-1.2617307 2.0239313 2.4219794 23.061001
-1.107267 2.1693056 2.6747227 22.981785
-0.49936503 2.2688196 2.7959898 23.0625
-0.28800619 2.2616351 2.7346377 23.063999
0.11108848 2.2649028 2.7851896 23.066999
0.70862865 2.2679353 2.7333593 23.071499
1.4828923 2.2974436 2.6301751 23.07975
1.632771 2.3020568 2.6723685 22.581249
0.84338838 0.037517156 3.0124481 3
-1.0156045 0.70885271 3.0834067 9.3022509
1.4595451 0.66341829 2.8793128 9.0762501
-1.2789488 1.0158516 3.0643682 11.058
-0.97015542 1.006448 3.0097053 12.0705
-0.73513269 0.95192975 3.0434663 11.56125
1.791714 1.0505083 2.8851271 12.0815
-0.93957025 1.3231732 2.9377828 14.762186
1.8255078 1.4678346 3.1780334 15
-0.93487346 1.8080294 3.0022318 19.11388
-0.91721326 2.154304 3.0038519 21.802666
-0.61482728 2.2770364 3.0105639 22.648043
-0.20079681 2.2940533 2.9342177 22.664801
0.19244742 2.2933633 3.053324 22.903833
0.62149179 2.2952149 3.0025995 22.761095
0.99964952 2.3399379 2.9599354 22.788319
1.3289529 2.3227284 2.9544163 21.909666
-0.92308605 0.29558051 3.3842046 5
-0.99612445 0.69803238 3.2512901 8.9877777
1.8429968 0.69020784 3.550293 8.0830002
-0.91453719 1.0229039 3.4297342 11.197166
1.8530807 0.96219349 3.524169 10.2915
-1.2302823 1.2453294 3.370774 13.059
-0.86547297 1.4255403 3.3372433 15.0425
-0.74789751 1.435477 3.5737731 14.062
1.8523629 1.3561033 3.4010305 13.16675
-0.84840572 1.692312 3.3623638 16.78075
-0.73626709 1.8472648 3.5067027 17.062
-1.2992893 2.3484063 3.3177254 20.0585
-0.97373968 2.3342948 3.3186793 20.811625
-0.5824793 2.3507452 3.52056 21.399834
-0.23708025 2.3327799 3.3558857 22.470398
0.17447275 2.3128874 3.3682175 22.016665
0.67925304 2.3341191 3.4460068 20.737165
1.0142046 2.3689003 3.4122581 20.906876
1.4374804 2.3577654 3.4592266 20.074833
1.7575766 2.341821 3.4321249 19.912542
-1.4431336 2.7106743 3.2125897 22.557499
1.6173462 2.4110827 3.3561265 20.076
-1.6173074 2.8365128 3.205605 23.056499
-2.4711711 3.3488369 3.5230572 23.053499
-0.71132171 0.65984452 3.7438455 8.03125
-0.73234701 0.98668045 3.7648778 10.17175
-0.71117419 1.2106856 3.8453214 12.0625
-0.86564881 2.2641149 3.7701221 19.564251
-0.52788949 2.3330755 3.8010817 19.509111
-0.24704322 2.3216348 3.8577292 19.629625
0.18562686 2.3371277 3.7729061 19.869152
0.57800388 2.3201318 3.8611674 19.400299
0.94442552 2.300818 3.790926 19.235767
1.3884557 2.2892764 3.7960222 18.769077
1.7429042 2.2839301 3.7601178 18.997583
-0.72083056 2.4100521 3.8601217 20.567749
-0.080278672 2.4066434 3.8997853 21.071501
0.59808272 2.4115338 3.8904247 20.0755
-0.73427582 0.69330835 4.1249776 8.0679998
1.9920057 1.582242 4.0617094 13
2.0027018 1.5844411 4.050921 13
-0.6366812 1.8023355 4.267807 15.415214
-0.32706392 1.7941372 4.2382321 15.57025
1.8572153 1.751702 4.1430459 14.484584
2.0192437 1.7026774 4.0843806 14
-0.53670079 2.2466028 4.2207837 18.058561
-0.21199749 2.23964 4.2454906 17.818102
0.20641139 2.2458124 4.1713381 18.272058
0.61356843 2.2417631 4.2341747 18.232224
1.0130858 2.2606637 4.1222525 18.630436
1.3745544 2.2266212 4.1483088 17.829313
1.768321 2.1026592 4.3160338 16.075001
2.1833038 2.0384767 4.1906972 16.083
-0.89507198 2.1811965 4.6810131 16.0625
-0.54883534 2.2201221 4.5926008 16.816626
-0.22644499 2.1735561 4.5387692 16.668699
0.16132468 2.2153118 4.5114145 17.405209
0.4776822 2.2000651 4.7190313 16.06875
1.0157557 2.1618001 4.6367135 16.071249
1.4518375 2.1203501 4.6264529 16.077002
1.8375599 2.1380742 4.5368023 16.330812
-0.56957448 1.2214247 5.1789937 10.0695
-0.63379693 2.1901131 4.8308921 15.06375
-0.18748516 2.2028382 5.0667615 15.400917
0.19987819 2.2167361 4.9836035 16.2729
0.57970268 2.2300451 5.0887103 15.739415
1.0087544 2.2120605 5.1015601 15.359785
1.3082622 2.1758356 4.9577327 15.8265
1.9059887 2.1723084 5.0643878 15.08025
-0.47267619 0.99680614 5.4057269 8.0699997
-0.57341319 1.3370818 5.2218947 11.0695
-0.35305238 1.618377 5.5574737 12.0705
-0.11787827 2.2238929 5.3062325 15.0715
0.21337138 2.1792619 5.382834 14.882688
0.6032449 2.1563601 5.5157938 14.572299
1.0286522 2.190989 5.2440214 14.572249
1.4597311 2.1750576 5.305223 14.072499
1.7619104 2.1086559 5.4046059 14.077334
-0.36202976 1.1263864 5.721983 9.0705004
-1.0080734 2.070303 5.939568 13.063
-0.58091134 2.112232 5.8347921 13.4666
-0.26326138 2.1200252 5.7920027 13.819625
0.2323672 2.1386876 5.8265796 13.8729
0.58096343 2.1566613 5.7169514 14.072501
0.94994515 2.152348 5.6496482 13.873599
1.4039121 2.135632 5.7020569 14.077499
1.798583 2.110745 5.7922916 13.410335
2.1733067 2.1252494 5.8241267 13.076799
-0.056635275 2.1692059 6.1205077 13.0665
0.23134911 2.1512146 6.2672539 13.0675
1.0374812 2.0864754 6.2354918 13.07575
1.4076151 2.110189 6.0866146 12.875
1.7157072 2.1161973 6.1546488 12.6465
2.1849918 2.0925932 6.1816921 12.57975
-0.058684483 2.1401124 6.4637456 12.0665
0.22623739 2.0798163 6.7595415 12.07275
0.59505612 2.0729079 6.5787721 12.0719
1.0028474 2.084837 6.6130342 12.2722
1.4502649 2.0507972 6.5061855 12.077
1.6235827 2.1153023 6.5710664 12.0775
2.4411595 2.1114943 6.6587596 11.0745
0.00095879822 0.38996643 7.0046277 4
0.00097827101 1.1672242 7.1492243 8.0719995
0.11743134 2.0548935 7.0471859 11.31975
0.94060749 2.0399222 7.0863218 12.075
1.5276792 2.097826 7.1208749 11.0715
1.8916892 2.0219545 7.0522232 11.078
2.5932126 2.0690362 7.1630707 11.08
0.00099884067 1.421181 7.3019719 9.0719995
1.5139618 1.9924258 7.5860438 11.0765
0.24385022 2.0762599 7.2473321 11.0675
0.65052927 2.0357904 7.4162989 11.074
1.7934529 2.0583699 7.3958569 11.073833
2.1606441 2.0618181 7.5673351 10.073
1.8798249 0.47695446 7.906477 4
0.61983597 1.9909658 7.9660072 10.0685
2.6358092 1.9582363 7.7803679 10.0795
0.29658955 2.0236502 7.7454023 10.57025
0.50462961 2.0307703 7.7677727 10.56825
2.5906487 2.0343106 7.7890368 10.074
-0.48889899 1.9676957 8.3465548 10.0655
0.99966991 1.9678384 8.2060871 10.072125
1.4678233 1.9745891 8.2468338 10.07075
2.3254976 1.9451742 8.2746477 10.07825
2.5448122 1.9726505 8.0634804 10.079
0.37044993 2.0327673 8.2968884 10.073
2.5368073 2.0100524 8.2358122 10.0735
-0.22524405 1.947099 8.430687 9.3162498
0.16938502 1.942874 8.619524 9.0672503
0.51670265 1.9366372 8.6568975 9.5707493
1.485682 1.9564865 8.6085758 9.5732498
1.8499919 1.9360237 8.6225014 9.7434998
2.0610273 1.9617189 8.4056158 10.0775
2.5395577 1.9300278 8.5660686 9.0732498
2.9566121 1.9005936 8.6932192 9.0795002
1.9841195 2.009619 8.40588 10.072
2.116195 1.4180025 9.024333 7
0.68131936 1.8820461 9.185895 9.0684996
1.0429094 1.9062488 9.1050472 9.0720005
1.3067164 1.8712928 9.1058817 9.0699997
1.7763917 1.8954968 9.0201969 9.0764999
2.2552516 1.8880229 9.1639462 9.0722504
2.6543741 1.8765509 8.9699926 8.8272505
2.9192367 1.8616571 8.82127 9.0740004
0.69520688 1.4572964 9.246026 7
0.58949339 1.9207882 9.2277164 9.0734997
0.89431357 1.8902452 9.2116632 9.0690002
1.3418822 1.8595827 9.4537268 9.0752497
1.777984 1.8928062 9.2555618 9.0728331
2.2862148 1.8791301 9.2944164 9.0775003
0.85734022 1.8604226 9.7641878 9.0740004
1.3065816 1.8800861 9.9546938 8.0749998
1.998741 1.8519627 9.9996128 8.0764999
2.2484426 1.8045061 9.6489973 8.0719995
0.7247808 1.8977246 10.362606 8.0684996
0.90832967 1.8117664 10.350171 8.0740004
1.5794305 1.7927409 10.303176 8.0754995
1.8439035 1.8741251 10.204542 8.0734997
2.1741209 1.8544816 10.114575 8.0742493
2.6498244 1.8376886 10.312581 8.0760002
1.0851747 1.834455 10.617285 8.0717506
1.4013008 1.8210312 10.587203 7.7131667
1.7001002 1.7709455 10.461454 8.0705004
3.0451772 1.8361176 10.404551 8.0784998
3.3165131 1.8147727 10.462025 8.0790005
2.1658149 1.7112253 10.937421 7
1.9039086 1.667166 11.854849 7
1.9774835 1.6655644 12.368045 6
0.88404155 1.6228759 13.067295 6
1.7597388 1.6374365 12.922045 6
2.6513984 1.6817708 13.272058 6
3.2282841 1.5368507 14.259968 6
2.4602942 1.4365284 15.530904 5
3.5238361 1.5273247 15.651175 5
3.4967682 1.4101557 17.304186 5
