# .PCD v0.7 - Point Cloud Data file format
VERSION 0.7
FIELDS x y z intensity
SIZE 4 4 4 4
TYPE F F F F
COUNT 1 1 1 1
WIDTH 1341
HEIGHT 1
VIEWPOINT 0 0 0 1 0 0 0
POINTS 1341
DATA ascii
3.2519166 0.29072222 -0.84117222 4.5
3.229032 0.5934341 -0.90353721 8
3.4614575 0.5223754 -0.95009148 7
3.3087394 0.68685275 -0.92324179 8.166667
3.3513391 0.88078624 -0.87034971 10
3.4459898 0.87407792 -0.97709042 9.25
3.3788197 1.1011957 -0.89789748 11.5
3.4358535 1.1311829 -0.93045837 11.5
3.248347 1.3275464 -0.82271516 14
3.453424 1.4416814 -0.91272426 13.5
-13.198925 1.6861985 -0.87353516 5
3.4601319 1.669426 -0.92624116 15.5
3.4663389 1.8719975 -0.95731163 16.5
-13.059303 2.1284301 -0.82873678 6
3.3666973 2.0462878 -0.86698902 17.5
3.5192442 2.0599792 -0.9506321 18.25
3.470881 2.2696102 -0.88918245 20.25
3.3367829 2.4006658 -0.89514017 20.5
3.0873413 0.12871093 -0.70892733 4
-1.0029992 0.22813295 -0.74989676 3
-0.93531382 0.38400489 -0.7625134 4
3.1118608 0.25482506 -0.71686661 5.5
-0.42087764 0.50691366 -0.62139094 18
3.1507869 0.47805595 -0.70649052 6.75
3.2890272 0.51324934 -0.68909812 6
-0.94200051 0.73540193 -0.70990825 6.25
3.0988829 0.71865326 -0.61965299 9.5
3.2580235 0.68446416 -0.68518424 7.5
3.1113429 0.88777208 -0.6097694 11
3.4091165 0.83889294 -0.72276413 9
-0.87859547 1.152382 -0.69334865 9
3.0835364 1.115309 -0.60010237 13
3.2477665 1.0564213 -0.71069044 11.25
3.2443714 1.2650828 -0.70988286 13.25
3.4561884 1.2218758 -0.78442466 12
3.1601062 1.4778376 -0.6847567 16.5
3.3679466 1.4990376 -0.70283395 14.25
3.3315177 1.6716187 -0.70403641 15.25
3.3865325 1.8870547 -0.70048928 17.5
2.9749587 0.16385241 -0.44110364 4
3.0770073 0.16975573 -0.56413841 4
2.977977 0.25562385 -0.49188215 5.5
3.1087379 0.37397483 -0.56960678 5
2.9745371 0.45719761 -0.5108332 7
2.9821594 0.62113106 -0.52222663 8.5
2.983397 0.88993794 -0.45792878 11.25
3.094115 0.90417272 -0.45585823 10.333333
3.0672452 1.0484505 -0.50411946 11.5
3.2251778 1.0754929 -0.5538764 11
3.0933592 1.301158 -0.5700959 15
3.0732079 1.4003403 -0.50526887 16
3.1366675 1.7099092 -0.5768261 18.5
3.2972627 1.7815387 -0.56805038 16
3.3256679 1.9198215 -0.52376592 17
3.2722759 2.057601 -0.52213085 18.166666
3.2784512 2.252315 -0.44811285 20.25
2.9070091 0.18476623 -0.29133058 4.5
2.9719088 0.39844078 -0.35633135 6
2.9065282 0.49690911 -0.26438701 7.5
3.109426 0.49989969 -0.36308074 6
-0.64894235 0.6059013 -0.22402835 20
2.9131429 0.69419074 -0.26844704 9
3.1364143 0.70751095 -0.35207844 7.5
2.8813496 0.8919785 -0.22723931 11.25
3.1338573 0.90186346 -0.35365045 9.5
2.9719908 1.1177235 -0.36488479 13
3.0752914 1.1644188 -0.32667232 11
3.0964439 1.3508577 -0.28406271 12.666667
2.9189241 1.4228152 -0.20412534 16.5
3.0558679 1.5131384 -0.29637468 16.333334
2.9735124 1.7040553 -0.31941295 19
3.1140225 1.6434768 -0.30628872 15
3.2170148 1.6948535 -0.29083669 15.5
2.93294 1.8471286 -0.20944655 20.5
3.0882282 1.8937601 -0.31060416 18.833332
3.1355171 2.3688154 -0.24810874 20
3.2359436 2.3537579 -0.39968061 21
2.8684592 0.091733724 -0.11283976 4
2.9102757 0.21288143 -0.167063 5
2.7837915 0.43405187 -0.016582251 7.5
2.9205117 0.54676837 -0.036132514 8
3.0236084 0.51108778 -0.026002824 7.5
2.8689065 0.69530517 -0.059212357 8
3.048254 0.72468966 -0.19616251 9.833333
2.9243612 0.90968347 -0.11172223 10.25
2.9172456 1.0605593 -0.092826329 12.833333
2.9005013 1.2891399 -0.12765247 14.166667
3.028758 1.3628191 -0.069027424 13
2.8780665 1.4270415 -0.10835591 17
2.862622 1.6916134 -0.10670975 19.25
2.9584363 1.8510646 -0.16824412 16.5
3.1005142 1.8305836 -0.19595051 16.5
-1.15617 2.8151073 -0.04831481 21
2.7949421 0.030036949 0.0019646883 3
2.8431218 0.09742029 0.1067119 3.9000001
2.7773671 0.25194308 0.098317094 5.5
2.8361359 0.31857422 0.16069888 6
2.6435633 0.51591855 0.18206835 7.5
2.8599608 0.50396967 0.1350368 8
2.7847028 0.62255734 0.0077762604 9.5
2.9314334 0.67520338 0.07305333 9
2.775212 0.85136837 0.03936708 11
2.92062 0.86447263 0.13769142 10.666667
2.864229 1.080898 0.083951816 12.75
2.8934216 1.3498981 0.11032248 12.75
2.691726 1.5780443 0.19052088 19
2.9114523 1.4603959 0.11971092 13.5
2.7473719 1.6190428 0.04702881 18.5
2.9334638 1.700151 0.12277436 16.25
2.9308214 1.8041803 0.01737622 21
2.873862 2.0022542 0.036374576 22
3.037328 2.0634165 0.0037341118 18.5
3.0270588 2.2716601 0.033905506 20
3.0134692 2.5212924 0.13548958 22.25
-1.1301444 2.9223552 0.061078787 22.5
2.7594552 -0.029694196 0.30720562 3
2.4839351 0.16844909 0.39222705 4
2.6721249 0.10885853 0.26973906 3.8333333
2.8161411 0.052765194 0.30489379 3.5
2.5061648 0.29492801 0.39308596 5.5
2.7053421 0.27028021 0.27597868 5.6666665
2.8082566 0.25323832 0.27546144 6
2.7579873 0.47350249 0.26992556 7.2777772
2.823462 0.56751823 0.27695253 8.5
-0.89881581 0.6284802 0.37692964 19
2.6809847 0.69925952 0.2373479 9.7777777
2.8718755 0.69796902 0.20888257 10
2.7262185 0.9157033 0.33376208 12.333333
2.7866609 1.1919354 0.23691207 15
2.8576245 1.1016767 0.24180326 14.3
2.6913786 1.2635684 0.35508657 15.166667
2.8552103 1.2829392 0.22296321 13.75
2.7004566 1.5050907 0.32486141 17.75
2.7437871 1.7606453 0.31678429 19.200001
2.8657057 1.6475813 0.24647307 14
2.6857858 1.8663819 0.20524454 21
2.8818481 1.8772168 0.35612002 17.166666
2.815568 2.0963562 0.29493517 19.333334
2.9391217 2.5174026 0.34572417 22.25
2.6389039 -0.013002234 0.47681552 3.5
2.5405288 0.11819015 0.54227704 4
2.679925 0.15785682 0.48870927 4.75
-0.95714921 0.27937829 0.40691695 11
2.5376427 0.23407912 0.56313229 5.8333335
2.6842721 0.28932768 0.4922483 6.25
-1.0135252 0.55618423 0.58281147 18.5
2.5378149 0.48893845 0.47361532 7.6666665
2.7124009 0.40757039 0.41546869 7.5
2.7056844 0.63504595 0.50568962 9.833333
2.5338099 0.87552059 0.45981455 11
2.7143557 0.80246699 0.49763811 11.5
2.5627775 1.1282417 0.52906036 14.5
2.709692 1.0608596 0.47789827 13.75
2.5134664 1.2268511 0.53853786 14
2.7612641 1.3214469 0.47014862 16
2.5946586 1.5424212 0.42356968 17.5
2.7276459 1.5217323 0.51228517 18.666666
2.805985 1.4794545 0.43358359 18
2.5439804 1.7231658 0.56630838 19.5
2.7533762 1.7518443 0.50583124 19.166666
2.6852951 1.9035556 0.45709014 21.875
2.6996529 2.1016817 0.55378175 21.25
2.7383137 2.3114738 0.52169585 20
2.3577459 0.11531822 0.66297197 4
2.5433595 0.065580115 0.71603715 3.5
2.3304348 0.2999413 0.74752164 6.166667
2.4659712 0.28471798 0.69199675 6
2.624172 0.23720479 0.70697886 6
-1.1213238 0.54953158 0.71082395 16.757143
2.3690691 0.46491155 0.66710591 8.5
2.4949353 0.47216254 0.70455408 7.5
2.6057203 0.40939918 0.64602631 7.5
2.3854589 0.7012592 0.67622906 11.5
2.4049087 0.63408643 0.66510719 9.5
2.6024787 0.62456179 0.76646096 9.5
-1.2937564 0.84840053 0.69255292 12.5
2.3765771 0.81578994 0.73721141 13
2.5043743 0.85241175 0.64117467 12
2.6910505 0.89580202 0.64735758 12.25
2.3776627 1.0385971 0.74987292 13.5
2.5385816 1.0586463 0.67427295 13.625
2.6326578 1.1984131 0.77681112 15.5
2.3875542 1.3945884 0.79116082 16.5
2.5366454 1.3118502 0.71425444 16.5
2.6330612 1.2956687 0.70211589 16.799999
2.6033051 1.4891279 0.66641915 19
2.5346496 1.6829199 0.72059846 20
2.6449919 1.6913575 0.71353996 20.5
2.5059891 1.9407222 0.75561094 21
2.6358132 1.8994067 0.73747277 22.5
2.4638429 2.0474539 0.77466905 22.5
2.6775038 2.0113883 0.60019153 23
2.3758175 0.1178633 0.9240551 4
2.1991098 0.20036983 0.90249777 5.5
2.3208025 0.25484794 0.93832135 5.6666665
2.4332676 0.23397356 0.86073041 5
-1.2162993 0.56125408 0.85236108 17.25
2.2511723 0.49298465 0.90444952 9.25
2.4707439 0.45472959 0.87976527 8.5
-1.2369363 0.64879394 0.96437645 21.166668
2.26736 0.67063797 0.9150883 9.75
2.434139 0.60747111 0.84172076 10.5
2.6065702 0.77551031 0.87426299 12
2.2912004 0.94604826 0.88408178 12.666667
2.5150061 0.86336941 0.91469371 12
2.1826241 1.1771122 0.93422377 15
2.3118284 1.0983441 0.90520132 14.5
2.4861181 1.0268074 0.91996145 14.333333
-1.3831074 1.3850126 0.92522681 21.5
2.4764874 1.304125 0.91999596 17.388887
2.3589938 1.5720671 0.84231138 18
2.4608626 1.4355007 0.87593156 18
2.2985954 1.634992 0.95271015 19
2.5231047 1.7219734 0.93831009 21.166666
2.6435063 1.6794963 0.83962512 20
2.4755785 1.9283791 0.88385469 22.333334
2.3822443 2.0522888 0.96156502 22
2.1046269 0.086912505 1.1434891 4.3000002
-1.3557515 0.38231736 1.0827971 10.4
2.0882545 0.32316762 1.1115787 7.3000002
2.3121758 0.28965476 1.0881107 6.25
2.4037938 0.3585085 1.0198423 8
-1.5203501 0.50361729 1.1977887 11
-1.3210716 0.51172423 1.1007422 14.82
2.1137173 0.46312228 1.1370575 9.75
2.3330219 0.42207956 1.093905 7.5
-1.3349026 0.61545718 1.0827153 17
1.9364542 0.70363605 1.1203089 10.5
2.1520164 0.69384456 1.0922598 12.083333
2.3459215 0.68983948 1.1344173 10.5
2.4145546 0.77670568 1.0754627 12
1.9012429 0.97459167 1.0853262 13
2.1517198 0.90046346 1.149033 14.375
2.2971196 0.96299815 1.0563861 13.5
-1.4798622 1.0814503 1.1661781 19.5
2.1740127 1.0864158 1.1425223 15
2.3528833 1.0845191 1.1037233 13.875
2.4973195 1.1213549 1.0512282 15.5
2.2983499 1.2809665 1.1131804 16.9
2.4245801 1.268757 1.1433811 16.5
2.2784147 1.4447457 1.1510549 17.5
2.4807284 1.4777008 1.0592033 18.833334
2.3517008 1.7875555 1.0889075 20
2.4938767 1.7050571 1.0286667 20.5
2.2528372 1.9105759 1.1493775 21.5
2.4603295 1.9738284 1.1054209 23
2.3034368 2.0947168 1.1562136 23
-1.5297222 0.13406296 1.3207531 4.5
1.9178416 0.14898875 1.3670825 5
2.0286841 0.056995194 1.2860863 4
2.2314456 0.087604061 1.2471967 4
-1.4830723 0.36845866 1.3495063 9.666667
1.9403183 0.22950509 1.3596547 6.25
2.0647418 0.21951912 1.23324 6.1666665
2.2426164 0.34874231 1.2906315 7.25
-1.46948 0.4841508 1.3009208 12.811111
-1.3930107 0.49490619 1.3177645 15.666667
2.0257511 0.45467162 1.3046727 9.25
2.2579966 0.49211881 1.291069 8
-1.5475947 0.79491812 1.3731624 14
-1.3901981 0.68649811 1.2508872 18.5
1.996228 0.63797325 1.3605906 12
2.2571464 0.62663704 1.2894927 9.666667
-1.5211242 0.9613477 1.2881869 17
1.8611583 0.84878296 1.2131445 12
2.0539434 0.91138464 1.2922372 14.75
2.2584717 0.87742424 1.3170685 12.333333
-1.5070391 1.1548157 1.3818811 19.5
1.9629929 1.1644503 1.3800385 18
2.0751553 1.0581105 1.3361697 16.5
2.2789378 1.0871304 1.2758855 14.916667
-1.4617102 1.3045915 1.2859674 22
2.2786837 1.3042563 1.2674011 18.083334
2.1670558 1.4543762 1.2612689 18
2.284898 1.4460127 1.3385359 19.25
2.1999071 1.7311051 1.2156198 18.5
2.3083944 1.6934822 1.3139484 20.4
2.3100061 1.8249869 1.3434813 22
-1.5357759 0.10462701 1.4431686 4
1.9118422 0.14798383 1.4767226 5
2.1809144 0.11564185 1.5211866 5
-1.7055546 0.38735873 1.5877948 8
-1.5611327 0.28287536 1.4644681 6.5
1.8731492 0.33885583 1.5244563 7.75
2.0952878 0.36241364 1.5302356 7.5
2.245038 0.33307949 1.521132 7
-1.6983038 0.46432391 1.5900022 9
-1.5670363 0.4681595 1.5032713 10.875
1.9412088 0.50492084 1.4683928 9.791667
2.0981309 0.57964396 1.4760337 9.25
-1.560788 0.68307883 1.5162787 15.666667
1.9504321 0.69577682 1.4881585 11.25
2.0405331 0.77819717 1.4049096 13
2.2301834 0.75138599 1.4934242 10.5
-1.5224577 0.84439307 1.4498674 19.166666
1.9486471 0.88995135 1.5397648 14.8
2.177871 0.94123822 1.5994827 12.5
-1.6431593 1.1180191 1.4803571 19.200001
-1.5216529 1.0278749 1.4066613 17.5
1.9539659 1.1385889 1.575686 17.5
2.0196035 1.0713115 1.4775434 16.333334
2.2410848 1.1299626 1.4886755 15
-1.6233143 1.2721703 1.5903844 20.5
1.9673088 1.2044777 1.4456238 19
2.1228116 1.293263 1.5205307 18.5
2.2150276 1.3089967 1.486972 16.666666
2.1455498 1.5061681 1.5155218 18.5
2.2565324 1.4845251 1.5212407 19.166666
2.2717948 1.67444 1.4844631 21.333334
2.2402751 1.817094 1.5794239 22.5
1.7489506 0.11095291 1.7619934 4.75
1.8525869 0.078355275 1.6243881 3.6666667
-1.7210213 0.3408725 1.7153599 7
1.7256149 0.28771824 1.7692726 7.25
1.8908553 0.37006 1.687592 8
-1.6928462 0.51211381 1.7420205 11.444444
1.8389282 0.51295727 1.6971833 9.5
-1.6610838 0.73177338 1.659467 15.416667
1.7951802 0.68410218 1.724884 12.5
1.8589653 0.66676283 1.6813356 11.722222
-1.6805867 0.92056674 1.6481384 15.5
-1.5949427 0.85014319 1.6171966 21
1.856374 0.87576687 1.7260978 14.8
-1.7410361 1.1116434 1.7057594 18.5
1.8674662 1.0525808 1.6795444 17.25
-1.7233696 1.3607162 1.7581685 22
1.8587655 1.2269238 1.7076929 19.5
2.0858831 1.2751658 1.6457088 17.75
1.9505376 1.4851456 1.608384 19
2.1178939 1.4939429 1.6667721 21
2.1424751 1.6603301 1.6872246 20.5
1.5964515 0.046475813 1.9780147 4
1.6984863 0.083466075 1.8869302 4.0714288
1.7293866 0.32233137 1.8923233 7.4000001
-1.8652698 0.48827049 1.9810121 9
-1.7490699 0.4654991 1.9164375 11.142857
1.7102623 0.45781478 1.9179497 8.875
-1.9126625 0.74690318 1.9409666 12.75
-1.7221806 0.60213578 1.8711149 14
1.712535 0.65421116 1.9130529 11.916667
1.8264079 0.61852312 1.8053447 10
-1.9042298 0.90824389 1.9234251 15.166667
1.7831321 0.91834605 1.845259 15.5
1.8792101 0.90951616 1.8985199 13
-2.1254058 1.170743 1.9317641 18.75
-1.8737408 1.1187638 1.9548755 19
1.767184 1.1381462 1.9055099 18.5
1.8704543 1.1193104 1.8745171 16.5
-2.0749218 1.2807376 1.9696403 20.5
-1.8489139 1.2740029 1.9557439 22
-1.7528236 1.2882137 1.8565701 20.708332
1.7710844 1.2334473 1.9228058 19
1.9163009 1.3219409 1.8712738 18.625
2.0150514 1.2985475 1.8538711 17.5
1.7705741 1.4460678 1.9271171 22.25
1.9121767 1.4789848 1.8923874 20.6
2.0425756 1.5858068 1.8070474 20
1.9225527 1.6691749 1.972319 21.25
-1.9403596 0.082980536 2.1938045 4
1.5132351 0.099610761 2.1677227 4.75
1.6717672 0.12993398 2.0635231 4.75
-1.9245108 0.32335272 2.1141963 7
1.344135 0.37868372 2.1811304 10
1.5674963 0.27639195 2.1075485 6.8000002
1.6534019 0.31527513 2.059027 7.5
-1.8943571 0.49283528 2.1569271 10.333333
1.3096719 0.49302089 2.1390231 11.5
1.5559664 0.48932979 2.1918464 10
1.6571029 0.49948144 2.0803902 10.027778
-2.0629597 0.74877667 2.1691265 13.25
-1.9908674 0.72736299 2.1388981 13.75
1.2869117 0.61193198 2.1386864 13
1.5324873 0.76931489 2.1325691 15
1.6633711 0.69539404 2.0770619 13.333333
1.8232455 0.73832721 2.0685496 11
-1.8233557 0.87314141 2.007818 14.5
1.5898726 0.90442884 2.1757891 15
1.6727676 0.8889001 2.0929084 15.3
1.8199595 0.9450357 2.0883648 13.5
-1.9553764 1.037279 2.04179 18
1.7043613 1.1003886 2.1281092 17.166666
1.8553076 1.0650802 2.0209644 15
-1.9260825 1.2636336 2.1247299 21.277779
1.6980705 1.2919501 2.1307356 20.083334
1.8402878 1.2830904 2.0427635 17
1.9021642 1.4772595 2.0186174 18.75
1.9239533 1.7831076 2.0741119 21
1.3326868 -0.033207789 2.3487148 4
1.5229561 -0.013225541 2.2459562 3.25
1.3097805 0.042731065 2.2877302 5.3333335
1.4604511 0.10653511 2.3095224 4.6666665
1.691324 0.14378397 2.2395146 4
1.3741255 0.38358444 2.3409891 10.5
1.5124004 0.30531394 2.2818811 7.9259253
1.6557031 0.28183717 2.310225 5.75
-2.0874314 0.51084673 2.3275266 10
1.3941327 0.57463914 2.3587182 13
1.501917 0.51947254 2.3036795 11.333333
1.6399297 0.48772374 2.2869494 9
-1.9678764 0.67393732 2.2409375 12.625
1.3971694 0.75577563 2.3992906 16
1.5006775 0.70389062 2.3185885 13.833333
1.6542865 0.68936235 2.2792416 11.875
-2.0606573 0.95325017 2.2444849 16.15
-1.9229333 0.89164048 2.2090125 15.5
1.5592411 0.90568209 2.2564793 15.875
1.6778778 0.88304502 2.3248394 13.333333
-2.0704756 1.1362315 2.3081508 18.299999
-1.9269564 1.0981467 2.2198653 18.5
1.5670279 1.0983005 2.2592642 17.25
1.6109188 1.0150198 2.2966633 18
-2.1110554 1.2923734 2.3636155 20
-1.9642072 1.310179 2.307951 21.5
1.5489575 1.2549512 2.3013713 20
1.7562642 1.332953 2.3158391 17.25
1.8210425 1.2752725 2.2586958 16
-2.0466886 1.5433133 2.3368764 18
1.6084216 1.4124998 2.2430634 22
-2.0139678 1.7373239 2.3014171 19
1.7752267 1.7656815 2.3989315 21
1.828684 1.6363277 2.2939429 19
-2.0100944 1.8292297 2.3524225 20
-1.9907115 1.9092865 2.3270125 21
1.7769554 1.9226717 2.3692212 22.5
-1.9424518 2.0006373 2.2723408 22
1.3579618 0.1064596 2.5046184 5.0833335
1.5089612 0.068173774 2.4319248 4.3333335
1.6471347 0.1291654 2.4785936 3.5
1.3700012 0.31902564 2.5290923 8.8999996
1.4724588 0.3103843 2.5402861 7.8888888
1.3110981 0.50933278 2.4992833 12.25
1.4252907 0.4527829 2.475966 10.125
-2.122581 0.75223505 2.4212508 13.5
1.3875508 0.66216868 2.5476861 13.25
1.4373145 0.72808528 2.5008574 14.875
1.6520103 0.65396166 2.4269588 10
-2.0701847 0.83671951 2.4592338 14.5
1.3713539 0.91593146 2.5189881 17.541666
1.4640045 0.87823975 2.5050981 16.1
1.3783127 1.0296774 2.5528312 18.5
1.5001552 1.0896149 2.4423759 18.625
1.6966226 1.0751112 2.4723544 14
-2.0784914 1.3782899 2.4445255 16
1.5130044 1.2380795 2.510586 19.200001
-2.0518889 1.5385963 2.4158461 17
1.4440727 1.4241118 2.5302901 23
1.6815319 1.4576441 2.4623153 18.5
1.6443506 1.692402 2.5410969 20.5
1.5598699 2.0725534 2.5770178 23
1.2960044 -0.027294645 2.6717854 4.1666665
1.4380174 -0.01724866 2.6765981 4.5
1.2680284 0.065399989 2.695704 6
1.5524126 0.071173742 2.6794891 3.5
1.323522 0.327528 2.702755 9.5
1.4524901 0.37141097 2.6587639 10.5
1.3318417 0.53080124 2.6931787 12.5
1.468612 0.47494632 2.7338092 10.7
-6.1801138 0.73666793 2.6446755 6
1.3428897 0.69856191 2.6795909 14.5
1.4576101 0.69361657 2.744107 13.5
-6.6889858 0.98966187 2.7206357 6
-6.594101 0.83421731 2.7491086 5
1.3455983 0.93238181 2.7099564 17.333334
1.4801594 0.86426008 2.7275405 13.3
1.344273 1.0803927 2.6882787 19.685184
1.4891472 1.0044601 2.6597724 19.5
1.3733101 1.3000405 2.6746616 21.583334
1.4576235 1.2631804 2.7094498 19.333334
1.3694485 1.4606904 2.7186799 23
1.5596437 1.4959722 2.7251482 18.75
1.6088572 1.4689763 2.7089527 19
1.0774573 -0.0084855482 2.971766 4
1.1574872 0.085135922 2.8580818 4.75
1.3049251 0.10242808 2.8595684 5.5
1.4408641 0.065596938 2.8598871 3
1.1587757 0.29643017 2.9096723 7.5
1.2882233 0.29130784 2.9018478 8.0625
-6.4423313 0.58295107 2.9242933 4
1.1999164 0.59484494 2.9480305 16
1.2574419 0.53994435 2.9181037 14.5
1.4827012 0.50354218 2.8619666 8
0.80080622 0.6429798 2.9903774 15
1.1668571 0.63501376 2.9761317 14.333333
1.2744415 0.79316843 2.906451 16.666668
-6.4597626 0.99000621 2.9395318 6
1.1885486 0.92993897 2.9807153 16.5
1.2781099 0.9111253 2.889972 18
1.4306872 0.819713 2.9424567 10
1.3275093 1.0991281 2.871352 18.666666
-6.3987031 1.2549847 2.9559145 7
1.1810977 1.2617892 2.9845176 23
1.2395782 1.2782995 2.9048657 21.5
1.4497576 1.2766471 2.8533969 15.75
1.4286896 1.5111077 2.9271073 19.75
1.2005591 1.7244182 2.9930773 19
1.5378382 1.6325285 2.8269298 20.5
1.4599367 1.9149988 2.8892565 22.666668
1.2422128 2.0594966 2.927012 22.5
-6.4770145 2.416393 2.9744344 13
-6.3195844 2.5009356 2.944515 14
-6.1382089 2.9054847 2.9509845 16.5
-5.987452 3.003499 2.9507337 18
1.0309381 0.12632579 3.1281371 6.5
1.2887928 0.1235404 3.0976739 7
0.93269676 0.27606782 3.0741262 9
1.0529231 0.21134275 3.1421995 7
1.0815816 0.41100818 3.1694055 13
1.2949066 0.55990928 3.0818865 9.7777777
-6.2696428 0.79565591 3.1735783 5
1.1134418 0.69949424 3.1191239 14
1.2926508 0.7311818 3.0933056 10.875
-6.3029933 0.84801161 3.0303619 5
-6.1914825 0.90859896 3.1642938 6
1.1487015 0.90754855 3.0770235 15.5
1.3189011 0.89958 3.106823 16.25
-6.1565318 1.1139555 3.1750996 7
1.1336703 1.0537738 3.1124427 19.333334
1.3345518 1.081095 3.1390991 18.166668
1.1519709 1.3353728 3.1092033 23
1.2027605 1.346697 3.0080504 23
1.4256334 1.3647107 3.033715 17.5
1.2235446 1.4401968 3.099443 16
-5.9340591 1.7240816 3.1286042 11
1.1979197 1.7118061 3.0619504 18
1.279808 1.6980116 3.0463521 19.5
-5.928977 1.9415574 3.144475 12.5
1.2611454 1.8611012 3.0925176 21.583332
-6.167264 2.2755816 3.1448419 13
-6.1518784 2.4536519 3.1678784 14.5
-6.2324715 2.6792998 3.0075483 15
-2.3658988 2.7896988 3.1233115 23
-4.7196903 2.8577535 3.0030231 20
0.96788228 -0.0019034594 3.2830281 3.5
1.0937338 -0.072962843 3.2571702 2
0.93749475 0.15953583 3.2598109 10
1.0932703 0.077096358 3.2900043 3.625
1.2183424 0.186698 3.2844548 5.5
1.0635903 0.30808482 3.2633188 7.5
0.9383055 0.47614425 3.3615961 11
1.0560262 0.51783025 3.254931 10
1.2733493 0.42084956 3.2002053 8
-5.5620208 0.71916008 3.3306797 5.3333335
1.0962806 0.77347296 3.2649579 15.75
1.2469655 0.67228651 3.3002336 10.5
-5.6439295 0.96330309 3.2615235 7
-5.4653292 0.86055434 3.3005247 6
0.98939002 0.80846143 3.286485 22
1.0522647 0.90746051 3.267771 14.75
1.2735054 0.83062863 3.2494607 14.5
0.95023102 1.1681745 3.3871043 21.666666
1.1587516 1.1020937 3.3124232 17.5
1.2429597 1.0126315 3.3114071 14
-6.3533373 1.378126 3.2576604 8
-5.5321388 1.3450572 3.3090229 9.5
0.99382734 1.2846441 3.3497884 17.25
1.0515449 1.2600079 3.2869101 17.25
1.3018756 1.2843362 3.2892113 17
-5.5239735 1.5816191 3.3526387 11
0.99524933 1.4516053 3.3286958 16
1.0448239 1.4153 3.3193026 23
1.300396 1.4717513 3.2719769 19.5
-6.0417161 1.6010273 3.2071333 10
1.1062262 1.7123151 3.3527284 19.5
1.3384135 1.6487303 3.2247744 20.5
1.1774378 1.9066074 3.2499571 21.5
-5.9363637 2.4047303 3.2673717 14
-6.0664644 2.7681904 3.2076879 16
-5.9677744 2.6758251 3.3548713 15.5
-2.5118985 2.6894295 3.2928472 21.5
-5.8811741 2.9327922 3.3443775 17.125
0.98375106 -0.070206016 3.5470254 2
0.77425891 0.12417146 3.5584195 7.0333333
1.114967 0.12076242 3.4683175 4.5
-5.2761993 0.31601775 3.5225511 3
0.25456983 0.27674776 3.4377885 15
0.77848476 0.30816478 3.5482817 10
0.8517971 0.27122593 3.5486941 7.25
1.0573616 0.34062189 3.5584788 9.5
-5.3018188 0.48785985 3.4795871 4
-5.1820855 0.51864666 3.5887322 4
0.85284495 0.50200242 3.5540068 10.916667
1.0995371 0.42202136 3.5627444 8
2.4323132 0.44531441 3.5767121 9
0.89786339 0.70496082 3.5281024 11.1875
1.0661336 0.62449831 3.5545988 11.166667
-5.4702005 0.95257384 3.5793281 6.5
0.93936044 0.86214381 3.500191 12
1.0866743 0.90991437 3.5726619 12.75
0.93707079 1.0445616 3.511457 14.9375
1.1296228 1.1603168 3.5137742 14
-5.5555124 1.3452637 3.5384703 8.5
-5.2300282 1.2942563 3.5857067 10
0.96815908 1.3247083 3.4862189 22
1.1308782 1.2911923 3.5881507 16
-5.5487671 1.556852 3.533741 10
1.0559306 1.4695156 3.5319729 16.25
-5.6096621 1.7186626 3.4313548 11.5
-5.5226679 1.7452401 3.5317698 11
0.98314738 1.7872627 3.4926207 20
1.0182614 1.7199636 3.5197182 18.75
0.91945541 1.9463798 3.4822097 22
-5.3373961 2.2585685 3.5988503 15
0.73961312 -0.024116874 3.7004099 3.5
1.10367 -0.13774118 3.7308226 2.3333335
0.77219456 0.14249253 3.6609282 5
0.89864302 0.072927803 3.6899641 3.3333333
1.0746944 0.084788099 3.6868782 5.75
-5.0030718 0.31775689 3.7502577 3
-4.9046521 0.39525408 3.7653456 3
0.78171384 0.35358354 3.7415435 6.9000001
0.88713628 0.25600752 3.6735866 7.5
-5.1050563 0.58010995 3.6501327 4.75
-4.9064198 0.51675987 3.777566 4.75
-4.0589042 0.51276934 3.7996829 7
0.77642632 0.42558944 3.7362702 9.75
0.89397675 0.53640705 3.6585219 10.541667
1.1648761 0.54753411 3.748637 15
-5.2659988 0.786457 3.7036455 6
-5.1776233 0.70590675 3.6102004 5.5
0.78933281 0.71341103 3.7758303 9
0.87350881 0.7721858 3.6737251 13.95
-4.9747429 0.91355944 3.7530634 7
0.78303379 0.87114793 3.7507792 10.5
0.92709142 0.93793583 3.7048893 15.166667
-5.2769423 1.0523406 3.752635 7
-5.1895609 1.1373672 3.6514008 8
-4.9639997 1.0255289 3.7642736 9
0.7953645 1.0760884 3.7941155 12
0.83638096 1.0994655 3.7437699 16.833334
1.0949013 1.1512245 3.7230344 16
-5.2720866 1.3267933 3.6521235 9
-5.1774168 1.2781851 3.6552894 9
-4.9297209 1.288908 3.7670047 10.25
0.87701607 1.2686346 3.7262192 20.75
1.0825195 1.2907583 3.7016239 17.166666
-5.5680203 1.4950686 3.6522772 10
-5.1801224 1.5429293 3.6488562 11.5
0.79815483 1.4933136 3.7764094 17
0.93379414 1.4314307 3.7774458 20
1.0339127 1.4036772 3.607187 18
-5.6096864 1.6538603 3.7305818 11.5
-5.5893626 1.6826371 3.6898136 11
-4.9933243 1.7088031 3.765635 13
0.84073251 1.6893498 3.6967828 19
1.0931944 1.6937326 3.6473415 20.833334
-5.5606689 1.8835251 3.746295 13
0.88188946 1.9610572 3.6946943 21
-5.5140829 2.0812476 3.6593626 13
-4.9690347 2.019825 3.7921612 14
-5.1070929 2.2600608 3.7858031 14.75
-4.8737359 2.2025614 3.7610886 15
0.97428805 2.5975947 3.7740588 22
-4.4649777 2.8693922 3.6739321 21.5
-4.2931161 2.9285138 3.7132604 23
1.3051192 -0.053514965 3.9430392 5
0.7725808 0.10561898 3.8507144 5
0.83813161 0.043829139 3.8942461 4
1.2812459 0.12549788 3.8908362 8
-4.8965883 0.35504842 3.8160613 3
-4.6385736 0.38444471 3.9732797 4
0.75187802 0.24255916 3.8441312 5.5
0.8632189 0.28880274 3.9030704 6.25
1.2821035 0.32843301 3.8982506 11.25
-4.8553839 0.4004432 3.9248805 4
-4.7121 0.55458879 3.9248772 5
0.74645472 0.51675344 3.8642247 8
0.9033317 0.50760329 3.9263172 13.5
1.3400135 0.53243577 3.9990928 14
-4.6598024 0.76033789 3.945622 6
-4.0329266 0.65480906 3.8400159 8
-3.9630899 0.76107186 3.9195011 9
0.79955781 0.60334849 3.8263023 9
0.95402437 0.63594174 3.8482172 9.5
1.2416323 0.76340204 3.8504186 18
1.4816781 0.69571078 3.9996216 17
-4.4620414 0.9911018 3.9379673 8
0.78013206 0.83952868 3.8312449 11
0.89957887 0.90964204 3.9357116 15.166667
1.150143 0.88789046 3.815671 21
1.4118996 0.85678571 3.971745 19
-4.8890128 1.0695243 3.8234637 8.333333
0.912875 1.0853882 3.8785999 16.5
1.2144819 1.0035805 3.8661594 22
-4.9314914 1.2786983 3.8329885 10
-4.7666135 1.3666724 3.8945212 10
-4.5137639 1.263171 3.9554174 10
0.81009454 1.2609488 3.891758 17.666666
-4.8727717 1.5126063 3.8660898 11.333333
-4.6826029 1.515879 3.9108262 11
-4.4129763 1.4715325 3.9857588 11
0.77433676 1.4894332 3.9659128 17
0.81943202 1.4862975 3.8746591 17
1.0009017 1.4543958 3.8846145 19
-4.8863258 1.6167289 3.8902209 13
-4.6614037 1.6556268 3.9487994 12.5
0.76818877 1.6100365 3.9172616 18.5
0.98511767 2.290992 3.8200669 20
0.89141476 2.4487305 3.9413075 20.75
-3.8074594 2.7625394 3.8683641 21
-0.24831961 2.7447205 3.8964574 23
0.85196233 2.676641 3.9226515 22.5
-3.6811681 2.8493135 3.8114336 22.5
-2.154032 2.828444 3.8539596 23
-3.7199035 0.030301608 4.1595545 2
1.45795 0.080995485 4.0869336 7
-4.3105764 0.33149415 4.0456457 4
-4.0402737 0.35611993 4.0872526 4.25
-3.7596555 0.32544151 4.1330061 5.5
1.4452609 0.22697712 4.0927787 9
-4.4967847 0.55846256 4.1403332 5
-4.2963467 0.47264802 4.1243496 5
-3.9489326 0.56138003 4.0994754 7
0.79367667 0.59169286 4.000123 9
-4.4339733 0.63694394 4.0122623 6
-4.33887 0.70600134 4.0629358 6.5
-4.0782423 0.68003374 4.1403303 6.875
-3.7405674 0.67195207 4.1513386 8.5
0.82956666 0.78149801 4.001205 11
1.328704 0.71931189 4.0243754 17
-4.8977923 0.95086378 4.1214695 9
-4.6815271 0.91358531 4.0025945 7.5
-4.5672889 0.82473046 4.0201254 7
-4.3738852 0.84021449 4.1357117 7
-4.1554313 0.89095157 4.0390372 8.5
-3.726825 0.91121334 4.1717267 10.666667
0.92348939 0.90776569 4.0069828 19
1.011538 0.95853722 4.0855155 20
1.2870711 0.88948059 4.0285802 19.75
-4.6647172 1.1152765 4.0202007 9
-4.519578 1.1462755 4.0273175 9.5
-4.290576 1.1010696 4.1942396 9
-4.108726 1.0836124 4.1206794 9.75
-4.853673 1.2422925 4.1164842 10.5
-4.6318684 1.2624726 4.084044 10
-4.0911989 1.3045826 4.0780396 11.25
0.87428457 1.3956462 4.1087017 17
-4.2987542 1.406976 4.115304 11
-4.0978241 1.4886595 4.0758286 12
0.88324851 1.530916 4.0659618 18.666668
-4.8145103 1.6560787 4.1363387 13
-4.2854986 1.7145656 4.1854439 13
0.85511893 1.7258303 4.055655 20
-4.8015375 1.8391669 4.1367416 14
-4.7756939 1.9982002 4.1290326 15
-4.4389782 1.8984151 4.1143875 14.5
0.81564623 1.8729348 4.1114669 16.5
-4.3895035 2.1287334 4.1398225 16
-4.1484661 2.1071374 4.0769343 16.25
0.81134522 2.0838101 4.0771151 18
-4.0817122 2.3577907 4.1251307 18
0.80054814 2.2462316 4.0385623 19
-4.2792883 2.6682987 4.1669807 21.5
-3.2423596 2.6946149 4.0803137 21.5
-2.7007234 2.6913369 4.1417508 22
-2.2767069 2.7053134 4.0739002 21.5
-0.27103513 2.6117926 4.0825863 21
0.00013472341 2.6835046 4.0742502 22
-3.504849 2.8465474 4.0397243 22
-2.9237635 2.8256342 4.0810127 23
1.6488949 -0.087221771 4.2408519 4.5
-3.9318624 0.19409558 4.2655387 3.5
-3.6728864 0.11426654 4.3180046 3.25
-3.5771532 0.15492056 4.3051672 4
1.6822277 0.011355937 4.2593098 6
-4.060008 0.2726678 4.2670145 3
-3.9492688 0.34263477 4.271914 4.75
-3.7187128 0.30272305 4.2692723 4.5
-3.5848901 0.36985856 4.3688226 5.75
1.7292885 0.35438097 4.2800283 10
-4.1265364 0.54943073 4.2664385 5
-3.8888402 0.55990499 4.3491445 6.75
-3.690284 0.4641149 4.3271909 6
-3.5043092 0.58241022 4.2823086 7
-2.9247985 0.5144645 4.2129478 10
1.7288438 0.47334135 4.2974019 12
-4.1444201 0.66288042 4.2192907 6
-3.8976088 0.70052421 4.34935 6.75
-3.7373254 0.64499491 4.2374368 7.2777781
-3.4968042 0.74838692 4.397923 9.5
-2.9478006 0.62513244 4.2974424 11.25
1.7469267 0.68435168 4.309504 14.5
-4.3056993 0.82573795 4.2286348 7
-4.0544782 0.85592127 4.3129959 8
-3.6955421 0.90222698 4.2682862 9.5714283
-3.5032961 0.856556 4.3247681 9
-3.8770266 1.088457 4.3139944 10.5
-3.6887398 1.1400007 4.2677875 11.5
-3.4464145 1.0461166 4.3444877 10
-3.2991207 1.1887065 4.3796349 10
-2.7441003 1.1687964 4.3493123 19.5
-3.8583369 1.2989212 4.2630506 11.5
-3.5485406 1.3401444 4.3317866 15
-3.3830609 1.3343691 4.3845654 13
-4.0887876 1.5705527 4.2626238 12.5
-3.7956791 1.4168336 4.3245587 12
-3.479594 1.4927706 4.3607621 15.75
-4.3441792 1.7962632 4.2264929 14
-4.0360498 1.721107 4.2920361 14
-3.7183974 1.7346792 4.2868147 13.5
-3.4793141 1.6765664 4.3435812 17
-4.2786956 1.8618548 4.2177982 14.75
-4.2518115 2.0427961 4.2246761 16
-4.2218571 2.2573838 4.2094564 17
-4.0421267 2.3024874 4.3009024 18.25
-3.9822664 2.3505492 4.3449669 18
-3.8553114 2.4743228 4.2877069 18.5
0.010214875 2.5950375 4.2306128 20.5
0.70814407 2.5696898 4.3206401 21
-3.8104632 2.7526078 4.2180243 21
-3.7019043 2.6634417 4.3020039 19.5
-2.9030972 2.7291048 4.2930679 22.25
-0.13651483 2.678014 4.2091351 22
-3.565515 -0.20920342 4.555191 1
-3.6090684 -0.010548823 4.4254351 2
-3.6986501 0.15300691 4.4411201 3
-3.4263327 0.18601906 4.5317183 4
-3.186595 0.1986919 4.5562725 3
-2.7982359 0.18719803 4.561214 5.5
-2.5085635 0.12642358 4.5236673 5.5
-3.6878877 0.28945583 4.5100231 4
-3.4712651 0.29890573 4.4436288 3.8333333
-3.0850394 0.32995102 4.5527306 4.5
-2.8788674 0.33243513 4.484973 7.8333335
-3.6753802 0.47843501 4.5082035 5
-3.5195289 0.51582623 4.4547048 7
-3.3633256 0.53728592 4.5535898 6
-2.9219975 0.458056 4.4151955 9.25
-3.8324046 0.6008271 4.4359255 6
-3.703635 0.70413989 4.5110459 7.3000002
-3.5584209 0.66313595 4.4523635 8.5
-3.1742294 0.7787841 4.5556469 8.5
-2.9184866 0.77747577 4.4477863 13
-2.6619852 0.6646769 4.593441 13
-4.023994 0.95148653 4.4128323 8
-3.872942 0.84191978 4.510129 7
-3.694047 0.87716484 4.4926767 8.625
-3.5524061 0.94150341 4.5554695 10
-2.8537016 0.83515322 4.5219793 14.5
-3.8860478 1.080672 4.5300751 8
-3.7258751 1.0696899 4.5292158 9.5
-3.4794512 1.1485729 4.4384427 12.75
-3.3266542 1.0135262 4.4122586 11
-3.1855211 1.0942241 4.5675955 11
-2.770041 1.025414 4.5796375 17
-3.8719974 1.2473141 4.4609637 11
-3.6771555 1.3348074 4.5304003 12
-3.4566383 1.2542565 4.5036926 11.666667
-3.1606605 1.2138509 4.5570083 12.5
-2.7506328 1.227501 4.5723081 19.5
-3.8963671 1.5397365 4.4966445 11.75
-3.7197008 1.4598939 4.5232477 11.25
-3.4748018 1.5096483 4.4640455 14.166667
-3.3855956 1.5109951 4.4442677 16.5
-3.8886137 1.701342 4.5308843 14
-3.7053244 1.687905 4.5417085 12
-3.4304113 1.7643083 4.448668 20.5
-3.2897463 1.7359366 4.5307693 19.5
-3.8180804 1.808337 4.4422569 13.25
-3.644949 1.8579888 4.5389524 13
-3.4541616 1.8330314 4.4626093 17
-3.3480773 1.9597299 4.4809222 20.5
-3.1486173 1.9372237 4.5403366 21
-3.8436584 2.0887344 4.5577168 14.333333
-3.6688554 2.187252 4.5735173 14
-3.4281478 2.1447341 4.4927211 16.5
-3.8589413 2.3315625 4.4933829 16.5
-3.7622294 2.2288704 4.5449371 18
-3.8562481 2.4760368 4.5657134 17.5
-1.8786848 2.5907536 4.5086141 20
0.30791423 2.5753989 4.4479127 20.5
0.74213517 2.5736966 4.5547547 22
-3.9216621 2.7669199 4.5964012 21
-3.6309071 2.7066441 4.5742602 17.5
-3.5853183 2.6071539 4.4958611 20
-3.3740356 2.7790375 4.4433141 22
-3.1858149 2.6813366 4.5518274 18
0.73151278 2.6481762 4.4275732 23
2.504344 -0.24199474 4.6099367 1
-3.0548868 -0.049150765 4.7413282 1
2.5389085 -0.10350278 4.725215 4.5
-3.2615814 0.061773516 4.6625123 3.5
-3.0012846 0.066806905 4.6111631 2
-2.6124363 0.1089427 4.6511903 5.25
-2.3590271 0.12138555 4.6691136 5.6666665
2.5214915 0.15193214 4.6891685 7
-3.438149 0.25857049 4.6491852 4
-3.330637 0.30015948 4.6832547 5.5
-3.0279481 0.26650888 4.7447453 4
-2.9302435 0.29970372 4.6715059 4.5
-2.7026737 0.24917042 4.7086658 5.1666665
-3.5081894 0.53536522 4.6865954 7
-3.3930938 0.45877725 4.6619272 6
-3.0825164 0.50995964 4.6371784 6
-2.926861 0.40584636 4.701879 6
-2.6235385 0.47725481 4.6878624 11
-2.5352032 0.45899385 4.7326608 10
2.5432377 0.43218291 4.7015586 10
-3.5435038 0.68861848 4.707129 9.5
-3.2787011 0.72573429 4.7631521 7.8333335
-3.090004 0.71975058 4.733428 9
-2.9503899 0.69747156 4.731596 7
-2.6997037 0.65227419 4.7329845 9.75
-2.50946 0.72885948 4.773283 14.5
-2.1680799 0.74557185 4.7974563 13
2.5231524 0.69542205 4.7060347 12.25
-3.4114132 0.84517044 4.7725706 11
-3.3150306 0.92776906 4.7231855 10
-3.0350144 0.92377567 4.7283311 9.666667
-2.8343806 0.87813807 4.7778673 8.5
-2.7173734 0.86706686 4.7615881 10
-2.4560928 0.89181054 4.7868004 13.75
-3.6080873 1.045125 4.6372643 9
-3.4485958 1.1297972 4.6711297 11.75
-3.2645779 1.1268047 4.684094 11.666667
-2.5738387 1.0495666 4.6920466 18.5
2.3286419 1.1958717 4.6525378 17.5
2.4638491 1.0193976 4.7217727 15.5
-3.5060501 1.2793746 4.6560602 10
-3.3247926 1.2635143 4.6847548 14
-2.9639597 1.3100657 4.7161126 11.5
-2.5348065 1.2848334 4.7085323 21.166666
2.3178806 1.3325565 4.655901 19
-3.7697544 1.4331084 4.7892551 16
-3.4371119 1.4513476 4.623239 12
-3.2706079 1.4775152 4.7353506 14.75
-3.084013 1.4295478 4.7666826 14.5
-3.4804964 1.6783152 4.6748285 13
-3.0907338 1.6824558 4.735003 18.25
2.3203812 1.6348331 4.6510005 21
-3.7302167 1.8304555 4.6161456 15
-3.0758846 1.9113365 4.7075996 21.666666
-2.9512177 1.8584943 4.79498 19.333334
-3.3386867 2.0409241 4.7760954 13
-3.9054589 2.3949044 4.7779932 19
-4.049963 2.4542875 4.6261511 20
-3.9355843 2.5897746 4.6348705 20.75
-3.7670918 2.4527748 4.7373395 16
-3.4912839 2.5941296 4.6859016 17
-3.3516791 2.4671144 4.7035918 18
-3.0867333 2.593518 4.7652879 16
0.7455802 2.5461538 4.6744285 21
-3.6648133 2.6285477 4.6522093 17
-3.2373633 2.6299648 4.7173772 16.5
-3.0381548 2.6344357 4.7796769 17
-2.7809479 2.6029053 4.7305093 20
-0.80499101 2.7147448 4.7012682 23
-1.8939711 -0.2301892 4.9507113 1
-2.283534 -0.021472 4.9297018 3.5
-3.1230571 0.13965912 4.8587623 3.1666667
-2.8979776 0.095726386 4.8804302 3
-2.6352246 0.079778552 4.9008427 3.3333333
-2.4508467 7.931143e-05 4.8269382 4
-2.1937644 0.041339897 4.9224224 4
-3.1012444 0.34361774 4.8120289 5.5
-2.884634 0.30838659 4.8858871 4.25
-2.7098641 0.32324755 4.871654 5
-2.5052457 0.2694211 4.9046936 5.4666667
-2.2605555 0.34259471 4.9165387 9
-3.2745848 0.53609753 4.8937883 7.25
-2.9015136 0.58072597 4.8498554 6.5
-2.7584255 0.5380528 4.8673544 7
-2.5232923 0.51535541 4.9276576 6.4000001
-2.2794535 0.52627057 4.8598633 10.5
-1.9616823 0.48098636 4.931468 10.25
2.6171842 0.40015554 4.8008342 9
-3.3655205 0.61392623 4.825429 9
-3.0561469 0.74789971 4.9612455 8.666667
-2.8352513 0.65886271 4.8909569 7.5
-2.7206171 0.73615158 4.8643136 8.75
-2.539887 0.66861093 4.9122634 7.875
-2.2847362 0.74087894 4.8818378 12.5
-1.9188324 0.72871691 4.9952679 13
2.596961 0.65026963 4.8093543 11.5
-3.2544758 0.90899199 4.8551087 9.666667
-3.0330074 0.88480824 4.9373918 10
-2.8398769 0.91482335 4.9479513 11.5
-2.6929369 0.86799443 4.9431458 10
-2.4995866 0.87194705 4.864583 10.75
-2.370163 0.89677763 4.8135891 10
2.5780802 0.83940142 4.8163347 13.5
-3.3223641 1.0633893 4.913126 12.5
-3.1386445 1.1709188 4.8949876 10.666667
-2.8565934 1.0295848 4.9013696 10.666667
-2.7718177 1.0963953 4.8667192 11.2
-2.5607798 1.01094 4.9104085 12
-2.3927383 1.1704493 4.842 21
-3.3699746 1.3256288 4.8489251 10
-3.0707417 1.3573503 4.8727536 14
-2.8527997 1.2962095 4.9568062 15
-2.7094896 1.3279405 4.9671154 13
-2.2995608 1.2279272 4.897306 22
-3.444741 1.526262 4.8554115 17.5
-3.0168796 1.4240624 4.8590183 14.25
-2.862294 1.5626932 4.850306 13
-2.7494748 1.4736277 4.9484587 15.75
-2.5894122 1.5908865 4.9572954 13
-3.2815256 1.6539366 4.9130392 14
-3.0554111 1.691739 4.8186159 15.25
-2.9003 1.7357854 4.9118896 17.833334
-2.7228715 1.6323035 4.9446115 15.5
1.8956673 1.6416639 4.9736476 21
-2.9113176 1.8778477 4.8815022 16
-2.6096456 2.0484357 4.9815273 19.75
-3.11779 2.3071775 4.9176068 22
-3.2325048 2.5256605 4.9349527 16.5
-3.0578861 2.5000789 4.80305 20
-2.9116583 2.4680471 4.8994851 19
-2.6480353 2.5933461 4.9577379 19
-1.065353 2.5558608 4.9695787 21
-0.63828099 2.5871298 4.9472656 21.5
-3.6277692 2.6500092 4.8904786 20.5
-2.6369729 2.6052232 4.8491917 20
-2.4726124 2.6869121 4.9169607 22
-1.0573364 2.6504812 4.8144312 22
-0.9051618 2.6158571 4.9663768 22
-2.3013091 -0.070989557 5.1761522 2.75
-1.9981589 -0.072510108 5.1059699 3
-2.4607968 0.065338455 5.0847697 4
-2.2894375 0.18015534 5.0529156 3.5
-2.1209221 0.025989905 5.0403404 2
-2.8185883 0.37503389 5.0434332 6
-2.7016592 0.28108367 5.0275269 5
-2.4471922 0.31289011 5.099339 6.25
-2.3616028 0.31540239 5.1854782 5.5
-1.8742548 0.31483909 5.1059341 7.5
-3.056282 0.57532108 5.0903335 6.75
-2.8954201 0.56505436 5.0611267 7
-2.7297852 0.48382226 5.0303016 6.6666665
-2.5909467 0.58367115 5.1694288 9
-2.1246438 0.51446569 5.0822716 11.75
-1.9924679 0.45724237 5.1671362 12
-3.1634216 0.68615431 5.0252175 10
-2.8174632 0.61354005 5.0990667 9
-2.5888672 0.68686944 5.128643 8
-2.2709455 0.65916973 5.0735416 10.5
-2.157614 0.71862954 5.051827 14.666667
-1.9051355 0.73989171 5.0594864 13.666667
-2.8077698 0.90889299 5.126812 7
-2.7187881 0.86194819 5.124805 9.166667
-2.5259755 0.92232019 5.0363269 10
-2.2974846 0.88765413 5.0975909 11.75
-2.0669768 0.89395589 5.1182842 14.666667
-1.9245319 0.96619046 5.1178102 19
-2.6504626 1.1104951 5.0706744 11
-2.5073626 1.1027453 5.1473503 14
-2.3302584 1.0632261 5.0795903 11.166667
-2.0956151 1.1359401 5.1152573 16.5
-1.9870609 1.0039685 5.0037355 20
-3.0534968 1.3670347 5.1054764 16
-2.9255798 1.3465315 5.0297198 15
-2.6564724 1.2631755 5.0708275 12
-2.5034816 1.2779936 5.0950885 12.416667
-2.0818815 1.2344515 5.1367521 10
-3.0494475 1.4765146 5.1083183 13
-2.7070248 1.5122582 5.1995096 13
-2.4992442 1.4900002 5.147192 15
-2.3641613 1.4767764 5.1363897 16
-2.9867053 1.6190697 5.1342416 18
-2.742475 1.6957973 5.0024672 18
-2.4973764 1.6505265 5.1549153 16.5
-2.278044 1.6137317 5.1225166 17
-2.9631262 1.9768622 5.0389462 13
-2.7018323 1.9233625 5.0437951 21
-2.4697428 1.8945384 5.1545939 19.5
-2.2482104 1.8404135 5.0734868 15
-2.8409266 2.1260157 5.1067281 15
-2.3899066 2.0701203 5.0966825 22
-2.871331 2.3538132 5.1163359 19.5
-2.6621125 2.3247547 5.1087027 17.75
-2.3452079 2.2044864 5.1027017 23
-3.078306 2.4534519 5.1122293 16
-2.827961 2.5417435 5.0919299 19
-2.5847628 2.4171722 5.1614094 19
-2.1561399 2.5700235 5.1762943 20
-3.1097381 2.6643517 5.0228214 18
-2.5195076 2.6478353 5.0841117 18
-1.9186987 2.6031756 5.1841063 18
-0.60034049 2.6082032 5.1935501 22.5
-2.2492366 -0.13594089 5.2274351 1.5
-2.0272849 -0.085424937 5.2299051 2
-1.8809714 -0.12436657 5.3287587 2.75
-1.6064447 -0.061908782 5.2824459 3
-2.2936831 0.097221941 5.2320228 3.5
-2.0980282 0.11759631 5.3093591 3.5
-1.9810488 0.18216525 5.2401361 7
-1.7498301 0.0070732608 5.2957811 3
-1.5983275 0.16222572 5.3841057 4
-2.0913496 0.30402073 5.2713275 6
-1.8748367 0.33015615 5.2481027 7.5
-1.6889943 0.27753502 5.330914 6.5
-2.2752922 0.5040285 5.3035607 7
-2.0311887 0.48863062 5.2459679 7
-1.8653312 0.5849911 5.3326845 14.5
-1.6559114 0.49506029 5.3552628 9
-1.4408145 0.52549124 5.2862802 11.5
-1.2610514 0.49805555 5.3480415 11.5
-2.3271275 0.70177925 5.3334136 8.875
-2.075104 0.76277423 5.2910132 12
-1.9252685 0.6895954 5.2860246 11.625
-1.7545731 0.72819865 5.3183279 11.5
-2.2660007 0.90201032 5.3583646 9
-2.0721834 0.93311852 5.286572 15.333333
-1.8282938 0.91871148 5.3947916 18
-1.7107908 0.85348362 5.3440886 8
-1.2977567 0.8830511 5.2562084 16
-1.0501051 0.85686356 5.3791981 16
-2.946126 1.1388036 5.2125597 14
-2.6178479 1.0062742 5.2067175 13
-2.5280523 1.005255 5.2011251 12
-2.0652902 1.0499289 5.2729235 20
-1.9433956 1.1892836 5.233202 23
-1.7499027 1.0853424 5.2495933 18.5
-1.4434369 1.1205281 5.3475885 20
-2.9219131 1.2860665 5.2357373 15
-2.7597518 1.3994623 5.361382 16.5
-2.3263938 1.2572151 5.2961106 13.333333
-2.1257901 1.3008925 5.2081146 14
-1.9301603 1.3165966 5.2816529 15
-1.6381739 1.2714155 5.2443056 21
-1.5637571 1.2605393 5.3375878 21
-2.4268599 1.4191281 5.2980919 15
-2.3089116 1.4979786 5.2771373 16.833334
-2.0140884 1.4775366 5.388309 13
-2.3155169 1.6803149 5.2103801 14.75
-2.1009409 1.7033384 5.2552042 16.5
-1.9341284 1.6874561 5.2780571 16
-1.7296278 1.6166104 5.3259473 18
-2.7381015 1.9171128 5.2305102 16
-2.2154737 1.9430975 5.2296209 18
-2.0014801 1.8109469 5.3476696 16
-1.9466553 1.885975 5.2479162 15
-2.6930747 2.1278098 5.2604589 14
-2.3956659 2.15657 5.2260199 19.5
-1.8458683 2.1124365 5.3785295 18
-2.8358662 2.2866089 5.2001376 16
-2.268898 2.3265522 5.3222504 16.833334
-2.1236959 2.2571487 5.3030767 17
-2.5575387 2.5097759 5.2018075 17
-2.1475892 2.5231295 5.2886715 20
-0.61330551 2.5296929 5.3533225 21
-2.4528408 2.6528335 5.2512197 21
-2.1050663 2.7056346 5.2460213 22
-1.9039028 2.6985891 5.3749833 17
-1.0114863 -0.031439193 5.5414062 5
-1.8711749 0.13891983 5.4978838 3.5
-1.7034646 0.15251547 5.505127 3.5
-1.5266854 0.10166687 5.5705643 3.75
-1.2856658 0.060402781 5.5192413 3.5
-2.2223666 0.30933109 5.4103236 5
-1.8874142 0.36535019 5.4932938 8
-1.6704378 0.3122631 5.4813256 5
-1.4114615 0.34480116 5.4091825 10
-1.332076 0.28254306 5.5195217 7.25
-1.8694174 0.53501719 5.4997663 9
-1.7353343 0.48300886 5.4748344 8.5
-1.5169388 0.46700972 5.5048628 8.5
-0.91592181 0.59003282 5.4320421 13
-2.1614957 0.60586208 5.4589996 6
-1.6740043 0.7499218 5.4936891 8
-1.4487704 0.7234695 5.4877548 8.5
-1.1169804 0.68733102 5.4901981 12.333333
-2.1004608 0.86613029 5.4401217 11.5
-1.8360994 0.93794543 5.4034252 9
-1.6541523 0.904091 5.4665766 10
-1.5152935 0.8632434 5.5237999 12
-1.3414679 0.88628286 5.5083818 18
-1.1723173 0.90091133 5.592001 11
-2.1886623 1.0892292 5.5644784 14
-1.7382902 1.1667805 5.5650926 15
-1.4885496 1.0868545 5.5126901 11.5
-1.1908863 1.1642751 5.5992527 11
-0.92600107 1.1227045 5.5833941 22
-2.0440598 1.2636048 5.5218716 15
-1.6831096 1.2708272 5.4452438 13.666667
-1.5236048 1.3481694 5.4803238 15.5
-2.2652848 1.4972229 5.4077115 12
-1.9469489 1.5395067 5.5062647 13.5
-1.7103713 1.4227163 5.506043 13
-1.4517136 1.5844103 5.5809641 14
-1.3795341 1.5202962 5.5572495 17
-2.2852869 1.7113107 5.4734459 15
-2.0229239 1.6428952 5.5114107 11
-1.9145042 1.6547136 5.488214 16
-1.7146732 1.6613538 5.5540533 19.5
-1.5599862 1.6414648 5.5986781 16
-2.2626438 1.9316368 5.4325228 13
-2.0347409 1.8979623 5.4774127 19
-1.8757821 1.8624307 5.4656267 18.25
-1.7176695 1.9766078 5.519702 16
-1.4057801 1.8919655 5.5966554 21
-2.4878919 2.1222322 5.4090266 14
-1.6640488 2.0780194 5.5023131 19.666666
-1.4249876 2.010349 5.5832357 22
-1.8423021 2.330704 5.5329208 19
-1.7249024 2.3630741 5.5654526 15
-2.0218554 2.5466421 5.5039673 16
-1.8504702 2.4484303 5.5591173 20
-1.4324858 2.5036469 5.4714079 16.5
-1.5420029 2.6108918 5.5454426 22
-0.38154542 -0.28227535 5.719306 2
-1.4117444 -0.045856405 5.7369318 3.5
-1.3013377 -0.044435173 5.7018008 3.5
-1.1223731 -0.10634875 5.6668663 4
-0.70711255 -0.13656156 5.7124386 3
-1.3758024 0.15288581 5.7049046 5
-1.0488847 0.00022321939 5.6467142 6
-0.95048976 0.048427522 5.7722855 4
-0.71145284 0.13478926 5.7712998 5.833333
-0.56049347 0.079492278 5.7763529 6
-1.8200567 0.37074411 5.6151857 7.5
-1.7309271 0.22364727 5.6563797 4
-1.2653242 0.24580857 5.6877999 7
-1.1249638 0.35744804 5.7971025 5
-0.89300549 0.3498472 5.6769171 10
-1.7012558 0.52696478 5.6635494 7
-1.5118498 0.42820704 5.6356869 9.75
-1.3471775 0.49841136 5.6940861 8.375
-1.1429968 0.56176627 5.7636275 9.5
-0.92719918 0.51551336 5.7441306 8.666667
-1.4993925 0.75503606 5.6763282 14
-1.2758824 0.76958895 5.6805725 11.75
-1.1251146 0.67224002 5.734427 10.166667
-0.86043656 0.73187333 5.7316346 14
-1.1399691 0.85829508 5.6643615 8
-0.89018124 0.86868197 5.7648597 9
-0.7845481 0.89230728 5.6664052 18.833334
-1.7627568 1.0943499 5.6391253 11
-1.5488187 1.1100931 5.7011843 8.5
-1.2901274 1.197353 5.6698275 14
-1.0399297 1.0142038 5.6744967 20
-0.92503148 1.0805396 5.7018089 17.166666
-2.0688365 1.2129687 5.6033649 15
-1.6507163 1.2092305 5.6607552 13.5
-1.9029363 1.5012019 5.6197853 11
-1.7232244 1.4646723 5.7221708 11
-1.5389072 1.5769703 5.6600423 13.5
-1.1964378 1.4706637 5.6303186 16
-0.8798238 1.5748953 5.7928891 14
-1.6005578 1.7401634 5.6128912 15
-1.588691 1.760491 5.6231856 19
-1.2668402 1.617077 5.7643414 19
-1.0465832 1.7154267 5.7540922 20
-1.622072 1.9400628 5.6640821 14
-1.4982911 1.8564975 5.7452202 16.5
-1.2541444 1.950889 5.6854525 23
-1.0746169 1.9004151 5.759356 18.333334
-1.6502578 2.1151366 5.6967139 15
-1.9331523 2.3220823 5.616888 15
-1.5755656 2.2117412 5.6922836 16
-1.216141 2.2492032 5.7238703 17
-1.1049398 2.2093487 5.7351694 18
-1.689446 2.5231228 5.6204071 16
-1.1278558 2.4673729 5.7914047 20
-1.2570658 2.7296686 5.7060976 23
-0.81148618 -0.36652547 5.8926373 0
-0.44502747 -0.37630191 5.9340129 0
-1.0597528 -0.05393355 5.8354092 4
-0.95354581 -0.12657037 5.8720722 2
-0.72050983 -0.048635319 5.85706 3
-0.32552278 -0.15892433 5.9936719 3
-1.2561255 0.018912172 5.8409591 3
-1.0924253 0.11452582 5.884738 3.8
-0.89724314 0.088742897 5.837152 4.5
-0.77151972 0.16855015 5.8644724 6
-0.58037114 0.15848462 5.984621 9
-0.34309536 0.032173753 5.9811468 4
-1.2972625 0.34735933 5.8211126 5
-1.0555079 0.33313954 5.9707451 5.5
-0.88032538 0.3251538 5.9005523 6
-0.76497269 0.30657262 5.8352852 6.5
-0.49049973 0.30048046 5.9052334 7.5
-0.36941168 0.26284486 5.9080477 8.5
-1.2813191 0.56243217 5.9058623 9
-1.0677073 0.54584908 5.879107 8.666667
-0.95074505 0.49196705 5.8800554 6.75
-0.69060957 0.5031544 5.9092717 7
-0.59746796 0.4804408 5.9322014 9
-0.35754535 0.40887761 5.9435601 10.5
-1.1744043 0.68529284 5.8050218 15
-0.87848675 0.69179749 5.9497561 12
-0.66654062 0.68124449 5.9259605 10.25
-0.90739733 0.91894007 5.9617257 11.666667
-0.73955834 0.94996732 5.9575348 9.5
-1.6737027 1.176603 5.8100486 15
-1.2879723 1.1168334 5.8184767 11.5
-1.0771112 1.0762752 5.8956137 12.5
-0.94865912 1.033389 5.95263 11.5
-0.74319261 1.0620828 5.9649467 11.5
-0.56022412 1.0465467 5.9375124 21.5
-1.4022226 1.2912649 5.9782238 10
-1.290123 1.3850787 5.8238878 13
-1.0899976 1.3513947 5.9184446 12
-0.87653893 1.3501326 5.8297343 13.166667
-0.69863576 1.2541518 5.885047 17.5
-0.58904958 1.272808 5.9445124 15.5
-1.7854738 1.4790307 5.9206295 18
-1.0464115 1.4373274 5.990407 13
-0.89291906 1.5513197 5.8767934 15
-0.73766017 1.5712991 5.975358 19
-1.6063112 1.6245635 5.9510355 20
-1.2491819 1.6714859 5.8689318 12
-1.1154473 1.7464128 5.838665 13.5
-0.71099979 1.7307522 5.8956709 20.5
-1.1169196 1.9295421 5.9427328 15.75
-0.73245513 1.8680942 5.9714584 17
-1.3168681 2.0323312 5.8655787 14.75
-1.0319583 2.0194552 5.8681746 14
-0.74490273 2.0843115 5.9577293 18
-1.2833738 2.2095799 5.8835607 16.5
-1.1182541 2.3108456 5.894825 18
-0.78106499 2.3939688 5.9191704 20
-1.3501283 2.4912121 5.8640819 19.333334
-1.1261208 2.5575385 5.8995533 17.5
-0.78060114 2.5012007 5.8259735 21
2.1510742 2.4124405 5.9315047 22
-0.85380548 2.6493828 5.8988323 23
-0.47844422 2.611146 5.8953156 23
-0.42761749 -0.16827239 6.1685867 2
-0.33122873 -0.13919348 6.0134678 4
-0.10492567 -0.14339255 6.1386185 3.5
0.028009534 -0.092830077 6.1986341 5
-0.90339261 0.054937556 6.0104442 4
-0.74370158 0.038549881 6.0838957 5
-0.49961296 0.064311989 6.0740952 4.3333335
-0.28149226 0.082092352 6.08675 6
-0.18609256 0.020857733 6.1710129 5
-1.0624906 0.31404117 6.0537233 6
-0.94734114 0.38777715 6.1120772 5
-0.71587992 0.25952229 6.0884514 5.3333335
-0.52905446 0.26585522 6.175806 5
-0.26332986 0.29438949 6.0999579 8.5
-0.18052709 0.3173441 6.153141 8
-0.81375289 0.58221352 6.0181394 13
-0.71659726 0.56171119 6.0520678 7.5
-0.51172113 0.49379289 6.1632853 7.25
-0.3076973 0.46560907 6.1237578 8.333333
-0.16986647 0.48649701 6.1664691 11
-0.75410581 0.67193055 6.1362505 11
-0.47260305 0.62338746 6.1751308 6
-0.30953854 0.74210298 6.1532369 11.5
-0.19283688 0.62709105 6.1490421 15
