# .PCD v0.7 - Point Cloud Data file format
VERSION 0.7
FIELDS x y z intensity
SIZE 4 4 4 4
TYPE F F F F
COUNT 1 1 1 1
WIDTH 1242
HEIGHT 1
VIEWPOINT 0 0 0 1 0 0 0
POINTS 1242
DATA ascii
-4.5710931 1.0300295 4.0622802 8.0509996
-4.4995432 1.0877796 4.0735569 8.5
-4.1525497 1.0328754 4.0590191 10
-4.0112743 1.0133393 4.0364256 10.0375
-3.9095221 1.0090656 4.0276761 12.0315
-3.8407063 1.0647644 4.0896449 12.032
0.80761105 1.0134578 4.0594654 10.0765
0.98804367 1.0730538 4.0246534 22.591499
1.2758359 1.0712752 4.010592 23.098499
-4.917099 1.1406269 4.0644279 10
-4.6505594 1.1152186 4.0214939 9.0247498
-4.5797544 1.1456876 4.0566082 10.028
-4.4763088 1.1360115 4.0295677 9.52425
-4.3634009 1.1414456 4.0481606 9.166667
-4.1522012 1.1601106 4.0052452 11.037
-4.0356126 1.1506268 4.0530982 11.0375
-3.9097316 1.1329235 4.0984879 12.038
-3.607589 1.1122174 4.0792456 14.032
-3.0585611 1.1387813 4.0166292 17.5275
-2.9914944 1.1286453 4.0787768 18.02825
0.75053835 1.152817 4.0317245 20.0935
0.95375496 1.1763029 4.0055094 23.094
-4.6302333 1.2751589 4.0228496 10.02475
-4.5664353 1.2340664 4.0291815 10.75
-4.4759874 1.2621412 4.0657849 10.05
-4.1205254 1.2278744 4.0652018 11.5
-3.7908888 1.2508384 4.0635309 14.036
-3.0330303 1.2824025 4.0710592 19.028
0.94375318 1.2105076 4.0395479 16.085751
-4.9460974 1.3258301 4.0832644 11.0345
-4.5351095 1.3816087 4.0695686 12.02425
-4.061873 1.3812907 4.0908775 11
-3.8907208 1.3002589 4.0140638 14.0355
-3.0462787 1.3240149 4.0262146 19.5275
-2.9907897 1.3217225 4.0705752 20.028
0.92879379 1.3234251 4.0061779 17.59375
-4.7489824 1.4940286 4.0998602 11.0495
-4.615489 1.4711912 4.0065603 11.052
-4.2743578 1.4071054 4.0686293 11
-4.0880613 1.4838874 4.0868826 12
0.89692938 1.4238936 4.0946817 19.087
-5.0513391 1.5785099 4.0128412 12.034
-4.9350162 1.5466483 4.0645738 12.534375
-4.503437 1.5805057 4.0763602 12.0535
-3.7570786 1.5151483 4.0630169 16.035999
-3.6486835 1.5592804 4.0370774 17.0315
0.90105778 1.5974815 4.0291376 19.333334
-4.6629639 1.6351514 4.0673418 12.050751
-4.559958 1.6465116 4.0507584 14.03275
-4.1008759 1.6501275 4.0825129 13.056
-2.9787388 1.6056856 4.0799103 23.028
0.74027175 1.6320766 4.0182457 18.0835
0.85353792 1.6287752 4.0342007 17.371582
0.94173956 1.6515369 4.0422125 21.0875
-4.9561357 1.7514172 4.0141358 14.034
-4.8908215 1.7137564 4.0456066 13.0475
-4.3871341 1.7170663 4.0163732 13.0525
0.85511893 1.7258303 4.055655 20
0.94224668 1.7146566 4.0518618 22.0875
-5.1214571 1.8589525 4.0592566 14.031
-4.9123468 1.8922961 4.072566 14.0475
-4.6893501 1.8170791 4.0730629 13.052
-4.5583229 1.8894327 4.0039988 14.0505
-4.4531269 1.8430952 4.0962005 15.0165
0.97658432 1.876878 4.0372415 23.087749
-5.2610807 1.9500512 4.0074425 13.048
-4.6332188 1.9438474 4.0306334 15.036
-4.5493569 1.9919462 4.0562363 15.0495
-4.4453936 1.9303085 4.095407 15.05
0.7696138 1.9015344 4.0781317 20.0835
-4.8409672 2.0500503 4.0643806 15.0475
-4.7128768 2.0917969 4.0212693 16.047501
-4.6129928 2.0348361 4.0343561 16.032499
-4.5578675 2.0729845 4.046041 15.716499
-4.4448133 2.0199132 4.0407133 16.043499
-4.3692479 2.069629 4.0551624 17.036501
-4.1669998 2.0308416 4.0761938 15.5
-3.5673206 2.0845735 4.0550876 22.0315
0.81134522 2.0838101 4.0771151 18
-5.1995287 2.1047058 4.0686436 15.034
-4.6085033 2.1718309 4.0580063 15.0505
-4.5501289 2.1704044 4.0562973 17.539501
-4.4715176 2.1382396 4.0918808 16.051001
-4.3385124 2.1827948 4.0969706 18.035
-4.1299324 2.1834333 4.0776749 17
0.81544936 2.1915007 4.0241971 18.5
-4.9595556 2.2995083 4.04038 17.0355
-4.6539664 2.2814686 4.0972767 16.050501
-4.5741611 2.2816195 4.0443687 16.052
-4.4146338 2.2531855 4.0716295 16.0525
0.80054814 2.2462316 4.0385623 19
-4.0699348 2.3966956 4.0882692 18
3.3960187 2.3802049 4.0159616 21.096001
0.80003732 2.4514322 4.0254092 20.0765
-4.2205877 2.5002739 4.0913596 21.033001
-3.576493 2.6923378 4.0950432 20.056
-3.4446764 2.6659241 4.0321054 21.05625
-3.0025799 2.6439247 4.0414381 21.0595
-2.9258959 2.6519506 4.0734825 21.059999
-2.8257351 2.6734803 4.0682015 20.30925
-2.7152691 2.6762874 4.0637822 19.0585
-2.6666837 2.6561768 4.0203247 21.061501
-2.586699 2.6676238 4.0671301 20.060501
-2.4732776 2.6625061 4.0804839 20.061001
-2.338728 2.6582503 4.060811 19.059999
-1.8828272 2.6243293 4.0471983 20.062
-1.7798589 2.6255877 4.0587783 20.0625
-1.67642 2.6560042 4.0315757 20.063
-1.5579301 2.6509614 4.0549574 21.06575
-0.81159735 2.6159437 4.0807261 21.067499
-0.4386867 2.6729126 4.0460992 22.0695
-0.3507522 2.6571832 4.018671 22.07
-0.27103513 2.6117926 4.0825863 21
-0.086260796 2.6731126 4.0365753 21.571501
0.047622085 2.673203 4.0405169 22.036251
0.42288119 2.6918299 4.0934162 23.0795
0.52043849 2.6588373 4.0554647 22.077499
0.61946601 2.6345692 4.0722523 21.0755
0.73310584 2.6469302 4.0404215 21.788
0.8336333 2.6704299 4.0074553 22.582001
-4.9390821 2.7547784 4.0575223 18.542
-4.575202 2.7885556 4.0918646 22.031
-4.4764934 2.7429438 4.0427032 19.550751
-3.7504663 2.7163002 4.0362425 20.666666
-3.2456527 2.7154124 4.0666795 20.02825
-2.6196723 2.7466598 4.0846238 22.75
-2.392626 2.726768 4.0978274 23.0625
-2.2365301 2.7514145 4.0080781 22
-2.1901021 2.7101617 4.0966873 21.5
-2.0433257 2.7744887 4.0450654 23.064501
-1.8545082 2.7754841 4.0532842 23.0655
-1.763561 2.7784376 4.0578551 23.066
-1.6705027 2.7808609 4.053833 23.0665
-0.32088637 2.7611392 4.0398636 23.075001
-0.23910408 2.7320838 4.0768771 23.0755
-4.8147011 2.850594 4.0377455 20.0355
-4.7185936 2.8304601 4.0690165 19.049
-4.6309614 2.8298593 4.0880756 20.535999
-4.3049278 2.8431144 4.0428686 22.032499
-4.2599535 2.8756504 4.0593338 22.412563
-4.157999 2.8307393 4.043262 21.05125
-4.0192523 2.898921 4.0814695 23.037001
-3.9742217 2.8928196 4.0840788 22.050751
-3.8721998 2.892329 4.0394897 22.052
-3.504849 2.8465474 4.0397243 22
-3.4567406 2.8553329 4.0398159 22.555
-2.9143867 2.8185925 4.0794611 23
-4.3256149 2.90502 4.0081654 22.04775
-4.1724138 2.9084678 4.0311937 23.032499
0.40350783 -0.20287672 4.1751757 2
1.3775254 -0.24455659 4.1982799 0.5
1.605337 -0.250682 4.1439805 2
1.9837902 -0.26390922 4.1348753 2
-4.073451 -0.10153896 4.1729388 1
-2.1510191 -0.11115462 4.1479373 1
-1.8922198 -0.11393568 4.1884804 1
0.24096704 -0.1190992 4.1406116 1
0.87376457 -0.14259867 4.1195164 2
-2.4715605 -0.037500929 4.1504755 2
-2.3939233 -0.080856778 4.117641 2
-4.1086283 0.064213641 4.1001916 1
-3.7199035 0.030301608 4.1595545 2
-3.6521666 0.031456493 4.1902008 1.75
-2.7681601 0.014693107 4.155437 3
-4.6316156 0.10023431 4.1364861 1.6666666
1.7118191 0.17984188 4.1084867 8.0939999
-3.9374056 0.27546796 4.1275721 4
0.9044143 0.27825379 4.1087465 8.0939999
-4.4215474 0.39942157 4.1522961 4
-4.2034039 0.39231545 4.1536083 4
-4.0323396 0.32724196 4.1484547 4
-3.7596555 0.32544151 4.1330061 5.5
0.8766346 0.36746481 4.1749535 12.336624
1.0379457 0.34826314 4.1556969 11.092
1.3615525 0.32854185 4.178124 11.596251
1.5626705 0.32174098 4.1058087 11.0975
1.7125579 0.33401746 4.1139898 11.094
-3.092937 0.46201611 4.1575375 9.0292501
1.0730567 0.41918793 4.1611938 12.092
1.2344279 0.48405752 4.1739783 15.096
1.4730848 0.43734199 4.1203198 12.0905
1.9492369 0.41733798 4.1277375 11.098
-4.4967847 0.55846256 4.1403332 5
-4.276082 0.50158483 4.1890626 5
-3.9724321 0.53314948 4.1569715 6
-2.9539595 0.50554752 4.133873 10.02925
0.86382169 0.5089168 4.1570511 9.085
1.3076632 0.5351299 4.1108322 15.097
-4.3573828 0.66572303 4.1130452 6
-4.095593 0.62611234 4.17554 6
-3.8526008 0.67864436 4.1404161 9.0272503
-3.7559097 0.66494197 4.1264958 8.678833
-3.6036897 0.61966717 4.1853628 9.033
-2.975239 0.61365712 4.1243019 11.029
0.83983964 0.68465686 4.111517 10.084
-4.3851252 0.70742124 4.164031 6
-4.0394425 0.75622666 4.1306973 7.7212086
-3.9271474 0.78544277 4.1291361 8.5430002
-3.8817382 0.77956259 4.1754527 8.5454998
-3.7290487 0.72072697 4.1560531 9.2662506
-2.9595065 0.70499569 4.1485205 12.52925
-4.7543249 0.88904345 4.1199913 8.0485001
-4.617662 0.88463938 4.1678877 8.0489998
-4.3738852 0.84021449 4.1357117 7
-4.2034044 0.84852421 4.1023808 8.0509996
-4.0532327 0.85355413 4.140048 8.5
-3.858887 0.86754531 4.1279964 8.0570002
-3.765419 0.87454319 4.145668 9.3646669
0.951882 0.85743183 4.157732 19.089626
1.3051094 0.81821012 4.1218605 19.097
-4.9528112 0.95956701 4.1091943 9.03475
-4.8977923 0.95086378 4.1214695 9
-4.7624488 0.99610084 4.1539698 9.0367498
-4.0147152 0.93448806 4.1142082 10.038
-3.9549131 0.97239166 4.1607027 8.0574999
-3.8298202 0.97743571 4.1971517 8.0579996
-3.7466149 0.93460292 4.1782837 11.0195
-3.6812234 0.9051826 4.1981039 10
0.94273245 0.97083032 4.1348062 21.089874
1.6755966 0.94405961 4.1662388 18.0905
-5.8121171 1.0943271 4.1052389 9.0264997
-4.1298795 1.0595096 4.1592574 10.009167
-4.0555143 1.0483363 4.1504779 9.5282497
-3.9651864 1.0488163 4.1649699 10.5635
0.99599379 1.0661541 4.1501079 22.092251
1.3583853 1.094535 4.1013103 23.0975
1.6444086 1.0204997 4.1596599 19.0905
2.2414308 1.0997262 4.1539702 18.098499
-4.3256555 1.1198771 4.1856785 10.051
-4.290576 1.1010696 4.1942396 9
-4.0669231 1.1431589 4.1240311 10.519
-3.7389929 1.123058 4.1872263 12.039
-3.661128 1.1691929 4.1751852 13.037
-2.9358816 1.1189483 4.1393986 18.028999
0.78210866 1.1909913 4.1027098 13.0825
0.87360829 1.1310618 4.1387053 15.085
-4.9383879 1.2584466 4.1173735 11.0315
-4.853673 1.2422925 4.1164842 10.5
-4.7612309 1.2746184 4.1266327 11.0365
-4.6363306 1.2526801 4.1543279 10
-4.5907226 1.2495853 4.1571908 10
-3.8443217 1.2997909 4.1814528 14.0325
-3.7358851 1.2120816 4.123632 13.0365
-2.9528656 1.2591419 4.1422367 19.278873
-4.6415024 1.3689337 4.1442547 11.04925
-4.5314684 1.3547792 4.1662059 11.542999
-3.9411676 1.3648344 4.1619949 10.0575
-2.9521203 1.3343147 4.1082425 20.0285
0.87428457 1.3956462 4.1087017 17
-6.302628 1.4249065 4.1507015 10.0265
-4.3412957 1.4509635 4.1487846 11.525249
-4.2438526 1.4281263 4.1720324 12.051
-4.1614933 1.4540416 4.1256137 13.0495
-3.6722772 1.4705584 4.1535597 15.536751
-3.5909762 1.4816093 4.1645441 17.032499
-2.9140334 1.4994951 4.1095324 22.0285
-2.8564017 1.4169866 4.1903672 22.029499
0.86543924 1.4643503 4.1027856 18
-4.8396392 1.5259145 4.1758103 12.535
-4.5963345 1.5894885 4.1397562 12.05
-4.4036818 1.5205179 4.1394238 12.054
-3.5382957 1.5262676 4.1598611 18.032499
-2.8786409 1.5698054 4.1626954 23.028999
0.80970758 1.5717155 4.1392808 19.084499
-4.8145103 1.6560787 4.1363387 13
-4.6869993 1.6011583 4.1696496 13.0485
-4.4610271 1.6628475 4.1061788 12.666667
-4.2008348 1.6183448 4.1243129 13.0535
-3.9790447 1.6477354 4.1464996 14.047251
-3.8586693 1.6519134 4.1713591 13.057
-3.6807303 1.6998405 4.1356411 18.036501
-3.5732465 1.6585022 4.170536 18.037001
-4.2854986 1.7145656 4.1854439 13
-3.7234569 1.7998414 4.1183753 19.0215
-4.8015375 1.8391669 4.1367416 14
-4.433794 1.8970728 4.1198473 14.5
-4.2984743 1.8524157 4.1309848 15.0505
-4.1514153 1.8493215 4.1175642 14.0545
-4.050683 1.8434199 4.1546392 14.055
-3.6613889 1.8264229 4.1376028 19.036501
0.82353771 1.8703119 4.1072741 16.5
-4.7745819 1.9524329 4.1388578 14.75
-4.6785431 1.9379667 4.1886144 15.0485
-4.5404658 1.9386945 4.1664109 15.04225
-4.4195027 1.980767 4.1330366 15
-4.3738589 1.9897332 4.1680698 16.549
-4.2376003 1.9452164 4.1712923 15.54575
-4.0217533 1.9234563 4.19561 17.038
-4.4586945 2.0446925 4.1185584 16.04925
-4.3295336 2.0586638 4.1373005 17.037001
-4.1302609 2.0325043 4.1131601 15.5
-4.0289459 2.0547545 4.1868782 17.268
-3.4709597 2.046494 4.14746 22.032249
-4.5803571 2.1314473 4.1195765 17.033001
-4.4899015 2.1516054 4.1366138 17.0485
-4.3879304 2.1322112 4.154212 16.025749
-4.1151094 2.1924903 4.1200924 17
-3.3788648 2.1735458 4.1770215 23.032499
-4.4838095 2.2496943 4.1444888 18.0485
-4.6952252 2.3193569 4.1428666 17.0495
-4.3205013 2.3494365 4.1056309 19.035
-4.145442 2.3414106 4.1574593 17.55275
-4.0655503 2.3240907 4.1498222 17.702333
3.2248127 2.3976517 4.1809945 22.094999
-4.9297547 2.4344857 4.1468973 17.035999
-4.7459698 2.4755416 4.100307 20.026501
-4.3038869 2.531446 4.1536274 20.037001
-4.261261 2.5954721 4.1898422 21
-4.3097353 2.6186471 4.1595316 21
-4.0366368 2.6842289 4.1084127 20.053499
-3.9553559 2.6019301 4.1645169 19.054001
-3.3360677 2.6768284 4.1459885 21.0285
-3.2391 2.6790819 4.1603746 19.5305
-2.7399087 2.6633019 4.1689577 21.556917
-2.3531234 2.6605151 4.1296492 21.0315
-1.0526537 2.6329062 4.1195545 21.06625
-0.91826928 2.6209729 4.1488824 20.566999
-0.73025346 2.6008499 4.1623917 21.068001
-0.6425525 2.6101308 4.1628809 21.068501
-0.54509073 2.6054757 4.1360121 21.069
-0.45029598 2.6061738 4.117516 21.0695
-0.35140604 2.6187665 4.1125188 21.07
-0.13867001 2.6527159 4.142529 21.423666
0.069399357 2.6394093 4.1253867 21
0.18563746 2.6269791 4.1620169 21.073
0.35536003 2.6575751 4.1293707 22.0765
0.46124411 2.6291547 4.129149 21.074499
-4.8478327 2.7466223 4.1974144 19.036251
-4.4418368 2.7232215 4.1319518 19.380915
-4.3508601 2.7310784 4.1639905 19.052334
-4.2549934 2.7238197 4.1823149 22
-4.1179624 2.7823756 4.1686573 23.0355
-3.9207921 2.7573049 4.1440001 20.054001
-2.6097305 2.7376947 4.1136408 22.061501
-2.5351009 2.7271557 4.1560721 22.562
-2.3205779 2.7553666 4.1437583 23.063
-4.5245066 2.8171458 4.1755004 21.035
-4.3557997 2.8308935 4.1382246 22.034
-4.2373743 2.859642 4.1293216 23.033167
-4.1864977 2.8769531 4.1361818 22.037001
-4.049098 2.8113716 4.1428862 21.052
-3.7492509 2.8870592 4.1195188 22.05275
-3.4070196 2.8467457 4.1067858 22.5555
-3.3104575 2.8483543 4.1386313 23.056
-3.2275436 2.848727 4.180408 23.056499
-4.1809087 2.9087591 4.1735954 23.049
-3.931854 2.9117258 4.1138291 23.051001
-3.8518009 2.9064236 4.1682096 23.0515
-6.8605309 3.3120115 4.1269083 17.045
-3.4880903 -0.22022478 4.2894459 1
0.53374141 -0.20533562 4.2106605 0.5
-3.1322322 -0.11582379 4.2893519 0
-2.2551451 -0.1138085 4.2584562 1
-1.5679239 -0.16626476 4.2856441 0
-1.4292914 -0.14851533 4.2236691 0
-1.2030829 -0.15163535 4.2150068 0.5
-0.59908819 -0.12971136 4.2805004 2
0.36686572 -0.15387727 4.2463102 1
0.97988099 -0.19891998 4.2463288 2
-2.4344873 -0.024954371 4.2350769 2
-2.3857105 -0.081718683 4.2599344 1
1.6623414 -0.084006116 4.2426972 4.5
1.6822277 0.011355937 4.2593098 6
-3.9318624 0.19409558 4.2655387 3.5
-3.7564585 0.15553711 4.2386627 3.75
-2.9589255 0.16101041 4.2060347 5
1.5729645 0.16247807 4.2062435 8.0895004
-4.060008 0.2726678 4.2670145 3
-3.9568784 0.25552917 4.2352185 4
-3.738318 0.27705678 4.2234745 5
-3.6844604 0.27104712 4.2476082 4.3402777
-2.9185014 0.25491893 4.2048483 6
-3.9606688 0.34265023 4.2310696 4.833333
-3.7394462 0.34908903 4.2066097 4.5
-2.8010397 0.30274564 4.2730989 7
1.0776093 0.33998901 4.2095208 11.0915
1.1116366 0.33171159 4.257513 10.091
1.7297772 0.33326021 4.2765055 9.75
-3.9826488 0.40258378 4.2999582 4
-3.6768413 0.47034615 4.2983613 6
-3.0133946 0.4764325 4.2185931 9.0299997
1.2971995 0.47773585 4.2752233 14.095
1.3352917 0.49829671 4.242013 14.0955
1.7249128 0.45031294 4.2919426 11.75
2.1956789 0.49665466 4.2980118 11.097
-4.1265364 0.54943073 4.2664385 5
-3.5043092 0.58241022 4.2823086 7
-2.9247985 0.5144645 4.2129478 10
-2.8773012 0.55377823 4.275116 10.515375
-4.1444201 0.66288042 4.2192907 6
-4.0143752 0.67736048 4.2100034 6.5
-3.7244842 0.64707965 4.2782393 8.1922493
-3.6725049 0.65395737 4.2504177 7.5666666
-3.5874839 0.69960523 4.2592926 10.0335
-2.9294796 0.62258196 4.246521 11.262
-2.861928 0.64161122 4.2661433 12.03075
0.81517464 0.61682874 4.2029691 10.0845
1.440364 0.61722696 4.2741871 16.095501
1.7537407 0.63721287 4.2960391 14
-4.2647295 0.76427674 4.2113533 7
-3.9096277 0.72644496 4.2121449 8.0509996
-3.839941 0.72869927 4.2598143 8.0515003
-3.7767365 0.7475481 4.2233062 8.2765007
-3.6639233 0.79249269 4.2766366 8.0535002
-3.596297 0.73790938 4.2969384 7
0.91700625 0.7776767 4.226356 19.0865
2.2788439 0.74895704 4.2293363 12.0935
-4.3056993 0.82573795 4.2286348 7
-4.0734 0.88733709 4.2309856 10.0345
-3.9679589 0.87774134 4.2674718 10.034
-3.7202911 0.84952867 4.256485 8.7628746
-3.6423202 0.87503541 4.2584963 10.166666
-3.1448371 0.82753396 4.2687545 13.03
-2.9472227 0.84488064 4.2911649 14.024
0.99253738 0.86272234 4.2204475 22.0895
1.3741837 0.84945166 4.2015853 19.096251
1.7135483 0.86744159 4.2131386 17.09
-4.4240484 0.98660713 4.2200098 8.0535002
-4.010366 0.94166851 4.21171 10.0385
-3.9544251 0.91745156 4.2491879 9.0509996
-3.8596561 0.94623822 4.2507586 9.7150002
-3.7293003 0.93757451 4.2428417 11.1178
-3.6672821 0.9381538 4.2749705 10.344501
-2.913528 0.93606961 4.2957492 15.024
0.92371988 0.97615892 4.279345 21.086
1.0276887 0.93953007 4.2093334 19.422499
1.2302577 0.90634942 4.2740359 21.094999
-4.7108922 1.0085158 4.2136784 9.0354996
-4.3190904 1.0903814 4.2955236 9.0515003
-4.2047238 1.0964377 4.2027302 9
-4.1066957 1.0392147 4.2006464 12.028
-4.0366373 1.0358539 4.2640228 12.0285
-3.9625475 1.0068815 4.2254615 9.0570002
-3.8454423 1.0736974 4.2634544 11.02575
-3.7430089 1.0594975 4.2095728 13
-3.6780021 1.0550059 4.289721 13.0335
1.0108325 1.0612755 4.2188315 21.091499
1.8350214 1.051468 4.289566 18.0895
-4.6590109 1.1689965 4.2088671 11.0355
-4.563374 1.1780226 4.2432833 10.04325
-4.329874 1.1648244 4.2440014 9.4444447
-3.9437838 1.1489146 4.2371435 10.333334
-3.8742626 1.1298423 4.2421188 10.0485
-3.7251058 1.1162041 4.2490559 11.04675
-3.6488259 1.1552237 4.2510028 12.179166
-3.5778968 1.1168728 4.2856946 13.037167
-2.8804755 1.1597257 4.2287083 18.530001
-2.798305 1.1029247 4.2992506 19.031
1.8584517 1.1704339 4.2941747 20.0895
-4.4592896 1.2523857 4.2372131 10.052
-4.1497159 1.2712718 4.2152653 11.0515
-4.0443611 1.2551695 4.2415724 11.55125
-3.8869512 1.222203 4.2549157 11
-3.763649 1.2658043 4.2735877 12.048167
-3.6520543 1.2718518 4.2883902 10.0295
-2.9273784 1.2468772 4.2920694 19.0305
-2.8684454 1.2599597 4.2575674 20.030251
1.6894932 1.245555 4.2500916 20.591251
-4.6194739 1.3366202 4.2428255 11.0505
-4.1432037 1.3733987 4.2024217 12.0515
-3.9267642 1.3553895 4.2196484 11.5
-3.8614962 1.3467468 4.27037 12.030999
-3.4375212 1.3832744 4.2750058 17.033501
-2.8234835 1.3615381 4.2545276 21.530251
-6.1319838 1.4007103 4.240026 10.027
-4.1522293 1.4711056 4.2275076 12
-4.0431585 1.4282291 4.2272563 12.547501
-3.9570141 1.411734 4.2278357 12.05375
-3.8507895 1.411153 4.2895565 11.0575
-3.7731519 1.45236 4.2491212 14.537
-3.5482383 1.4831935 4.2270651 16.0375
-3.386291 1.4828317 4.2715578 18.033501
-4.8069515 1.5755405 4.2236075 13.032
-4.7684307 1.5160446 4.2546954 13.0355
-4.3373728 1.5813587 4.2083025 12.2
-4.1598806 1.5490143 4.2150602 13.296
-4.0887876 1.5705527 4.2626238 12.5
-3.5192194 1.5449735 4.2820568 16.040001
-3.4748917 1.5082755 4.2143965 18.033001
-2.8448887 1.5647535 4.2000408 23.029499
-3.8973434 1.6098316 4.2947969 14.0525
-3.7531974 1.6561115 4.249434 15.046249
-3.5367651 1.6481975 4.2341018 18.0375
-3.4895401 1.6138592 4.2907 18.038
-4.7194619 1.7535721 4.2221131 15.032
-4.600502 1.7411491 4.2400665 14.049
-4.3441792 1.7962632 4.2264929 14
-4.2267089 1.7241484 4.280097 14.0515
-4.0360498 1.721107 4.2920361 14
-3.946682 1.7417016 4.2390852 16.050501
-3.7183974 1.7346792 4.2868147 13.5
-3.5104203 1.7964734 4.2332921 19.0375
-3.4560785 1.7920071 4.2887526 19.038
-4.7122083 1.8922943 4.2289081 14.05
-4.6075134 1.8877461 4.2908559 14.0505
-4.5727596 1.8683685 4.2429256 15.049
-4.3253055 1.8340056 4.2299967 15.517
-4.2679343 1.8902348 4.2238493 15.183167
-3.9419913 1.862523 4.223608 14.05625
-3.8314712 1.8453515 4.2664199 14.056749
-3.7998581 1.8627634 4.2910447 19.033001
-4.7323341 1.9058336 4.2651701 15.0355
-4.6011643 1.9088608 4.2814116 14.053
-4.483634 1.9791664 4.2787027 16.0375
-4.3141599 1.982749 4.2487836 17.034
-4.2817688 1.9411852 4.2306056 14.526
-4.1093173 1.9586549 4.2435985 15.553249
-3.9644887 1.9481851 4.2683554 16.053751
-3.8469923 1.9133123 4.293148 17.051001
-3.6280189 1.9664333 4.2967548 20.0375
-4.6051207 2.0520236 4.2248812 16.037001
-4.3606701 2.0804427 4.2787066 16.046835
-4.2423038 2.0415301 4.2196507 16.52475
-4.1775484 2.033246 4.2742057 15.55325
-3.3371706 2.0382066 4.2770467 22.533375
-5.624547 2.1489539 4.2475657 15.027
-4.5279093 2.1483088 4.2175398 17.532749
-4.4663267 2.1250565 4.2171001 15.053
-4.3147812 2.1883922 4.2666249 18.0495
-4.265028 2.1853609 4.2069683 16.052
-3.3378539 2.1052325 4.2383308 23.033001
-4.4959016 2.2466216 4.2965221 18.0375
-4.257318 2.2547019 4.2245474 17.034334
-4.0357738 2.2109172 4.261704 17
-3.7976742 2.294621 4.2429862 17.056
-3.4690089 2.2993665 4.2571669 23.0375
-4.6386533 2.3249447 4.2129378 17.049999
-4.5468869 2.3177724 4.2896776 17.050501
-4.2450447 2.3379397 4.2562432 19.542749
-4.1422811 2.3089006 4.2798223 17.775749
-3.9306648 2.3302889 4.2035222 17.52775
-3.5734506 2.3992939 4.2234445 23.037001
-4.1154919 2.4805284 4.2653518 20.038
-3.8129539 2.4576182 4.2795658 19.055
-4.2868361 2.5245521 4.2411699 20.0375
-4.1433363 2.5567439 4.2675104 21.034
-3.878633 2.5298448 4.2151232 19
-0.19087844 2.5878737 4.2933707 20.070999
-0.094258085 2.5826392 4.2454453 20.071501
0.010214875 2.5950375 4.2306128 20.5
0.70727468 2.5812278 4.2716556 21.333334
0.81102622 2.5616794 4.2466125 21.081499
-4.0690804 2.6547494 4.2234764 19.055
-3.9755964 2.6553123 4.2857518 19.0555
-3.4131243 2.6306169 4.2909942 18.060499
-3.2596018 2.6440029 4.2408485 17.056999
-2.7332487 2.6314385 4.2755156 21.061501
-2.5138061 2.6776836 4.2819285 22.0625
-1.3430996 2.6989264 4.2340865 20.065001
-1.2304956 2.6904099 4.2247534 20.0655
-0.8332808 2.6179564 4.2016597 20.067499
-0.13651483 2.678014 4.2091351 22
0.16919599 2.6498637 4.2567701 21.789
0.28553432 2.6259689 4.2653584 21.0735
0.35465503 2.639185 4.2998457 22.079
-4.5120764 2.7615685 4.265595 21.0355
-4.3254271 2.780858 4.2097282 20.050501
-4.2501502 2.775816 4.2767358 20.051001
-4.1320066 2.7382267 4.2647643 22.034
-4.0191717 2.7572424 4.226645 23.035999
-3.921205 2.7266324 4.2687535 23.036501
-3.8104632 2.7526078 4.2180243 21
-3.7540197 2.742707 4.259553 21.055
-3.6391721 2.7029738 4.2700958 19.029251
-3.2830875 2.7047334 4.2892103 18.056999
-3.1091316 2.7157087 4.2397199 18.057501
-3.0245595 2.7232463 4.2145495 21.666666
-2.8410277 2.7651081 4.259861 23
-2.7346835 2.7595127 4.2637844 23.059999
-2.6442063 2.7641323 4.2880821 23.060499
-2.5511897 2.7525454 4.2949924 23.061001
-2.3508916 2.7157416 4.2638512 22.56325
-2.2120485 2.7292702 4.2868948 23.063999
-2.115665 2.7324197 4.2909317 23.064501
-2.022568 2.7343488 4.2970009 23.065001
-1.9347622 2.7269549 4.2460604 22.5655
-1.8710874 2.7185524 4.2599716 22.377335
-1.638947 2.7190847 4.2870274 22.067249
-1.5061829 2.7232635 4.2884345 22.568001
-1.2373376 2.7404294 4.273016 23.0695
-1.1427873 2.7416117 4.2461557 23.07
-1.0527829 2.7457263 4.2286787 23.070499
-6.463254 2.8177772 4.2453518 15.046
-4.8070335 2.8532305 4.2225142 19.0495
-4.3078656 2.8589025 4.2205281 22.0355
-4.1205068 2.8796647 4.2068386 23.0375
-4.0041776 2.8259671 4.2190104 21.0525
-3.7570763 2.8899169 4.2108197 23.052
-3.6914358 2.8980629 4.2632294 23.0525
-3.5620928 2.8947361 4.2492032 23.054001
-3.449878 2.8639262 4.2630224 22.55525
-3.1438861 2.8495696 4.2112627 23.056999
-3.0760436 2.8677647 4.2649045 23.057501
-4.1114454 2.9099848 4.2376046 23.0495
-4.0644131 2.9213109 4.2734971 23.035999
-3.6487956 2.9035501 4.2123551 22.053499
-6.960433 3.1188002 4.2634768 16.0455
-6.3712726 3.3452358 4.248044 18.033501
-1.0552576 -0.25948414 4.3212957 0
-0.84509945 -0.22248179 4.3372707 0
-0.79129303 -0.20056465 4.3817596 0
0.73610425 -0.21254617 4.3797932 2
1.2811441 -0.22456735 4.334095 2
-3.2968495 -0.19058831 4.3617477 1
-2.3174834 -0.11233599 4.3927841 2
-2.0925999 -0.16185878 4.3577237 0
-1.6793001 -0.16762789 4.302114 0
-1.5231943 -0.15723798 4.399127 0.75
-0.57861602 -0.17535907 4.3554773 1
-0.15896755 -0.12664093 4.3474083 3
-0.047676325 -0.13000442 4.3622389 1.3333334
0.085510135 -0.18117844 4.3976297 2
0.42005968 -0.16538568 4.356719 2
-3.9171793 -0.014038468 4.321516 1.6666666
-3.7768478 -0.033959895 4.3820701 2
-2.4576302 -0.024967015 4.3072138 2
-2.2928402 -0.083433881 4.3719893 2
-1.7616782 -0.068151809 4.3593302 3
-3.635138 0.086746797 4.3313661 3
-3.6376951 0.10958044 4.3861065 3
-3.5771532 0.15492056 4.3051672 4
-4.5800471 0.27395824 4.3107967 3.5
-3.8112035 0.28216496 4.3709722 5.1999998
-3.6433802 0.27982157 4.3763661 4
-3.5897181 0.27019569 4.3483753 4.5
1.1979091 0.21546364 4.3794994 8.0900002
-3.9922302 0.39524797 4.3255129 6
-3.8371749 0.37233281 4.3176117 4
-3.7161796 0.30153245 4.3590655 4
-3.677479 0.31638131 4.3798971 4
-3.5848901 0.36985856 4.3688226 5.75
2.6466148 0.39183596 4.320189 9.0974998
-3.7246246 0.47166213 4.3636618 5
-3.6693861 0.45033634 4.31955 7
-3.0170267 0.46020564 4.3646545 9.0247498
-3.9455128 0.57087308 4.3241878 7.7667499
-3.8468451 0.56615686 4.357213 6
-2.8127041 0.53887397 4.3861408 11.03225
-2.7650833 0.57506484 4.3435931 11.035335
-2.6268556 0.57182968 4.3782449 12.0365
-3.9426315 0.65773606 4.320087 6.477778
-3.6059489 0.68812275 4.3197913 8.3999996
-2.9902239 0.60888112 4.3839331 11
-2.7532332 0.66137612 4.3896785 11.539
1.7469267 0.68435168 4.309504 14.5
-3.9760818 0.77130359 4.3371172 7.0999999
-3.8631418 0.71952885 4.3767042 7
-3.6247618 0.75282103 4.3559685 8.4444447
-3.5446892 0.76123214 4.3329515 7.9739447
-3.479928 0.76481473 4.3571033 8.7772503
-3.0267057 0.75089568 4.3437123 13.031
-2.9593749 0.72915745 4.3587389 12.778
1.4135447 0.78262091 4.3228302 18.094999
1.7295777 0.76570481 4.3093052 16
-4.0644026 0.85740125 4.3102856 8.0267506
-3.8959827 0.84024382 4.3524637 10.533751
-3.6258383 0.87886864 4.3311386 9.6836662
-3.5296555 0.86163437 4.3597689 10.01725
-3.0797527 0.8246879 4.331152 13.53075
-2.945399 0.84570366 4.3613853 13.53
-2.580096 0.89471757 4.387558 16.036501
1.3188164 0.86582708 4.3396111 20.0945
-3.9504311 0.93741226 4.3759995 9.0530005
-3.8495915 0.98504078 4.3883901 12.034
-3.7444332 0.95845598 4.3051491 9.0579996
-3.60956 0.91803682 4.3477478 10.046249
-3.5846438 0.9436332 4.3657346 8.5296249
-2.8639154 0.9805975 4.3444872 16.0245
1.7643105 0.92060244 4.3277693 17.089001
2.5612736 0.99972904 4.325213 15.0975
-4.1897469 1.057219 4.3195496 9.052
-4.0914326 1.0543777 4.3394842 9.0535002
-3.9472816 1.0694385 4.3542323 10.171024
-3.8577824 1.0928346 4.3581657 9.875
-3.6324518 1.0788913 4.3329973 10.2795
-3.5409014 1.0543836 4.3360825 10.324333
-3.4481452 1.0440516 4.3598008 10.25
1.3172488 1.0283046 4.3877726 19.0905
1.8553833 1.0468534 4.3476229 18.089001
-4.1507068 1.104241 4.3243313 11.037
-4.0117693 1.1365103 4.3743982 9.727273
-3.9659915 1.148398 4.350565 12.0375
-3.6598923 1.1612812 4.3205328 12.530875
-3.5429859 1.1283842 4.3443842 12.0405
-3.2991207 1.1887065 4.3796349 10
-2.7441003 1.1687964 4.3493123 19.5
1.297756 1.1250198 4.3873153 20.0905
1.3432897 1.1770279 4.3517504 20.591
2.4583335 1.13625 4.3407588 17.09725
-3.8536127 1.2615495 4.3199005 12.05225
-3.7446895 1.2569556 4.3366718 13.293625
-3.6558781 1.229844 4.3622465 13.294375
-3.552953 1.2420542 4.3904567 10.0595
-2.7554526 1.2733814 4.3424544 21.0315
-2.6426105 1.2766376 4.3140869 19.038
1.8955082 1.2206988 4.3570733 19.589001
-4.5496535 1.3609607 4.3333006 11.051
-3.848887 1.366913 4.334856 13.0395
-3.6659999 1.3490064 4.3727565 13.546249
-3.5395648 1.3494946 4.3487573 15.687333
-3.4675007 1.3810717 4.3812904 13.0545
-3.3830609 1.3343691 4.3845654 13
-4.5966115 1.4909734 4.306633 13.036
-3.7617452 1.4333788 4.3439374 12.543278
-3.6271975 1.4537008 4.3184638 16.0355
-3.5244794 1.4396322 4.360034 15.384
-2.8035269 1.4658628 4.3478312 23.03125
1.8588513 1.4598411 4.3093033 22.0895
-3.9692554 1.52697 4.3360806 11.716499
-3.8514566 1.5340487 4.3683763 13.383667
-3.7034233 1.5976241 4.3542972 15.052
-3.6328626 1.5095738 4.3650417 12.5
-3.5357332 1.5625933 4.3732505 17.035999
-3.4497716 1.5659646 4.3474483 16.833334
2.001905 1.5175678 4.3983393 22.089001
-4.1183643 1.6618185 4.3201551 14.052
-3.7752523 1.6407659 4.3085384 16.0515
-3.6477785 1.695134 4.3942757 18.034
-3.5551212 1.6865386 4.3282571 14.902223
-3.488091 1.6260054 4.3509102 17.5
-4.5454111 1.7026291 4.3164663 14.0495
-3.6935809 1.7654761 4.3042765 17.039499
-3.4120431 1.7431386 4.3407288 18.75
-4.6364884 1.8851503 4.34585 15.036
-4.5494547 1.8533281 4.3690844 15.54125
-3.9007151 1.8876214 4.3694897 15
-3.7329462 1.8254724 4.318882 14.55725
-3.6718476 1.8330293 4.3725004 17.544125
-4.4668293 1.9491315 4.3523846 15.04575
-4.326335 1.9537055 4.3506079 16.042999
-3.9357677 1.989566 4.3489852 15.056
-3.7539177 1.9186425 4.37714 18.05175
-3.5092578 1.9371904 4.3186183 21.023001
-3.24856 1.9622356 4.3679476 22.53425
-5.3036413 2.0432825 4.3154573 16.0275
-4.3734803 2.0124545 4.3727541 17.036501
-4.2084088 2.035826 4.3248715 18.0345
-4.1071839 2.0394444 4.3482018 16.052
-3.9870212 2.0180564 4.380291 17.0525
-3.2749186 2.0884967 4.3853474 22.039
-4.5402379 2.1389315 4.3076253 17.0375
-3.2944584 2.124157 4.3274841 22.0385
-4.3166199 2.2732096 4.3710618 18.049999
-4.2412238 2.2401159 4.3320208 17.0515
-4.1449575 2.2409701 4.3915062 16.553749
-4.073873 2.2574747 4.3492403 18.052
-3.9808142 2.2087774 4.3956146 18.0525
-3.8519008 2.2748694 4.3292184 17.5
-3.7163053 2.2854216 4.3067393 17.056499
-3.600718 2.2559636 4.3461046 17.056999
-4.2094898 2.3328896 4.3399968 17.553249
-4.04848 2.3940575 4.3401008 19.5
-3.9638736 2.3466749 4.357305 18.0275
-3.8272319 2.3164344 4.3406458 21.035
-3.736738 2.3446469 4.3691034 21.039499
-4.329073 2.4518411 4.3916464 21.033001
-3.8557477 2.4097695 4.3507147 19.519501
3.065419 2.4117935 4.3338103 22.094
-4.224967 2.5265589 4.3604727 18.553249
-4.0635958 2.5290732 4.3243647 21.0345
-3.991473 2.5977771 4.313437 22.0345
-2.6585886 2.5852489 4.3382874 19.0625
-2.5491695 2.5826626 4.3511119 20.063
-2.4523976 2.5826364 4.3807015 20.063499
-2.3110821 2.5877888 4.3715048 19.065001
-1.96723 2.5759258 4.3635092 19.0665
-1.7784621 2.5871654 4.3915663 20.067499
-0.84615761 2.5776091 4.3857131 21.07225
-0.71364707 2.5831809 4.3951697 21.073
-0.62084407 2.588943 4.3983941 21.0735
-0.42595273 2.5894904 4.3552446 21.074499
-0.27494243 2.5893927 4.3250179 20.070499
0.55111706 2.5613163 4.3762841 21.08
0.73289025 2.5731735 4.311182 21
-3.840014 2.6253679 4.3084135 19.056
-3.7499371 2.6130943 4.3511567 19.351833
-3.5616081 2.6655316 4.3097005 17.5595
-3.4476361 2.6504731 4.3255582 17.557999
-3.3006785 2.6775088 4.3477921 19.059999
-3.1831465 2.6777372 4.3643646 18.561001
-3.0446541 2.6506128 4.367672 19.061001
-2.9412911 2.6866784 4.3540139 19.779251
-2.7730355 2.6330242 4.3570776 18.560501
-2.477108 2.6604719 4.3895226 21.063
-2.3971505 2.6663928 4.3723679 19.060499
-1.9317091 2.6563864 4.3998318 19.0625
-1.8027009 2.6404693 4.3657241 19.063
-1.694906 2.6437821 4.3560629 19.063499
-0.52139318 2.6018708 4.3986907 21.073999
-0.34126431 2.6052217 4.3554459 21.075001
-0.24974023 2.611007 4.335526 21.0755
0.76286614 2.6701624 4.3194666 23.081749
-4.6330047 2.7864177 4.399147 21.035999
-4.3835654 2.7911217 4.3577719 19.053499
-4.2705331 2.7392077 4.3967867 20.0515
-4.1784739 2.76933 4.3438783 21.0515
-3.6459007 2.7235081 4.3513579 20.703833
-2.7978225 2.733495 4.3311191 22.059999
-2.4565027 2.7551997 4.307333 23.061501
-1.3751175 2.7471187 4.3069801 23.06875
-1.0014296 2.7491601 4.3735166 23.070999
-0.78557873 2.7572803 4.3548269 23.07225
-0.097268134 2.7081304 4.3591495 23.0765
0.2365593 2.7211077 4.3787174 23.078501
-4.0003529 2.834348 4.3354101 23.0345
-3.9427662 2.8306088 4.3280182 22.045876
-3.5837674 2.8876591 4.3399887 23.053249
-3.3908508 2.8016298 4.3207955 22.056499
-3.1948645 2.8073967 4.3831978 22.057501
-4.0517883 2.9200604 4.3119707 23.049999
-3.981323 2.920254 4.3653011 23.050501
-3.4278519 2.9181085 4.3650365 23.055
-2.8623476 -0.21148717 4.4253688 1
-0.82985193 -0.21314539 4.4297972 0
1.0555798 -0.24679382 4.4055185 0
-3.5710609 -0.12360437 4.4071732 1
-2.0357711 -0.14943673 4.426106 1
-1.3122134 -0.13700844 4.4422884 1
-1.2696478 -0.19300152 4.493576 0
-0.40140533 -0.11914915 4.406548 3.5
-0.37318578 -0.17217825 4.4793272 0
0.17558435 -0.15106657 4.4523311 1
0.57085693 -0.14529355 4.415834 2
-3.6266098 -0.039949242 4.4327331 1.75
-3.4743588 -0.027861357 4.497582 2
-2.271816 -0.033388868 4.4382839 2
-3.4602845 0.090785652 4.408442 2
-3.6986501 0.15300691 4.4411201 3
-3.5277572 0.1891208 4.4557171 3.9861112
-2.5326862 0.13605961 4.4675851 5.625
1.6127074 0.15652582 4.4618173 8.0939999
-3.610919 0.2173807 4.4060326 3.8
-3.5787477 0.2543633 4.4545565 3.4000001
-3.4143593 0.27815798 4.4639549 3.5
-3.3512282 0.22106093 4.4663296 4.8000002
-2.9447951 0.28658003 4.4178033 7
-3.6548152 0.31813705 4.4562187 4
-3.4215167 0.39943981 4.4210186 5
-2.7663534 0.31605101 4.454215 8.0332499
1.6127439 0.3107017 4.4673615 11.094
-3.6286249 0.49279556 4.4621458 5
-3.5901434 0.40508062 4.4532223 6
-3.4450262 0.46357 4.4256759 6.5
-3.0863466 0.44877848 4.4607754 8.0410004
-2.9905438 0.40735734 4.4102163 8.5
-3.8094854 0.59224474 4.4343748 8.0345001
-3.7568235 0.59989727 4.499445 8.0349998
-3.6679122 0.54424703 4.469667 5
-3.571105 0.59542239 4.4300323 8.5174999
-3.4381518 0.5388965 4.4354515 7.5197501
-2.8698072 0.51805747 4.4566731 10.125
-2.7417703 0.56061089 4.4570427 11.044544
-2.5396256 0.57622325 4.4744406 10.0435
-3.8324046 0.6008271 4.4359255 6
-3.7562721 0.64853781 4.4217896 6.5
-3.6629658 0.63022131 4.4490862 7.5172501
-3.5830135 0.64355493 4.4466944 7.7142859
-3.4656408 0.64721704 4.4641209 8
-2.7475164 0.64768928 4.4926257 13.0335
-2.5189719 0.67540145 4.4697013 12.0435
-4.2969065 0.71168888 4.4423838 8.0295
-4.0055256 0.73107934 4.4089146 9.0340004
-3.8294549 0.75324494 4.4717679 8.2672501
-3.5900431 0.77227569 4.4371829 7.5999999
-3.4208806 0.74879044 4.4221263 9.0461664
-3.3520591 0.75321341 4.4533095 8.7000008
-3.2021573 0.78173459 4.499567 9.0565004
-2.9184866 0.77747577 4.4477863 13
-2.8956296 0.70984846 4.4263754 13.032249
-3.7329683 0.86351967 4.4282064 8.2770004
-3.6830916 0.87399435 4.4874182 7.5
-3.5303545 0.84301573 4.4599319 8.0559998
-3.4454906 0.89691144 4.4388208 9.0594997
-3.0323238 0.87601805 4.4292121 14.03175
-2.90993 0.83928365 4.4782805 14.194751
-4.2498217 0.97287869 4.4403615 11.0295
-4.0141029 0.95076382 4.4138875 8.02775
-3.9001226 0.94103348 4.4267268 8.0585003
-3.698607 0.96483839 4.4042511 12
-3.5303786 0.91072321 4.4490161 11.039249
-3.4455678 0.94594526 4.4813643 11
-3.378561 0.97564012 4.4930344 12.04
-2.608804 0.95182502 4.4503927 16.037001
-2.5977166 0.95188224 4.4992423 16.5375
-4.0437994 1.0708507 4.4646406 11.038
-3.8443356 1.038693 4.4550495 11.04025
-3.7837684 1.0521023 4.4506111 11.267125
-3.5315764 1.0548345 4.4287462 12.042
-3.4607697 1.0476495 4.4422565 12.040001
-3.3272183 1.0135616 4.4275217 9.7802505
-3.1766558 1.0639782 4.4989405 9
-2.6606202 1.0632981 4.4842625 19.033501
2.538187 1.010138 4.4579186 16.0965
-4.1084881 1.1506062 4.4009542 10.055
-3.8806 1.1195357 4.4165134 10.54875
-3.777967 1.1599836 4.4940791 9
-3.6402979 1.1446824 4.4252362 12.04525
-3.5287843 1.161715 4.4524913 13.018499
-3.452975 1.1183829 4.4430728 12.694167
-3.230787 1.1783704 4.4789248 11.0585
-2.6451008 1.1376944 4.4822268 20.033501
-4.2161074 1.2588898 4.4440355 11.5415
-4.0313587 1.2931396 4.4544325 10.0575
-3.8719974 1.2473141 4.4609637 11
-3.6601532 1.2702067 4.4433713 13.713333
-3.4651687 1.2655518 4.4679275 13.3465
-3.3247588 1.2391558 4.4487882 13.0555
-2.6413007 1.2840991 4.4657526 22.033251
-2.5963304 1.2361381 4.4685264 20.037001
-3.3597059 1.3497105 4.4529171 12.030251
-4.265554 1.4977217 4.4063988 12.052
-4.1825218 1.4944326 4.4512997 12.0525
-4.0568995 1.4840617 4.4632878 13.05225
-3.7578175 1.4323814 4.4896088 12.0275
-3.6646192 1.4643787 4.4523983 12.80575
-3.5778718 1.452064 4.4700308 16.039
-3.4699786 1.4218174 4.4288039 14.5
-3.3857524 1.4488095 4.4413266 16.364416
-2.7405455 1.4576511 4.4218111 23.032249
-2.6633801 1.4410871 4.4863114 23.033251
-4.0023556 1.5974833 4.4241958 13
-3.9573784 1.5753647 4.4683475 14.011333
-3.861639 1.5614201 4.4818034 11.705167
-3.738523 1.5316423 4.4099016 13.5495
-3.6089416 1.5680015 4.4846835 12.0595
-3.5309138 1.5120088 4.4142933 14.5
-3.4156923 1.5210106 4.4217038 14.5
-3.3626251 1.5574727 4.4519362 16.833334
1.7550044 1.5418066 4.4191465 22.091499
-4.2119999 1.695671 4.4571023 15.051
-4.0690298 1.6236918 4.4661379 14.0515
-3.5639076 1.6625402 4.4483104 18.0345
-3.4163001 1.6941819 4.442194 17
-3.3917551 1.6051598 4.4049649 18.039
-3.2985659 1.6988591 4.4846592 14.06
-4.3513823 1.7645794 4.4329171 15.0505
-4.170505 1.7904247 4.4230299 16.039
-3.7427895 1.7569425 4.4706187 14.05625
-3.5696397 1.799585 4.4633665 19.0345
-3.4304113 1.7643083 4.448668 20.5
-3.3499928 1.7758712 4.4452958 19.700998
-4.233252 1.8781685 4.4168882 15.052
-4.1422434 1.8593845 4.4703698 16.043999
-3.8321698 1.820631 4.434442 13.186501
-3.6152651 1.8606431 4.425869 17.5525
-3.5423706 1.8425778 4.4619641 16.056166
-3.4677618 1.8510453 4.4653888 17.680334
-3.3571076 1.8803264 4.4849672 22.0245
-3.1238096 1.8380902 4.4288812 22.035
-4.0474739 1.930604 4.4061136 15.0485
-3.8816612 1.9863079 4.4525156 16.0555
-3.7687182 1.9316157 4.4987545 14.059
-3.6715295 1.977283 4.4756246 17.054001
-3.5459037 1.9971331 4.4875894 18.054501
-3.428582 1.944528 4.4897962 18.055
-3.3623695 1.9472039 4.4712372 20.269625
-3.2111361 1.989742 4.4236722 23.03475
-3.1025364 1.959424 4.4920177 23.0355
-4.3344264 2.0016794 4.4552331 17.037001
-4.1758127 2.0888865 4.4084229 15.0555
-3.9531929 2.0626993 4.4952812 15.833333
-3.3458438 2.0213966 4.4773579 21
-3.2097721 2.0202646 4.4254713 22.039499
-4.2118549 2.1536598 4.4273863 18.035
-4.1291547 2.1396172 4.4404521 18.039
-3.9144983 2.1601479 4.4851665 16.056499
-3.8753479 2.1604633 4.4233818 18.052999
-3.787889 2.111114 4.4838009 17.055248
-3.5453348 2.1543307 4.424016 18.546749
-3.4281478 2.1447341 4.4927211 16.5
-4.2228832 2.2600827 4.4178038 18.050501
-4.1468859 2.2492843 4.4782696 18.051001
-4.0380344 2.2061777 4.4421134 16.056
-3.9446654 2.2591965 4.4400749 17.5
-3.5365949 2.2485597 4.4032388 17.057501
-3.4500489 2.2554588 4.4611583 19.547251
-3.322578 2.224802 4.4917421 22.289249
-4.1548696 2.3295758 4.4247847 17.546
-4.0291653 2.33092 4.4895401 16.057501
-3.9238462 2.3644257 4.4660029 18
-3.8147454 2.3452439 4.4838762 15.5
-3.4005752 2.313797 4.453927 22.041
3.4180248 2.3074179 4.4811974 21.0935
4.9011235 2.367259 4.4437742 17.0945
-4.3116794 2.4745944 4.4720006 20.037001
-4.2210207 2.4775152 4.4998326 20.039
-4.0249157 2.4345646 4.4416203 19.858833
-3.9292433 2.4418902 4.4835644 20.0515
-3.7287488 2.4185326 4.4071083 18
-3.5215271 2.4180007 4.4346619 22.040501
2.9503443 2.4494805 4.4892659 23.093
3.0352814 2.4450684 4.4173822 23.0935
-4.1349268 2.5242729 4.421967 18.553749
-3.7291827 2.5725968 4.4201202 23.0355
-3.6691606 2.5965157 4.4127388 20.056
-3.583884 2.5977764 4.4747772 20.056499
-2.2661834 2.588536 4.4326496 20.064501
-2.1675193 2.5906429 4.4521394 20.065001
-2.0760958 2.5922558 4.4832931 20.0655
-1.9734674 2.5934184 4.4891996 20.066
-0.99242449 2.5816467 4.4052939 20.571501
-0.8987363 2.579042 4.4140549 20.072001
-0.68437189 2.5861797 4.4555435 20.068501
-0.37762746 2.5843093 4.4003539 20.07
-0.077601835 2.5422187 4.4351101 21.0765
0.060415998 2.5617375 4.4190645 21.07725
0.17817344 2.5555751 4.4362435 20.5
0.26977688 2.5556293 4.4716105 20
0.35407975 2.5817621 4.4479866 20.693001
0.46166551 2.5566733 4.4017272 21.0795
0.57869035 2.5693352 4.4350414 20.075001
0.75121748 2.5684586 4.4837446 20.080999
0.92701674 2.5980444 4.4651346 22.0825
-4.201725 2.6584604 4.4581823 18.0555
-4.1826725 2.6472671 4.4228244 20.54525
-3.5853183 2.6071539 4.4958611 20
-3.4794636 2.6728232 4.4903564 20.666666
-3.2483525 2.6691568 4.4443994 17.057501
-3.0175755 2.64679 4.4945021 18.0625
-2.8834875 2.6319487 4.4971528 18.063
-2.7088106 2.6206944 4.4001417 21.062
-2.685945 2.6774378 4.4169688 18.0595
-2.5635619 2.65237 4.4284005 18.562
-2.4565001 2.6527033 4.4652324 19.396166
-2.3475943 2.6449931 4.4496775 19.5625
-2.1893945 2.6832008 4.4422164 19.061501
-2.0619204 2.6752596 4.4387002 21.064167
-1.8874738 2.6018653 4.4136195 20.066999
-1.7740725 2.6598914 4.4908924 21.066999
-1.1085588 2.6431556 4.4921222 20.070999
-0.5871374 2.6191041 4.4847579 20.069
-0.42510888 2.6842246 4.493001 23.074499
-0.015683383 2.6555836 4.4874001 23.077
0.33131346 2.6537709 4.4933 22.5
0.59569597 2.6866329 4.4014378 23
0.73671818 2.6441927 4.4233088 22.540749
0.84659958 2.6229846 4.4547405 22.082001
-4.2862835 2.7059462 4.4052835 18.055
-4.1198068 2.78617 4.4300833 22.043499
-4.0634794 2.7794759 4.4852962 21.0525
-3.5406237 2.7396734 4.4446068 21.056499
-3.3740356 2.7790375 4.4433141 22
-3.0841296 2.700325 4.4075818 18.058001
-2.7651644 2.7162933 4.4294739 22.060499
-2.5789118 2.727061 4.4728317 22.061501
-2.489922 2.7325025 4.4976344 23.062
-1.6265135 2.7284558 4.4617219 20.063999
-1.5137097 2.707413 4.4650874 20.064501
-1.1927075 2.7125928 4.4504671 20.066
-0.93679047 2.7471976 4.4519582 23.071501
-0.66988194 2.7067676 4.4815693 22.6
-0.30100468 2.7056384 4.4613266 23.075251
-0.1795918 2.7146132 4.4122047 23.076
0.11272517 2.718574 4.4221792 23.077749
-4.2178044 2.8158238 4.4675488 22.035
-3.9378109 2.8966146 4.408926 23.039
-3.8595097 2.8880677 4.4664574 23.039499
-3.754236 2.8146758 4.4424257 21.054251
-3.2363629 2.8939514 4.423069 23.056
-3.0617757 2.8052642 4.4263844 23.05825
-2.9472473 2.8195693 4.4860916 23.059
-2.8422327 2.8029311 4.4945335 23.0595
-3.9126992 2.9178605 4.4175196 23.051001
-3.5542433 2.9225268 4.4720259 23.054001
-3.3458805 2.9160893 4.4079175 23.0555
-6.9538307 3.0994599 4.469451 16.035
-7.1156301 3.1870656 4.4635735 16.046
-6.9749393 3.3967879 4.4591293 17.046
-6.7879605 3.4907579 4.4146309 17.048
2.3815708 -0.34473753 4.5328732 0
-3.565515 -0.20920342 4.555191 1
-1.0166299 -0.25144869 4.515192 0
-0.30476603 -0.24104628 4.5629654 1
0.014441252 -0.2057527 4.5371289 1.5
0.46416086 -0.24185988 4.5265608 0
1.1198833 -0.27514404 4.5705667 2
1.5197312 -0.27941275 4.5947666 0
2.4902892 -0.24508017 4.5854335 1
-3.184238 -0.15259808 4.5687361 1.3333334
-1.9935329 -0.13933903 4.5044079 1
-1.7833495 -0.14171614 4.5110903 0.5
-0.20844799 -0.11745672 4.5808382 3
-3.7265296 -0.0073097646 4.5553713 2
-3.6754923 -0.076846957 4.5037746 1.4
-3.4046328 -0.011072025 4.5776238 2
-3.2413998 -0.038328275 4.5195923 1.75
-3.1730683 -0.092141494 4.5222249 1
-3.0292308 -0.059797525 4.5572729 1
-2.7243552 -0.054357048 4.5034943 2
-2.1221998 -0.089195915 4.5588632 2
1.3437078 -0.037185017 4.5165 5
-3.31657 0.040639333 4.5477743 2
-3.1648927 0.091512464 4.5760155 2
-2.8469641 0.029573556 4.5111427 3
-2.4948788 0.090580881 4.5147376 5
-3.5861807 0.19885951 4.5432978 4
-3.4281411 0.18773767 4.5555563 4
-3.186595 0.1986919 4.5562725 3
-2.8221698 0.19617184 4.530714 6.1666665
-2.7982359 0.18719803 4.561214 5.5
-2.522248 0.16226628 4.5325971 6
-3.7209599 0.26077458 4.563827 4
-3.5645719 0.26068455 4.5495644 3.8333335
-3.2564733 0.27811369 4.5771132 4
-3.7717597 0.35829443 4.5649776 4
-3.2791438 0.32891309 4.5108638 4.3000002
-3.1356306 0.32461518 4.5312605 4
-3.0344481 0.33528686 4.5742006 5
-2.8129396 0.37829024 4.5521431 8.666667
-2.7537258 0.32961756 4.5588179 8.0308752
-2.6405623 0.33872661 4.5933208 8.0352497
-2.5298901 0.37449032 4.5510664 8.0442505
-3.7221353 0.46407446 4.5542612 5
-3.1898296 0.44905472 4.5934877 5.5999999
-3.00319 0.47016397 4.5606093 8.0419998
-2.7521942 0.45485973 4.5926032 9.6977501
-2.6571555 0.48914769 4.5507841 9.0434999
-3.7873406 0.57885349 4.5105186 8.125
-3.6095982 0.58382434 4.5831628 8.04
-3.5428922 0.57695514 4.5204172 7.136364
-3.4602594 0.54373509 4.5767817 8.0380001
-3.3633256 0.53728592 4.5535898 6
-2.7186427 0.53507328 4.5253267 11.035875
-2.6513786 0.5490638 4.5448923 11.038
-2.3258283 0.51391625 4.5998268 9.0480003
2.5846915 0.55532563 4.5167122 11.096
-4.0622063 0.69427681 4.5640965 8.6973333
-3.7307403 0.68871927 4.539279 9.5
-3.6547179 0.62585825 4.5937524 6
-3.5034685 0.69974035 4.527709 9.5
-3.4768558 0.66164517 4.5554528 8.2690001
-3.392354 0.62767655 4.5659661 8
-2.7299869 0.6353575 4.5524788 11.538626
-2.6328869 0.637999 4.5742884 12.519125
-2.5216086 0.60089386 4.5997391 12.039
-3.7221711 0.74024916 4.5696383 6.5
-3.6082151 0.79544914 4.5497251 8
-3.4508114 0.74804604 4.5544748 8.0579996
-3.2606504 0.73102087 4.528841 8.4324827
-3.1722193 0.73983991 4.5384817 9.2705002
-3.0828586 0.74905902 4.5939932 8.0585003
-4.0769205 0.89473277 4.5532169 11.0305
-3.872942 0.84191978 4.510129 7
-3.6650326 0.86942673 4.5334105 8.6856661
-3.5889401 0.85322058 4.5621567 9.5475006
-3.2411437 0.8666755 4.5582495 10.54925
-3.008934 0.89554578 4.5561004 15.033
-2.8537016 0.83515322 4.5219793 14.5
-2.7811534 0.83812481 4.5542321 15.105916
-2.5359769 0.86691213 4.5732346 15.04125
-3.6198084 0.98653299 4.5578966 11.0415
-3.5524061 0.94150341 4.5554695 10
-3.4455414 0.95040941 4.525116 11.53875
-3.3755293 0.90340292 4.5459194 10.05025
-3.2375424 0.94518 4.5498114 9.5585003
-2.5401747 0.9320482 4.5293684 16.538
-2.4052033 0.9329561 4.5705214 17.039
-3.847513 1.0654033 4.5430737 9.6783333
-3.7182224 1.0343895 4.5331321 10.513667
-3.6497805 1.0470561 4.594635 8.166666
-3.5470979 1.0569494 4.5479994 9.7779999
-3.2204938 1.0905911 4.5102997 11.5
-3.1855211 1.0942241 4.5675955 11
-2.8105612 1.0143939 4.5442448 17.026501
-2.770041 1.025414 4.5796375 17
-2.6450632 1.047282 4.5241313 19.034
-4.0147662 1.1437014 4.5269079 10.0535
-3.7115312 1.1757965 4.5599585 12.047
-3.6605024 1.1370947 4.5620241 12.01775
-3.5651448 1.1601648 4.5500298 11.2017
-3.4541063 1.1698195 4.5546122 11.722833
-3.383832 1.1695776 4.5661459 12.05575
-3.2410333 1.1059539 4.5672436 11.0575
-2.7981057 1.1036681 4.547379 18.026501
-2.6332107 1.1216686 4.533102 19.767
-2.5761855 1.1755357 4.5956836 21.035
-4.0342946 1.2169929 4.5568395 14.0305
-3.9553723 1.2619444 4.5381384 10.058
-3.8303864 1.2241391 4.5712061 10.0585
-3.564853 1.2844996 4.5008712 15.035
-3.4471743 1.2637441 4.5624847 12.6925
-3.3968563 1.2132864 4.5299945 14.04
-3.2815881 1.2603506 4.5059271 13.056
-3.173439 1.208693 4.546545 12.52825
-2.7606411 1.2288945 4.5564451 19.26325
-2.6292276 1.2001829 4.5143437 21
-2.5650237 1.2916923 4.5614891 22.034626
-2.4627655 1.2309141 4.5579605 20.288376
1.4650037 1.2022917 4.5521541 20.0895
-4.0055475 1.3993665 4.5610886 14.0385
-3.7605793 1.3619449 4.5317945 13.0195
-3.6790648 1.3649604 4.5272465 12.02775
-3.5246267 1.3715318 4.5522761 12.276095
-3.4664729 1.3494487 4.5728583 14.044667
-3.3526108 1.3793619 4.5581865 15.0545
-2.5192389 1.3523589 4.5254841 21.53775
2.0608685 1.3996282 4.5494003 19.091
-4.1752467 1.4722877 4.5404825 14.038
-3.9972551 1.4407696 4.5664587 16.0305
-3.8488123 1.4560229 4.5357904 10.166666
-3.7013857 1.4954107 4.5551825 10.5
-3.6524432 1.4228499 4.5847731 10.333333
-3.547348 1.4399446 4.5233436 14.378166
-3.453979 1.4769201 4.5418959 14.6
-3.3559458 1.4487892 4.5191793 14.659876
-3.239641 1.4462274 4.545085 14.550501
-3.1652703 1.4471836 4.594408 14.6455
1.5044744 1.4690073 4.5701537 22.0895
-3.8290308 1.5510153 4.5159955 13.382833
-3.7437947 1.5378346 4.5140095 13
-3.6510272 1.5439411 4.5756111 13.05575
-3.3213115 1.5413747 4.5139761 17.041
-3.277396 1.5842025 4.5925798 12.061
-3.0417728 1.5970079 4.5817223 21.025999
-3.9180861 1.6472573 4.502737 13.0545
-3.8304222 1.6056485 4.5767965 17.035
-3.766161 1.6501848 4.5423946 13.037167
-3.6268249 1.6877533 4.5438275 14.057
-3.5301197 1.6430285 4.5479021 16.296249
-3.4966712 1.6406149 4.5701885 19.0355
-3.3163509 1.6850604 4.5510645 19
-3.2324677 1.6505784 4.5449657 13.363584
1.969188 1.6207554 4.5964279 21.0905
2.2282729 1.6492279 4.5628586 21.587999
-3.9262176 1.7356664 4.5361838 16.0425
-3.8886137 1.701342 4.5308843 14
-3.6578567 1.7513467 4.589499 12.333333
-3.5030923 1.7847483 4.5195446 20.035
-3.4375503 1.7484486 4.5420666 18.695415
-3.3302231 1.7627681 4.5373688 18.559977
-3.24541 1.7529857 4.536871 17.030251
-3.1646128 1.7726221 4.5665674 19.8955
-4.1339931 1.8610404 4.5114384 16.039499
-4.0263867 1.868237 4.5161839 17.038
-3.65625 1.8396734 4.5564566 12.833334
-3.4522409 1.8843552 4.5047598 18.053499
-3.3772714 1.8403149 4.5287628 18.547874
-3.2902179 1.877812 4.5725298 18.55525
-3.1146598 1.8924154 4.5931129 21.041
-3.9221737 1.9482516 4.5018702 13.0585
-3.7927077 1.9668845 4.5652905 15.0585
-3.6491489 1.9349121 4.5408959 14.0595
