# .PCD v0.7 - Point Cloud Data file format
VERSION 0.7
FIELDS x y z intensity
SIZE 4 4 4 4
TYPE F F F F
COUNT 1 1 1 1
WIDTH 1199
HEIGHT 1
VIEWPOINT 0 0 0 1 0 0 0
POINTS 1199
DATA ascii
-2.9476006 0.75532997 1.4499135 9.0124998
-1.7359207 0.59285599 1.4860462 11.548534
-1.4821388 0.59718704 1.3950711 15.300724
1.9347644 0.60109824 1.4708687 11.107082
2.1299136 0.61921227 1.3505884 10.554303
-2.8499069 1.0767219 1.3583157 12.0115
-1.7190337 1.0302819 1.5297133 18.650986
-1.4876081 0.9438563 1.3944385 21.238043
1.5713828 0.8057186 1.5892525 16.10775
1.9344417 0.96565264 1.5128443 15.487772
2.1413639 1.0149546 1.3687413 15.064313
-1.7042853 1.2957011 1.5425807 21.522749
-1.520027 1.3291672 1.3229971 22.489714
1.9255201 1.3385463 1.4716524 17.792999
2.1835461 1.3950928 1.4126543 18.953814
2.4520941 1.4093573 1.2030985 18.115
-6.022954 1.926854 1.5029802 12.0155
0.53533012 1.955904 1.262985 22.122
1.4880259 1.7347467 1.5317414 21.1215
1.9485278 1.748724 1.4812081 20.61775
2.2602453 1.7815404 1.4175893 21.918468
2.4252045 1.7358898 1.266395 21.778168
2.1981349 2.1314068 1.3939235 23.119999
-9.1675653 2.7466898 1.5240858 11.0245
-6.6469603 2.6490836 1.3963618 14.016001
-5.8808103 2.4693444 1.5769601 15.0155
2.3334332 2.4440324 1.2374403 22.118999
-9.3380203 3.1295824 1.4353422 12.025333
-8.8619375 3.1237605 1.5082734 12.025
-8.7918119 3.1121447 1.2514589 12.0235
-8.2928085 3.1041486 1.5204175 13.0235
-7.7394867 3.1130874 1.4633175 14.024834
-7.0868487 3.1931291 1.2390883 15.016
-6.5385933 3.0798972 1.3832114 16.0235
-6.1351604 3.1003389 1.411806 17.02375
-5.9119797 3.1093166 1.4518843 17.348333
-4.9977093 3.1295037 1.3378532 19.514374
-4.6089315 2.9931114 1.4975674 19.518
-4.2248502 3.0278404 1.449124 21.869287
-3.9872518 3.028398 1.3141053 22.00975
-3.429543 3.009227 1.3212702 23.01375
-8.4527521 3.2243776 1.2658052 13.0175
-1.4093467 -0.0060351584 1.7850367 2
-1.0028958 -0.026034791 1.7631812 1.8333333
-0.58356726 -0.029196788 1.7420812 1.5
-0.11361045 -0.016886136 1.8512632 2.4444444
0.23534055 -0.053611454 1.8148638 1.5555555
0.66954833 -0.054222424 1.7683843 1.25
0.96803677 -0.090397321 1.7935851 1.0357143
1.3784186 -0.053468093 1.7495328 2.1111112
1.670701 -0.11331997 1.6188555 2
-2.0114927 0.36877969 1.8983463 8.0174999
-1.7263275 0.35329789 1.7979038 8.4025602
-0.94606 0.017872157 1.7661778 2.3333333
-0.45289332 0.02498154 1.6763349 2
-0.33465195 0.071376622 1.9908702 4
0.11356437 0.0040698536 1.6932859 2
0.54626012 0.019929057 1.8070239 3.25
1.4142487 0.21700533 1.9487478 7.5775003
1.7602782 0.27496848 1.8285341 7.1746101
-2.0864305 0.65134728 1.8536136 11.742969
-1.75676 0.58673757 1.8123401 12.979544
-1.5879014 0.61027068 1.6597357 14.648059
0.2215094 0.5717411 1.977216 12.1205
1.4281477 0.63017231 1.9203086 12.704659
1.7829101 0.58538628 1.8299867 11.188999
2.1842453 0.59260738 1.6730168 9.7147245
-3.6603391 1.1099591 1.9200397 11.51175
-2.0740776 1.0163751 1.8396987 16.983078
-1.7782227 0.98498368 1.8292071 19.746294
-1.5822548 0.87851697 1.6660427 20.637373
0.47607392 0.97871041 1.9856122 17.1185
1.4706657 1.0851345 1.8468769 19.609749
1.8311973 0.99649972 1.8064907 16.117453
2.1224406 1.0428218 1.7183441 14.953933
-2.0686843 1.3504516 1.9262725 21.456444
-1.8209561 1.3208277 1.7897751 22.115641
-1.5802858 1.4681413 1.9318373 23.009001
1.8717687 1.3889769 1.8417199 19.995928
2.0809398 1.4050552 1.7055986 18.934465
-2.2471428 1.9177587 1.7975367 22.0105
1.5001655 1.8609415 1.7062953 22.120501
1.9340197 1.732264 1.8649328 22.349781
2.1026483 1.7722533 1.7758486 22.056114
-3.0035124 2.2576261 1.9349062 23.008875
-2.2752461 2.0720155 1.678162 23.01
1.9658082 2.0205367 1.9577916 23.09
2.0681484 2.0544555 1.7503288 23.019001
-8.6307182 3.0763245 1.7556118 12.358334
-8.1721706 3.0949073 1.8330628 13.0301
-7.8679252 3.1089652 1.7483486 14.0255
-7.4277468 3.0282047 1.8445003 14.4276
-7.0909548 3.1212406 1.8708203 15.01325
-6.5107565 3.0655713 1.8506966 16.164858
-6.1986318 3.0137396 1.813315 16.528666
-5.3408399 3.0520203 1.8584447 19.029751
-4.9622073 3.042577 1.8362131 20.021166
-4.6271949 3.0327215 1.9419203 21.362
-4.2199016 3.0141137 1.8336225 22.387907
-7.9026542 3.233211 1.9591955 14.024
-1.4377334 -0.01954421 2.1505365 2
-0.9987129 -0.044041939 2.2205648 1.75
-0.59266156 -0.053721797 2.192106 1.0833334
-0.23785105 -0.046960615 2.2183137 1.125
0.21434192 -0.054176562 2.2306008 1.6
0.65980136 -0.061628409 2.1609855 2.25
1.0165604 -0.097605355 2.1466811 1.5151516
1.2736524 -0.068941921 2.2395694 2.0833333
-8.0812607 0.27569249 2.0366464 2
-7.1416559 0.29875925 2.3688192 2
-2.059392 0.36887467 2.1824381 8.0307722
-1.8962737 0.34855732 2.1347861 8.2577286
-1.3531103 0.048784859 2.2187188 2.4000001
-1.1444818 0.09262228 2.3540401 3.5
-0.42564142 0.0046461867 2.3067718 3
-0.14872807 0.0027695596 2.3171749 3
0.23013102 0.028265033 2.137641 3
0.4820652 0.32242715 2.2183833 8.616375
1.1948131 0.036715295 2.3633351 5
1.4828265 0.29900661 2.2517314 8.3241758
1.6580209 0.29414713 2.1017041 7.7546835
-3.7001092 0.79952228 2.0116677 9.0124998
-2.8113456 0.61525738 2.3377869 9.5107498
-2.7646754 0.5656696 2.3045905 9.0102501
-2.0763237 0.61012858 2.2127926 11.59307
-1.9049771 0.60886347 2.1461329 13.069276
-1.5186281 0.66166967 2.327528 20.707333
0.37930578 0.54787618 2.0347571 11.11875
0.57595259 0.72144508 2.3671474 15.11475
1.0381751 0.46188661 2.3060493 11.11875
1.4929962 0.5915131 2.2500124 12.327001
1.6618971 0.62655669 2.1355178 11.901848
-3.0309527 0.92656815 2.3630223 12.012
-2.5646269 0.92047954 2.120605 14.0225
-2.0651526 1.0372614 2.2235782 18.313395
-1.9063501 1.0067813 2.1598687 19.96389
0.27637449 1.0537573 2.183018 19.494032
0.46631998 0.88016188 2.2126877 16.81695
1.1477495 0.89142644 2.2762775 17.1185
1.499652 1.0077178 2.2762501 17.995573
1.6937537 1.0050924 2.1645734 16.164637
-2.0643785 1.3040916 2.2321677 21.50139
-1.9145669 1.318118 2.1743832 21.460058
-1.5598251 1.3794348 2.0561788 23.00975
0.26388228 1.2920455 2.240202 22.618999
1.1977857 1.2383983 2.39258 23.111
1.5454495 1.3243282 2.3197613 21.349821
1.731197 1.3729473 2.1597121 20.380924
-2.859858 1.803526 2.3253348 22.021999
-2.0218928 1.6945673 2.355372 20.522833
-1.9877108 1.860008 2.2816989 20.5
1.8354193 1.7355028 2.1862833 22.057653
2.0375907 1.911112 2.0547817 23.114668
-3.1240168 2.2109838 2.060838 23.01025
-1.9572564 2.0415206 2.2587662 22
1.7999521 2.0489469 2.2134333 22.921696
-7.2922487 2.6445861 2.3965786 13.028
-8.1798468 3.0361652 2.1467292 13.025332
-7.752049 3.0383563 2.1842923 14.029572
-7.4228935 2.9321032 2.2123935 14.277125
-7.0528431 2.9907978 2.2298028 15.027583
-6.5422611 3.0134048 2.2029819 16.023445
-6.2264977 3.002269 2.2373831 16.653917
-5.8385725 3.0062668 2.2516344 17.73543
-5.3283124 3.0312486 2.1804397 19.028002
-5.0165167 3.0028777 2.2609904 20.258308
-4.6711988 3.0053208 2.2416239 21.390865
-4.2186489 3.0016627 2.2233601 22.710768
-1.6295177 -0.020422582 2.5992177 1.5833333
-1.3972602 -0.041365154 2.6071515 1.5
-1.0318334 -0.061100237 2.7004576 1.5
-0.57910001 -0.064773045 2.6095071 1.1666666
-0.21771874 -0.067818448 2.4992702 1.5
0.20128524 -0.078100532 2.598134 1.6666666
0.60656393 -0.10189059 2.5979705 1.5222223
1.0019244 -0.10387831 2.6240294 2.0384614
1.3324143 -0.06253352 2.6128285 3
-6.9994669 0.2103847 2.5972247 2
-6.5593414 0.26964071 2.6372619 1.6666666
-4.865232 0.13400552 2.5518293 2
-4.277667 0.11056967 2.6206965 2
-3.7385955 0.10269279 2.5979855 2
-2.9181457 0.13451543 2.7956154 2
-2.5175319 0.11810504 2.7053761 2
-2.088321 0.19539113 2.5327668 4.316875
-1.8192432 0.16660175 2.5523539 3.6048501
-1.5023838 0.10407475 2.5554206 2.6666667
-1.1064425 0.025732763 2.6301858 2
-0.72120643 0.051582642 2.5516624 3
-0.029251367 0.012760051 2.5115247 3
0.12578583 0.20636734 2.6516676 8.086875
0.65958422 0.32967246 2.4675789 9.1126671
1.0771286 0.25116032 2.633415 9.2655964
1.4023256 0.26085564 2.5938959 8.2590561
1.6410683 0.30737492 2.4630377 8.0065832
-6.6104527 0.60648406 2.7702255 3.6666667
-2.5873334 0.71993387 2.5062687 11.0465
-2.093276 0.57951677 2.4461589 11.227732
-1.9154392 0.62108868 2.5167994 14.629232
-1.4293858 0.63966513 2.5120118 22.195419
0.25558674 0.60170853 2.6651487 15.61475
0.61962432 0.66663599 2.4702425 14.1135
1.0252401 0.63874656 2.5797822 14.879215
1.40676 0.60609043 2.5935073 12.996148
1.6287823 0.62990773 2.495281 9.8604012
-6.5718336 0.94209635 2.7956047 5.75
-2.5485954 0.86656636 2.4812865 13.5345
-2.093677 1.0100373 2.4689791 18.02626
-1.9109663 0.98562962 2.5035026 20.533209
0.28735536 0.98613584 2.4408505 20.117001
0.67374605 1.0444387 2.6138003 20.444918
1.0741758 0.96480876 2.6140664 19.819864
1.4149381 1.0014869 2.6010613 18.306767
1.6534119 0.9856897 2.4952714 14.498828
-6.5869293 1.3750558 2.7534454 8.0349998
-2.0986445 1.312241 2.4762771 21.10873
-1.9815229 1.2605047 2.4606094 21.098249
0.75093222 1.2406253 2.7192461 23.110001
1.4566702 1.3400906 2.611486 21.281769
1.6690754 1.4058818 2.4892299 19.029163
-7.3716259 1.9675418 2.4708447 10.0395
-7.082582 1.6844538 2.6526768 9.0290003
-6.6530018 1.7301074 2.7320266 10.0405
-2.7454848 1.7755514 2.6453226 22.021999
1.5414921 1.7661132 2.660547 21.622034
1.6753196 1.7321218 2.5177581 21.786438
-7.0022559 2.0596497 2.6364546 10.703
-6.2311277 2.0069768 2.5765796 12.015
-4.8665257 2.1589644 2.5344443 17.018
1.4853376 2.0541472 2.6100342 22.441895
1.6212614 2.0343094 2.4759812 22.792751
-7.3640571 2.6438975 2.6921029 13.0285
-6.9470568 2.4603939 2.5557685 13.0285
-6.4412961 2.740869 2.7612677 15.028
-6.0699577 2.4724329 2.7660618 15.0155
-4.7697563 2.4666841 2.5728374 19.018
-7.4051871 2.9118648 2.6087878 14.229899
-7.0032644 3.0007851 2.5533507 15.031929
-6.5624328 2.9599802 2.642056 16.027334
-6.1849279 2.958966 2.5873933 16.713764
-5.7961364 3.0192468 2.5779815 17.936274
-5.3787346 3.0004723 2.6059942 19.072954
-5.0018873 2.990108 2.618716 20.34342
-4.6271977 3.0071392 2.641216 21.676355
-4.242754 2.9966433 2.5847917 22.875862
-0.96967995 -0.059648622 2.9891567 1.2666667
-0.46688932 -0.022624545 2.9544859 2
-0.21502334 -0.10314416 2.9721229 1
0.19248258 -0.071695626 2.9923224 1.8700001
0.63229489 -0.11274683 3.0227087 1.621212
1.0549372 -0.11754069 2.9558671 1.888889
1.2918049 -0.1349113 2.9822552 1.5555557
-6.1527023 0.17915773 2.9931362 2
-5.7776241 0.21305342 3.072706 2.1666667
-4.7519622 0.10677 2.8863993 2
-2.5722303 0.088821262 2.9646225 1.8333334
-2.1311407 0.047712397 3.0721195 1.9166666
-1.8748685 0.061809659 2.972152 1.8055555
-1.4559975 0.050948251 2.984318 2.0333333
-0.88917571 0.064800531 2.9148974 2.3333333
-0.59605503 0.032491725 3.0592496 3
0.10435435 0.28023303 3.0327401 11.74298
0.64858246 0.26449427 3.0295939 10.89581
1.0526386 0.2622931 3.0415628 9.395402
1.3197212 0.25623307 2.9592538 8.8413715
-6.4088821 0.56469029 2.8961637 3.5
-4.1555686 0.67605352 3.086129 8.0205002
0.14647341 0.56094557 3.0196667 18.013447
0.62779886 0.6448307 2.9925058 16.886473
1.074765 0.59929675 3.075613 14.722198
1.3169637 0.59146565 2.9710567 13.106544
-6.2833886 1.021648 3.0116761 6.5472035
-5.8013568 1.0776702 3.0826426 8.0295
-5.4854426 1.1307417 3.168699 9.0270004
-1.7046279 0.99990124 2.8071885 22.019501
0.17523302 0.82733399 2.9996045 22.77844
0.62472659 0.95268285 2.963222 20.90855
1.0666674 0.95440608 3.097899 19.110121
1.306933 1.0077924 2.9646957 19.057617
-6.5078955 1.5262437 3.0090115 8.5422497
-6.2386847 1.4522473 3.0427322 8.9103127
-5.8964829 1.4249759 3.1286218 9.7705002
1.1525708 1.3195328 3.0908349 21.291527
1.3391175 1.3591548 2.9567785 20.381786
-7.0888438 1.9338648 2.8122969 10.0285
-6.5376377 1.8803378 2.875083 10.541
-6.2291908 1.8269441 3.0098715 11.157187
-5.9254675 1.7508218 3.1051147 11.5235
1.1653287 1.7511142 3.1015313 19.072084
1.3859162 1.8032739 2.97048 21.741045
-6.9402533 2.3889596 2.8509457 13.0285
-6.6002588 2.3317273 3.1370163 13.0295
-6.2222934 2.2558169 3.0628266 13.017625
-5.9398956 2.13592 3.0916355 13.530001
1.1771644 2.0996022 3.1482029 22.086
1.2551813 2.0890534 3.0062373 22.261562
-6.5162544 2.456907 2.9362729 13.685333
-6.1926141 2.5955093 3.0614598 14.940536
-5.853847 2.5283618 3.1460996 16.029499
-2.5548902 2.7612433 3.1422284 22.658602
-2.3512411 2.7825854 3.142524 23
-8.8791933 3.0995414 3.1434186 13.023
-6.8972831 2.8890738 2.8275251 14.5405
-6.5015922 2.9522631 2.9157078 16.027802
-6.1288705 2.9533248 2.9869695 16.852276
-5.8606687 2.9671817 2.9990995 17.741606
-5.4081454 2.9712141 2.9739404 18.903
-4.9221878 2.9294014 2.9808686 20.437626
-4.5551524 2.9160736 3.0190005 21.55509
-4.2313585 2.9880245 2.9926202 22.964447
-3.9868731 3.0110395 3.1731322 23.047001
-2.1521504 2.8188436 3.1470687 23.05825
-2.2610171 -0.039170004 3.366323 1.5
-1.8569671 -0.02334455 3.5099466 1.5714285
-1.3067894 -0.060119834 3.3280482 0.5
-0.86534679 -0.048096437 3.3757005 1.25
-0.60318702 -0.064376161 3.3054817 1.6666666
-0.26005453 -0.070472173 3.3836052 1.9
0.17529991 -0.085341163 3.3819661 1.8666668
0.67997515 -0.13074242 3.3544021 2.025641
1.0022898 -0.11468726 3.4423947 2.6666667
1.3461726 -0.095263638 3.2880516 2.8333333
-6.0622015 0.1804474 3.3238711 2
-5.6487532 0.22755177 3.3740711 2.5
-5.3946533 0.20670949 3.4685793 2
-2.1784167 0.010826124 3.3852482 2
-1.5146064 0.038455535 3.3454158 3.2222223
0.21406163 0.21098308 3.4027941 12.222772
0.66107869 0.23695195 3.4335296 11.88494
0.98401356 0.24624617 3.4108965 9.936779
1.2930824 0.25272825 3.3610694 9.8078861
2.2536385 0.32957822 3.4258962 8.0992498
2.4033937 0.34065536 3.5226655 8.0985003
-5.447793 0.47034541 3.4348514 3.6714287
-3.9984038 0.69257152 3.4005387 8.0225
-3.1964531 0.48096064 3.4311914 7
-1.6370296 0.58079535 3.5218139 23.018749
-1.2701312 0.51092172 3.4320393 22.687834
0.22971961 0.55895507 3.3897269 20.591135
0.66790456 0.56125802 3.4437501 19.078714
0.99681687 0.59028709 3.4158163 14.850539
1.284431 0.63228559 3.3652885 15.476767
1.6726449 0.5147835 3.3028812 11.101
2.3213003 0.59848917 3.5073326 10.09875
2.4438381 0.53933358 3.5774031 9.5489998
-6.2730417 1.0118371 3.2655778 7.0152502
-5.7178245 1.0848639 3.3801439 8.0293751
-5.4360261 0.97199595 3.432246 7.4214997
-5.1196833 0.96908206 3.5731573 8.0319996
0.7424475 0.85356128 3.5009418 23.1
1.0453728 0.95857143 3.4121754 18.087065
1.2926883 0.93074316 3.3499403 19.993126
1.8395177 1.1211505 3.4244013 17.1
2.2613621 1.0136689 3.5389488 14.765334
-6.2140326 1.3769851 3.2193592 9.0291662
-5.8179808 1.410743 3.3944788 9.4755316
-5.5011721 1.2815633 3.4687567 8.7118883
-4.9999132 1.3427459 3.5945804 11.032
-3.9913404 1.348465 3.3631644 15.022
1.0440261 1.3378741 3.4136169 19.563953
1.2793705 1.4309005 3.296973 19.244114
1.7916749 1.3770438 3.3274593 20.101
2.1660433 1.4074705 3.4952934 18.599251
-6.124279 1.6730847 3.2834086 10.5365
-5.8274808 1.7629179 3.4145613 11.697207
-5.4790201 1.7997559 3.5015852 12.299408
1.0851266 1.8013705 3.4295297 20.385347
1.2650077 1.7558821 3.3446486 21.882893
2.0423894 1.8733795 3.4986613 23.099501
-6.1092758 2.211513 3.3176758 13.367749
-5.8662949 2.1833305 3.3852646 13.715182
-5.4633093 2.1635625 3.4874325 14.496858
-4.9735184 2.0281587 3.3737798 16.0275
-4.5942898 2.2563558 3.486336 18.522751
1.0768253 2.1776786 3.4048805 21.639723
-6.4516649 2.5648825 3.2387271 15.0275
-6.2062402 2.5617054 3.3389916 14.812722
-5.7913494 2.618979 3.4105268 16.100565
-5.4984231 2.5670753 3.5022352 16.541374
-4.9990206 2.5978496 3.4380531 18.52775
-4.3367748 2.452122 3.3222268 20.026751
-3.2623832 2.7276506 3.4903576 22.05625
-3.0306683 2.7143471 3.5097444 22.057999
-2.5451777 2.7090445 3.4058869 21.741001
-2.2145255 2.744765 3.3932374 22.413715
-1.8462903 2.7620888 3.4544909 22.686251
-1.4833014 2.7850647 3.479043 23.062748
1.149663 2.5739665 3.5168808 22.07925
1.2321358 2.4795308 3.275775 23.08025
-6.6003799 3.0784831 3.5793462 17.031
-6.0594287 2.9240274 3.3340285 17.035166
-5.8329496 2.9081135 3.4053292 17.641502
-5.3492355 2.9363019 3.3538358 18.751143
-5.0291643 2.9151669 3.4182453 19.785542
-4.5541859 2.8803167 3.391175 21.387842
-4.228662 2.9344592 3.4155357 22.452999
-3.9015901 2.9382539 3.4554029 22.549751
-2.6351788 2.8238943 3.5091128 23.05975
-3.7913885 -0.017348707 3.9677014 1
-2.599113 -0.069669239 3.8627563 0
-2.0714796 -0.061966408 3.7414849 1
-1.7293673 -0.087839387 3.8627446 0.89999998
-1.427318 -0.051745396 3.8338749 2.6666667
-1.0616974 -0.040896822 3.8408797 2.5
-0.62614906 -0.080254987 3.8040955 0.5
-0.21758246 -0.10655777 3.7270525 1.5238096
0.18000737 -0.1096147 3.8329449 1.7083334
0.63155937 -0.1364698 3.7719193 2.02
1.0111328 -0.096832849 3.785481 3.1220236
1.2307835 -0.22943899 3.784272 2
-5.3364887 0.087491833 3.7652733 1.6666666
-5.0199699 0.24788114 3.767983 2.7750001
-4.695488 0.15852855 3.9018486 2
-4.2195172 0.31997898 3.8544769 4.6666665
-3.9861555 0.29632267 3.8889375 5
0.70530301 0.23430967 3.7350149 11.215762
0.95488656 0.25468773 3.7583158 9.8998194
1.2955303 0.26663917 3.8091164 10.522773
-4.9579353 0.54190195 3.7713611 4.6837664
-4.6771784 0.70234257 3.9828768 7
-4.1180472 0.69113022 3.91576 7.7678747
-3.9023163 0.68514067 3.9409988 8.7429991
-3.2187536 0.61389178 3.7858374 10.025416
-3.1544604 0.59340537 3.9534485 10.5255
-1.6576517 0.56923538 3.6109653 22.52125
-1.3544666 0.49863252 3.909766 22.529917
0.72987294 0.60233128 3.7625606 17.112238
0.94342226 0.60156029 3.7365742 14.576777
1.3470486 0.60035801 3.8598928 15.634349
2.3659163 0.58835125 3.8817773 10.596
-5.3244734 1.0247693 3.7735019 8.0795479
-4.9495597 1.0146549 3.8275256 8.6662664
-4.7091579 0.93774158 3.9098246 8.0930605
-4.1052012 0.97790021 3.8715723 11.028643
-3.864594 1.0417383 3.8944492 12.23065
-3.1204624 0.92878038 3.9120514 14.5265
0.71906465 0.94083905 3.8188429 17.562641
0.94573915 0.97489303 3.8028281 19.404547
1.3165776 0.92818606 3.8305702 20.618307
1.9278092 1.1930645 3.6017108 18.098499
2.3238392 1.0302196 3.7324288 14.84725
2.4295797 0.84569281 3.8297198 13.0965
-5.6296411 1.3112288 3.6984615 8.8594999
-5.4571857 1.4539363 3.6959152 10.384451
-4.9599252 1.3772966 3.817317 10.722755
-4.6668591 1.3563627 3.9321501 10.950832
-4.0147672 1.3611181 3.9671366 14.035
-3.7990572 1.5993203 3.6601608 18.024
-3.1516423 1.4367504 3.9408102 20.526501
0.77508825 1.3301873 3.9760046 19.756334
0.9291622 1.3708636 3.766824 18.846556
2.177886 1.2313991 3.7405014 17.09725
-5.6711669 1.7735052 3.6954811 11.859333
-5.385694 1.8725659 3.7412941 13.039874
-5.0081558 1.7547325 3.8356786 13.075332
-4.6666584 1.8098986 3.9241705 14.190962
-3.7702641 1.8033049 3.758069 19.691336
0.79062051 1.6623806 3.8650684 19
0.96078837 1.7759095 3.7694938 20.42923
-5.604527 2.1340303 3.7645321 15.0295
-5.4002075 2.1436098 3.7743242 14.593555
-4.9849553 2.2070389 3.8158102 15.241477
-4.6605396 2.1301506 3.9109187 16.043617
-4.3343081 2.0648522 3.9946098 18.0345
-3.9515147 2.2186844 3.8822484 19.049999
0.91920167 2.143259 3.795382 20.665199
-5.7673831 2.6654298 3.6679366 16.6105
-5.4721646 2.5585265 3.716682 16.661999
-4.9465036 2.7793555 3.9215322 18.049252
-4.5998564 2.7651734 3.950278 19.175001
-4.2173562 2.7631116 3.8777566 20.052
-3.3863504 2.6801817 3.8641605 21.342142
-2.9441447 2.6948895 3.8125112 21.176603
-2.6056306 2.706007 3.7932179 21.560228
-2.2094872 2.679462 3.7230456 21.334545
-1.8094871 2.70419 3.7584944 21.730318
-1.4150206 2.6946561 3.8098946 21.898252
-0.98345417 2.7164764 3.8412819 22.066248
-0.62401688 2.7415075 3.8392363 22.568279
-0.25320482 2.7392285 3.8854792 22.713667
0.25696221 2.7125807 3.8839018 22.5735
0.60080171 2.7232475 3.8510714 22.660166
0.93387586 2.5779088 3.8300064 22.036015
-6.8714528 2.8674798 3.8514314 16.025
-6.5679288 3.0371933 3.8279364 17.028334
-5.741878 2.9336832 3.7733305 18.528334
-5.4810324 2.9068093 3.7285151 18.240499
-4.924757 2.8793318 3.763124 19.4415
-4.5361776 2.8574052 3.7756917 21.328733
-4.2390108 2.8859265 3.8152683 22.084272
-3.833761 2.9070816 3.7674065 22.455591
-3.4734428 2.8958793 3.9143469 22.8885
-2.9271462 2.8278668 3.9799123 23.058001
-2.1159244 2.8083847 3.9091043 23
-0.89557201 2.803956 3.6617932 23.0665
-6.3602624 3.4139743 3.9473295 18.033501
-4.073451 -0.10153896 4.1729388 1
-3.8470135 -0.023999181 4.3517933 1.8333333
-3.3924699 -0.20540655 4.3255968 1
-3.1322322 -0.11582379 4.2893519 0
-2.5153966 -0.049612951 4.1398535 1.6
-2.2698174 -0.10645247 4.2723527 1.2857143
-1.8235033 -0.12694326 4.218977 1
-1.474593 -0.13271038 4.191092 0.94166666
-0.9501785 -0.24098296 4.3292832 0
-0.59364516 -0.15047142 4.2486382 1.5
-0.17337134 -0.12226653 4.1760163 1.6666667
0.18010816 -0.14699237 4.2185693 1
0.60397142 -0.19639754 4.1914878 1.25
0.92682278 -0.17075932 4.1829224 2
1.3293347 -0.23456198 4.2661877 1.25
1.7549716 -0.19846056 4.1744661 2.8333333
-4.5916276 0.24735425 4.1346245 2.8958335
-4.1061997 0.2678749 4.115932 3.0476189
-3.7860918 0.24824595 4.2634182 3.9815657
-3.5897181 0.27019569 4.3483753 4.5
-2.8928223 0.23955834 4.227994 6
-2.7681601 0.014693107 4.155437 3
0.79275364 0.11389864 4.0047522 4
0.94494528 0.24667503 4.1219988 9.7501011
1.4120662 0.29627338 4.0759144 10.927861
1.7182144 0.27533293 4.165153 9.5626669
2.6466148 0.39183596 4.320189 9.0974998
-4.168375 0.73838001 4.1203017 7.1460471
-3.8355641 0.69087481 4.1847906 8.2131033
-3.4905226 0.69614524 4.2643337 8.1773148
-2.9726305 0.59877229 4.2170744 11.027375
-2.7380955 0.60329604 4.3647304 11.370083
0.91300803 0.56665128 4.0945582 12.164211
1.351864 0.58718717 4.1232367 15.437766
1.7883842 0.56188506 4.2548914 13.1495
2.2372613 0.62280583 4.2636738 11.59525
-5.8121171 1.0943271 4.1052389 9.0264997
-4.9380569 1.0317476 4.0751977 9.0235834
-4.6108885 1.0421982 4.1243963 9.1221113
-4.1315646 1.0225316 4.1780601 9.694293
-3.8028886 1.0067316 4.2440791 10.605309
-3.5243359 1.026019 4.3123269 11.249687
-2.9804189 0.9825049 4.2278523 15.694623
-2.6892004 0.99882114 4.3434043 17.533751
0.75620431 1.0202466 4.0681229 14.085751
0.95343131 0.95763403 4.1000195 19.57324
1.316702 0.99876904 4.2087102 20.709904
1.7638171 1.0030513 4.2568812 18.232573
2.2274063 1.0282633 4.1137352 17.098751
2.4926469 1.0907431 4.335577 16.430666
-6.2173061 1.4128084 4.195364 10.026751
-4.9217782 1.4796482 4.1060061 12.105107
-4.5850639 1.3798131 4.1380277 11.288772
-4.1596508 1.428362 4.1880713 12.149567
-3.7763026 1.3724884 4.2796345 13.049878
-3.5100424 1.4526547 4.2995601 16.099365
-2.9166443 1.3595016 4.1713829 20.705677
-2.6990316 1.2750094 4.3282709 20.03475
0.90159547 1.3705934 4.0571733 17.88895
1.7833365 1.2929125 4.2916398 20.715252
2.001905 1.5175678 4.3983393 22.089001
-5.2610807 1.9500512 4.0074425 13.048
-4.97019 1.8041055 4.0478916 13.79
-4.5847769 1.8393178 4.1875291 14.448458
-4.2296057 1.8647786 4.2057843 15.066636
-3.7999299 1.8059623 4.2779393 16.20225
-3.4655275 1.7693036 4.2968745 18.862379
-2.9787388 1.6056856 4.0799103 23.028
0.75494277 1.7668055 4.0481887 19.0835
0.89984602 1.7280518 4.0504665 19.58432
-5.624547 2.1489539 4.2475657 15.027
-5.3036413 2.0432825 4.3154573 16.0275
-5.0000172 2.1514215 4.0578017 15.705667
-4.5438485 2.1534293 4.1255503 16.509323
-4.2174487 2.189065 4.2417107 17.191135
-3.8459284 2.2729242 4.3170352 18.087227
-3.4101944 2.1312788 4.2284451 22.489115
0.81544936 2.1915007 4.0241971 18.5
3.3104157 2.3889284 4.0984783 21.595501
-4.913938 2.6726661 4.1148391 18.289062
-4.5271945 2.7186263 4.1486864 20.152584
-4.2218947 2.6464148 4.2450857 20.332603
-3.8039646 2.6481602 4.2778187 20.208229
-3.3895051 2.6714675 4.225141 18.696875
-3.0042 2.6768134 4.2183752 19.670366
-2.6157377 2.6803329 4.2176585 21.123047
-2.2642322 2.7052736 4.2084713 21.789114
-1.8090761 2.6884539 4.223628 21.228111
-1.4011563 2.7002962 4.2053118 21.566895
-0.9573698 2.6627359 4.2231112 21.631502
-0.58742952 2.6216309 4.2527227 21.371174
-0.21519794 2.6489069 4.1875749 21.4695
0.22760072 2.6530428 4.2010393 21.810751
0.61723405 2.6324048 4.1596103 21.76869
0.81489897 2.5611804 4.0931592 21.246666
3.065419 2.4117935 4.3338103 22.094
-6.960433 3.1188002 4.2634768 16.0455
-6.463254 2.8177772 4.2453518 15.046
-4.8108673 2.8519123 4.1301298 19.5425
-4.6262555 2.8268311 4.1051669 20.289
-4.1834087 2.8719282 4.1455898 22.459528
-3.8494081 2.887578 4.2029881 22.505297
-3.4408951 2.865164 4.2369723 22.782318
-3.0799513 2.8340702 4.2343187 22.793001
-6.8605309 3.3120115 4.1269083 17.045
-6.3712726 3.3452358 4.248044 18.033501
-3.6681955 -0.048363909 4.4829779 1.6625
-3.3931763 -0.074478932 4.5599566 1.5714285
-3.0169175 -0.12973115 4.6374788 1.2296296
-2.6252506 -0.075143702 4.6645899 1.5
-2.1714044 -0.10722777 4.5916781 1.5
-1.9078493 -0.13924183 4.665947 1.3611112
-1.3737466 -0.16995522 4.5785599 0.89999998
-1.0344387 -0.17287664 4.6549578 1.6875
-0.43778691 -0.15732773 4.5911355 2.8333333
-0.29546663 -0.17689376 4.5410438 1.3333334
0.21181254 -0.18338579 4.6061049 1.625
0.60042119 -0.21353784 4.5695391 1
1.0877316 -0.26096892 4.4880428 1
1.4317195 -0.15829888 4.5556335 2.5
2.3815708 -0.34473753 4.5328732 0
2.5167167 -0.20212531 4.6444011 2.2666667
-3.6830504 0.26971915 4.556572 4.3249998
-3.3891885 0.19012171 4.5892358 3.543287
-2.9483361 0.16135314 4.6550837 3.5066137
-2.6171775 0.27848062 4.6635394 7.0407372
-2.2453704 0.14399657 4.6912837 5.1999998
1.6127256 0.23361376 4.4645891 9.5939999
2.579391 0.31729814 4.7627826 8.2932501
-4.1102686 0.69251603 4.508182 8.447958
-3.7594252 0.64274758 4.5775323 8.0857782
-3.3927903 0.66053635 4.568089 8.0924406
-2.991971 0.61731726 4.6581445 8.6547632
-2.6150482 0.59539837 4.6430426 11.247738
-2.3121271 0.58004063 4.733623 11.535455
2.345114 0.67569172 4.7432957 13.094
2.5313797 0.67801213 4.6379151 12.156404
-4.0830016 1.0304685 4.4668374 10.210334
-3.725812 1.0449917 4.5280128 10.483271
-3.4128129 1.039091 4.6108823 11.160213
-3.0115082 0.99579728 4.6324129 11.756854
-2.6034093 0.97409403 4.6512866 16.544641
-2.2799993 1.0545669 4.719779 18.819946
1.4941485 1.0838143 4.6108689 18.089001
2.3574638 1.1854229 4.7014999 17.797001
2.5127375 0.98274446 4.6306791 15.394501
-4.1077867 1.4110556 4.4862485 12.459542
-3.7728214 1.4374998 4.5639815 13.395429
-3.3921232 1.4263672 4.6156311 14.129798
-3.0587366 1.3816445 4.6961222 14.478113
-2.6015577 1.3379329 4.6258869 21.258072
-2.3442948 1.2665091 4.7218847 20.642101
1.5187969 1.332052 4.6004977 20.714251
1.7550044 1.5418066 4.4191465 22.091499
2.2508061 1.4231215 4.6269474 19.528502
-4.1336188 1.8315654 4.4860606 15.431826
-3.7510407 1.8306745 4.5667653 14.841114
-3.3920991 1.8054017 4.5921597 17.183617
-3.0520611 1.786116 4.6802974 18.870909
-2.780473 1.7745166 4.7921762 15.063
1.8608396 1.683012 4.6938543 22.0895
2.2339144 1.7337164 4.6377654 21.934427
2.4045701 1.6121932 4.7311149 21.087
-4.1475763 2.2252784 4.4798656 17.584578
-3.7933664 2.1829288 4.5982604 17.481415
-3.4208565 2.1902499 4.6150947 19.16481
-3.0794899 2.1356671 4.699574 21.347286
3.4526317 2.3045154 4.6227374 20.592751
4.696424 2.2972405 4.6694646 17.0935
4.9011235 2.367259 4.4437742 17.0945
5.9624891 2.0683806 4.7085733 14.094
-4.135828 2.5857277 4.4699235 19.804565
-3.8098469 2.5587909 4.6191611 19.112129
-3.3869462 2.6019595 4.6054735 19.067318
-3.0932643 2.6068633 4.6578226 18.874559
-2.6010206 2.6419611 4.5438952 19.907118
-2.2270994 2.644376 4.521863 20.508554
-1.7902584 2.6190612 4.5666142 20.375343
-1.3841544 2.6763771 4.6305318 20.735069
-0.9831596 2.6411726 4.5648928 20.88299
-0.57070482 2.6112213 4.6310196 21.248676
-0.19149435 2.6111565 4.5826287 21.575689
0.18263541 2.6096702 4.5580912 21.625969
0.59372109 2.6087604 4.5757871 21.251673
0.88098586 2.5710409 4.6193781 21.482201
2.9491398 2.4570014 4.573596 23.092501
-7.0347304 3.1432629 4.4665122 16.040501
-4.1547575 2.8371716 4.5391617 22.369499
-3.8112338 2.8587933 4.4509501 22.048834
-3.3605301 2.8687711 4.6189075 22.699001
-2.9782579 2.8082571 4.4583483 23.05875
-2.662286 2.8260009 4.652164 23.060919
-6.9056334 3.3498967 4.5717301 16.713499
-6.7714791 3.5196233 4.5106153 17.54175
-6.903471 3.6705694 4.6116791 18.046499
-0.29152262 -0.40439874 5.1792703 0
-3.2481549 -0.016604828 4.8555431 2
-2.9144502 -0.067446932 4.9701462 1.8703703
-2.5510697 -0.10775546 5.0746808 1.3888888
-2.2063518 -0.11074171 5.0780945 1.7083334
-1.8263155 -0.17520729 4.9688978 1.1333333
-1.4184065 -0.21299404 4.9684443 1.0520833
-1.0391273 -0.25791386 4.9505563 0.625
-0.59992111 -0.24500479 5.0621662 0.8425926
-0.18256241 -0.21640313 5.077559 0.75
0.17799807 -0.23189504 4.9579163 0.88095236
0.63591909 -0.25361666 5.0515285 0.75
0.93890995 -0.25021851 4.9950418 1.5
1.2964917 -0.28956327 4.9652996 1
1.7286017 -0.31628317 5.1365585 0
2.0867593 -0.2153976 4.9295206 2.5
-3.394582 0.26665568 4.8576627 5
-2.9542601 0.20071645 4.9062538 4.1950388
-2.5710604 0.22773489 4.9798388 5.5099812
-2.180814 0.2815313 5.0336146 7.9380636
-1.8492495 0.2375647 5.0779066 8.0388775
-1.525601 0.25891683 5.1421494 8.0555
2.0762186 0.2539165 5.0982847 7.5652499
-3.7675169 0.68748128 4.8574066 9.5332499
-3.318866 0.59788662 4.928175 8.3048325
-2.961504 0.63126469 4.9669423 8.1896372
-2.5693817 0.61089194 4.9951463 9.7726746
-2.2049203 0.59222633 5.0212088 12.019537
-1.865911 0.61918318 5.0739341 12.591755
-1.5300982 0.48575464 5.1692262 10.922084
-3.8061829 1.0895933 4.9054623 13.366666
-3.3294399 1.016072 4.910706 12.006804
-2.9798081 1.0411171 4.9870224 11.599042
-2.584388 1.0016356 4.9978771 13.031798
-2.2078195 0.99073488 5.0136638 17.026789
-1.8357139 1.0175686 5.0798621 18.626543
-1.5190569 0.92647284 5.1548328 16.721834
-3.6531723 1.4532802 4.83426 15.2432
-3.3203609 1.4170122 4.8832092 14.963739
-2.9735751 1.3973486 4.9510298 14.521277
-2.615181 1.3795006 5.0302253 14.988296
-2.2177598 1.3592937 5.0767679 18.271938
-1.8526573 1.3172816 5.1013737 21.129198
-1.5025983 1.3298173 5.141993 21.055
1.9213158 1.3033212 4.9351096 18.087831
-3.6150379 1.8162119 4.8597641 16.056
-3.3645527 1.805784 4.8708329 16.674156
-2.966644 1.8024181 4.9650922 17.290714
-2.6142938 1.7656871 5.0247059 17.536999
-2.2853439 1.7902336 5.1136608 18.056587
1.8601099 1.6899573 4.9291229 22.058664
2.2543087 1.8273404 5.016243 22.088499
2.454381 1.8699207 4.9596472 22.09025
-3.7364931 2.3685853 4.8572483 18.528875
-3.3275056 2.1981397 4.9270873 17.672293
-3.0011942 2.1708226 4.9536624 18.701551
-2.6314733 2.1351976 5.054533 20.219463
-2.281286 2.1557457 5.1611042 22.067945
2.6836023 2.3958433 5.1166372 23.087
2.9924984 2.3556104 4.9943037 22.090126
3.3241806 2.2754936 5.1011348 21.392149
4.0274715 2.3182955 5.199563 19.091999
4.492928 2.2350414 4.9895711 17.092001
5.4301825 2.1288433 5.115303 15.09225
5.658823 2.1324179 4.8892269 15.09325
6.0464649 2.0448706 5.0227313 14.092999
-3.7242639 2.6267455 4.8495789 19.900499
-3.387578 2.6130743 4.908391 20.000694
-3.019295 2.5903594 4.9921556 19.871298
-2.6121619 2.5848267 5.0179844 18.992006
-2.2013202 2.6132557 5.0110922 19.577633
-1.8154433 2.6126831 4.9992785 20.0044
-1.3866265 2.6025968 4.981564 19.860706
-1.0016301 2.598702 4.9745097 20.632702
-0.59369713 2.5973828 5.0268092 21.246927
-0.20845063 2.5901396 4.9506559 21.375952
0.21922028 2.6110194 5.0570035 20.617958
0.55118757 2.5685375 5.0445051 20.715181
0.98968244 2.5560796 5.0235066 21.666519
1.326103 2.5294166 5.0624504 22.461124
1.9022684 2.5183098 5.1475892 23.091749
3.0245647 2.4233303 5.0886898 23.086
-3.0469666 2.8344972 4.9684663 22.773251
-2.7072887 2.8518262 4.9783568 23.060749
-7.1419549 3.4183271 4.9756436 16.0485
-7.0909843 3.7671041 5.0272288 17.377998
3.5975275 -0.55620146 5.4093719 0
-2.4985228 -0.055339646 5.2291741 2
-2.1714385 -0.10827829 5.362206 1.7142857
-1.7953911 -0.13335551 5.3847589 1.8377777
-1.4294224 -0.15113626 5.405705 2.0714285
-1.0305772 -0.22729243 5.3548527 1.2708334
-0.62005013 -0.25152406 5.3810916 1.3333334
-0.2302421 -0.2876938 5.3533988 1
0.20216577 -0.2716628 5.3837304 1.0833334
0.46214718 -0.2934317 5.3948441 0.60000002
1.0871592 -0.29816216 5.3962369 1
1.4164276 -0.33677539 5.3528018 0.66666669
2.3202841 -0.3727355 5.2592392 0
-2.6121826 0.19396779 5.2881508 4.583333
-2.165823 0.23488553 5.365315 5.5983596
-1.7772666 0.24402016 5.3614402 7.8511291
-1.3829708 0.23660044 5.4055963 8.6257706
-1.0297209 0.24118529 5.4994946 9.3834648
-0.67710274 0.18704669 5.5136485 7.7692857
-2.948339 0.64463425 5.229713 8.939167
-2.523174 0.57897133 5.3424044 8.7062902
-2.1674151 0.60797083 5.3445001 9.7565393
-1.8105888 0.58750856 5.3895879 11.97448
-1.4088101 0.59826612 5.4451857 13.040179
-1.0170715 0.59886259 5.4380164 12.893419
-0.69966316 0.68866456 5.5492477 14.96345
-2.9092157 1.0683475 5.2712235 13.131625
-2.5558076 1.0040232 5.29988 12.118498
-2.1883097 0.97109169 5.3510094 13.585171
-1.7921401 0.97053152 5.391324 16.43885
-1.4057847 0.9905417 5.4579425 17.468582
-1.0567923 0.97282588 5.4918203 19.464754
-0.75623995 1.0616341 5.5616899 20.06275
-2.9398043 1.418051 5.2635093 17.085251
-2.5549324 1.4175687 5.2943072 14.29983
-2.1763875 1.3782945 5.3577409 14.212344
-1.8119305 1.3565304 5.4336667 16.81661
-1.4252946 1.3537979 5.4605889 19.336983
-1.1226174 1.392091 5.5622106 22.258101
-2.8878317 1.8020586 5.2247682 21.043167
-2.5750799 1.8038448 5.2919812 17.116186
-2.1773767 1.7674991 5.3418031 17.747736
-1.8234792 1.7738552 5.4600396 17.088938
-1.4878913 1.7480625 5.5367541 17.050751
6.0728846 1.9852662 5.4981108 13.0915
7.4733601 1.8923464 5.453639 12.0925
8.2659931 1.7888339 5.4924693 11.092751
-2.5326753 2.1290941 5.2992811 18.69644
-2.1971514 2.1992531 5.3558879 18.67893
-1.8448157 2.151093 5.4745703 19.050516
-1.4954638 2.0619261 5.5654864 19.977287
1.7814372 2.3852162 5.4079933 21.089001
2.2859452 2.3701844 5.4786062 21.594099
2.6085548 2.3525774 5.4263568 22.086874
2.9840417 2.3511293 5.4165521 22.525845
3.3206031 2.2378967 5.451993 20.772556
3.8268838 2.3049262 5.4506721 19.49065
4.2529902 2.211961 5.3989949 17.590668
4.6009898 2.1413615 5.529109 16.59075
5.0705295 2.1520631 5.4192371 15.590875
5.269721 2.1281068 5.2934103 15.0915
5.8186159 2.0209951 5.4350724 14.091499
6.1139641 2.0154412 5.3477173 13.092
-2.8993804 2.6848564 5.2737617 22.393667
-2.5675521 2.5668085 5.3892946 20.196932
-2.1951363 2.5468283 5.404325 19.663109
-1.833084 2.5747011 5.3928242 19.743008
-1.4080784 2.5778329 5.3915763 19.316502
-0.99831617 2.5638742 5.3851891 19.129631
-0.60583031 2.5725403 5.398025 19.012917
-0.20268221 2.5763714 5.4027748 20.324926
0.2003599 2.5529592 5.429287 20.114525
0.61947191 2.5417807 5.3966589 20.51996
0.99033868 2.5057433 5.4021344 20.760862
1.3713417 2.4757102 5.4455132 21.586166
1.8196255 2.4699593 5.4455838 22.791101
2.1988432 2.4408436 5.4400382 22.887751
2.5889521 2.4324315 5.3756733 23.086874
2.9798715 2.4250145 5.3907781 23.084126
-2.5864205 2.8038256 5.4775782 23.0625
-2.261055 2.8076441 5.3628092 23.064251
-7.2532077 3.8714366 5.4245176 16.550251
-1.0033133 -0.45655906 5.7382979 0
-0.69007355 -0.42651135 5.835547 0
-0.26057702 -0.42572227 5.8209066 0
1.9739099 -0.43504906 5.7945271 0
2.2927473 -0.503546 5.8838425 0
2.5843165 -0.42989469 5.6210737 0
-1.7459202 -0.15187888 5.7494464 1.75
-1.4124908 -0.12546867 5.730453 2.301389
-0.97531128 -0.18666269 5.8224893 1.9857249
-0.62113464 -0.19945215 5.8206296 2.260268
-0.23201799 -0.18382438 5.7814727 2.9287415
0.12826481 -0.33213449 5.7325754 1.2266667
0.55727512 -0.37812033 5.9911098 0
1.8381505 -0.38256073 5.6408138 0
-1.7680916 0.2436627 5.6864333 6.1074376
-1.384061 0.21828505 5.6995077 7.2165303
-0.98950845 0.22008532 5.786509 7.6848464
-0.61911106 0.23851353 5.7420301 9.0403023
-0.21003832 0.23582239 5.756938 9.3535595
0.17892453 0.29226595 5.7379942 9.8620729
0.46216631 0.28793311 5.7226439 9.3243752
-2.2279534 0.58340663 5.6445823 9.8519993
-1.7638761 0.59581989 5.7099719 9.1227884
-1.3692863 0.6243751 5.7528267 12.239683
-1.0109504 0.60254759 5.8125968 12.361775
-0.62235677 0.59211653 5.8472929 11.528934
-0.23441158 0.58462244 5.7976279 13.79542
0.18297063 0.54007989 5.8301387 13.302827
0.48447943 0.51622933 5.756865 12.407666
-2.438241 1.1467119 5.6059465 15.0505
-2.1315651 1.0374643 5.6484418 12.770965
-1.7434275 1.0014707 5.7274699 13.141904
-1.3740907 0.96668142 5.7532048 14.715999
-1.0042249 1.0051975 5.793149 16.336433
-0.61034179 1.0036834 5.8024192 18.657558
-0.21512285 0.98114598 5.7557402 19.495911
0.14037123 1.0437851 5.7843552 19.621651
-2.1047688 1.4076947 5.6852379 15.273393
-1.7732824 1.4288479 5.7212124 14.77955
-1.3803338 1.3778659 5.7628713 15.803848
-1.0132993 1.3976383 5.8195519 15.997803
-0.65058929 1.334923 5.8935404 17.607334
-0.18562911 1.255826 5.8221045 22.568485
0.053859621 1.3277194 5.7822933 23.070999
-2.0938148 1.788564 5.7126412 21.337711
-1.7806998 1.8091863 5.7609725 17.523973
-1.3999523 1.7632135 5.7449708 17.306419
-0.9967407 1.7644285 5.8754339 18.238144
-0.64442283 1.7321615 5.9225068 19.719156
4.4835558 1.9964213 5.9389172 16.09
5.8962698 1.9972329 5.7638083 14.0905
6.1562338 1.9650207 5.8247972 13.0905
8.3428469 1.7613838 5.8235149 10.092
-2.4755642 2.2733741 5.6035638 16.066
-2.0798719 2.170536 5.8250475 16.068001
-1.7215414 2.2487779 5.7010646 17.806103
-1.4032996 2.1664212 5.7847595 17.362358
-1.0337538 2.1590743 5.8863769 18.148041
-0.62075341 2.1082807 5.9984212 18.074749
1.4974998 2.387423 5.8420105 21.337124
1.7326803 2.3798687 5.7988992 21.2892
2.2708058 2.3585684 5.8034453 21.459814
2.625855 2.3277173 5.813189 21.918533
2.9695706 2.2994869 5.7839928 21.478283
3.2936199 2.2176316 5.8334002 20.378729
3.7567885 2.2603519 5.8392544 19.310831
4.1742115 2.1868248 5.8027372 17.902611
4.5879517 2.119406 5.808012 16.756918
4.9318032 2.115387 5.7933755 16.090666
-2.1492095 2.612689 5.6680264 19.816439
-1.7971885 2.5300443 5.7542381 19.49972
-1.3942435 2.5094073 5.822084 19.596891
-1.0179489 2.5484931 5.8288264 19.142508
-0.58165586 2.5422351 5.8221121 20.035696
-0.18434022 2.5204976 5.7881632 19.520481
0.18445994 2.5305967 5.8121552 19.812286
0.58798617 2.5204375 5.7998762 19.686205
1.0020492 2.4949117 5.8146782 20.297562
1.3597689 2.4505961 5.842052 21.0235
1.7333921 2.4359727 5.7370343 21.713312
2.2016304 2.4462342 5.7853637 22.583927
2.5324359 2.4227903 5.8048301 23.085249
2.8318915 2.4112434 5.7206607 21.588501
-7.4180613 3.8158216 5.8134127 16.550751
-6.7011199 3.782181 5.9014797 17.054001
-0.25769633 -0.42265376 6.1058893 0
0.24446383 -0.42083201 6.1430407 1
0.74770182 -0.41492391 6.2125959 0.5
0.93879902 -0.40985119 6.3050547 0
2.573782 -0.48813438 6.1417408 0
-1.2964097 -0.13779035 6.1092954 2.6666665
-1.0289996 -0.1768084 6.1037226 2
-0.64686984 -0.19261527 6.1252656 1.9075397
-0.22587274 -0.18503278 6.2076559 2.5771101
0.13471872 -0.2332439 6.2500005 2.0333333
0.54112667 -0.26789454 6.1514673 1.5833334
1.0618882 -0.092804283 6.3378019 4
1.3661935 -0.24969257 6.1788635 2
2.8702617 -0.37336767 6.3296366 2
-1.6442589 0.35763016 6.062171 8.0574999
-1.5210563 0.33422962 6.1193886 8.0585003
-0.98378861 0.03602697 6.1191072 4.333333
-0.58730978 0.21877174 6.1319137 6.9803653
-0.23074254 0.24140733 6.175849 7.4798923
0.14133549 0.24798089 6.2800231 6.8779979
0.57252157 0.33073223 6.2943764 8.7217922
1.0128553 0.34210014 6.1807337 8.6759005
1.3205686 0.34797239 6.206017 8.5774994
-1.4406751 0.51074445 6.1513381 9.059
-0.90545732 0.59114629 6.1053476 10.345963
-0.60783714 0.62509984 6.1426816 11.119715
-0.20984982 0.61809838 6.2227244 10.81869
0.17231259 0.5324384 6.2480421 9.665946
0.56935751 0.50808102 6.2814555 10.07325
1.0410985 0.58399928 6.2211552 11.242541
1.3849913 0.56461757 6.1638865 10.506607
2.1079531 0.58556038 6.2975717 9.7473335
2.770432 0.67078102 6.3882942 10.0825
-1.3669754 0.90270519 6.0600572 12.729167
-0.93141544 1.011569 6.1103315 12.874805
-0.58043808 1.0062215 6.1688433 13.571475
-0.2185035 1.0057589 6.2172441 14.317413
0.1489857 0.95301574 6.2614512 13.668262
0.57476389 0.94178396 6.2948499 14.073179
0.94183213 1.0959942 6.39991 16.074499
1.5190344 1.1040788 6.1099448 15.079
2.2228549 0.87846035 6.3123932 12.081
2.7729046 1.0098344 6.396307 12.0825
-1.7019978 1.4183359 6.0195694 18.02825
-1.3834078 1.4187292 6.082366 16.398174
-0.98224175 1.3703538 6.1434469 14.320461
-0.59447145 1.4158119 6.2037125 15.685624
-0.22181548 1.3874971 6.2464027 16.153667
0.1233189 1.3789572 6.2485204 16.914383
0.64258212 1.330484 6.2650275 18.406584
1.0542362 1.3344481 6.2050223 18.675999
1.2245359 1.3030448 6.0994558 18.077499
9.8645678 1.5744147 6.2832217 9.0917501
-1.387596 1.8029114 6.069818 18.3634
-0.96727645 1.7855976 6.1669292 18.139244
-0.57401335 1.7575735 6.1822271 17.276165
-0.20865826 1.7777389 6.238678 17.897898
0.062116239 1.8052926 6.3266344 16.955084
0.5523355 1.7069517 6.2514009 22.739613
0.90820199 1.7655405 6.1488266 22.825439
1.2301447 1.9526384 6.2120314 23.077
1.6266263 1.7368569 6.3139 20.078501
2.2617989 1.7041894 6.36413 18.080999
2.5781357 1.8207223 6.3853998 18.082001
3.8072112 1.9978036 6.3924866 16.085501
4.3743315 1.9853933 6.0727234 16.089251
4.5125403 1.9901785 6.2683582 16.083
5.7400393 1.9401162 6.281693 14.093
6.2256312 1.9364771 6.1875381 13.0895
7.8824425 1.7776544 6.2310729 11.09075
8.3757696 1.7359641 6.0453286 10.0915
-1.29409 2.2039001 6.1245904 19.785645
-0.97238672 2.186475 6.1715202 18.732487
-0.60941464 2.1810122 6.1786084 17.127348
-0.19485228 2.2249207 6.2731309 18.3834
0.070825391 2.1248891 6.2991281 17.896667
1.0884355 2.3689969 6.2745261 21.189062
1.4012774 2.3657064 6.1746464 20.632204
1.7998927 2.3489614 6.2683163 20.472666
2.2231898 2.3427749 6.2377167 21.252693
2.6231441 2.2926307 6.2171345 20.700781
2.9954572 2.2543097 6.2090816 19.74733
3.4112325 2.2130287 6.1966829 19.086391
3.8061612 2.1965847 6.2134795 18.206869
4.2023954 2.1273305 6.2353625 17.322706
4.5083427 2.1036811 6.1274567 16.713812
5.0092506 2.0786386 6.2103381 15.715624
5.3162842 2.0718112 6.1899266 15.092
-1.364068 2.5634055 6.0457292 21.642141
-0.95919973 2.5283825 6.1061716 20.042463
-0.61413276 2.4960999 6.152915 19.32629
-0.23009524 2.5024021 6.2127061 19.802197
0.18985717 2.5004656 6.2014141 18.616814
0.56814277 2.4797049 6.2074747 19.080137
0.99969757 2.4536712 6.2051091 19.007284
1.4018778 2.4388883 6.1820388 19.626238
1.8513441 2.4401927 6.194561 20.959686
2.201031 2.4383562 6.1930079 21.668625
2.4401174 2.4291027 6.1441193 20.755667
0.32162032 -0.40567094 6.4905577 1.5
0.65280962 -0.4578006 6.6867442 0.22222222
0.98527431 -0.48504606 6.7217507 0
1.2856978 -0.50773501 6.6702623 1
2.6974285 -0.52673882 6.6522326 0
3.3909562 -0.64044708 6.6956453 0
3.8629248 -0.56296009 6.6921535 0
-0.48963562 -0.30122849 6.4913588 1
-0.20180431 -0.22869357 6.5576258 2.1285713
0.2075953 -0.20938498 6.574522 2.4815972
0.56877583 -0.20984198 6.5885663 2.4961452
1.0394902 -0.1372623 6.5749226 4
1.4598668 -0.093197376 6.749167 4
-0.56494898 0.29816279 6.5428672 7.7099166
-0.19999908 0.25250289 6.5443115 6.638545
0.18779075 0.23612076 6.5609174 6.7776337
0.5391413 0.2673589 6.6669998 7.3719959
0.82246494 0.32456082 6.7229195 8.4073334
1.2161224 0.38012624 6.6911163 8.0760002
1.9532173 0.34528029 6.4218593 8.0795002
2.5447981 0.38098463 6.6432333 8.0807495
-0.84487373 0.51127219 6.4016666 9.5628748
-0.5337522 0.63180548 6.5438247 10.733125
-0.23753056 0.66243452 6.5864377 10.675967
0.20246872 0.58872628 6.5764594 9.2652178
0.57020414 0.60371578 6.6533217 8.9336147
0.97684956 0.6171748 6.6112161 11.375875
1.217216 0.75380838 6.6877184 11.076
2.0982261 0.65306687 6.4500227 10.08
2.6649828 0.65696025 6.5529923 9.8315001
-0.85944617 1.0569203 6.4929667 15.062
-0.5440957 1.0275162 6.518733 14.26655
-0.20174615 1.0277755 6.5370951 13.290266
0.17854388 1.0105129 6.5848494 12.381894
0.58855474 1.0220206 6.6710944 11.90393
1.0262905 1.0151027 6.6626277 14.408751
1.3078107 0.99023432 6.7274208 14.07725
2.5864327 1.0275205 6.4993262 12.481501
-0.47381741 1.429425 6.5035486 17.498358
-0.16344483 1.4322313 6.5357437 15.983379
0.18691559 1.3792869 6.5731974 15.875333
0.56010336 1.3945143 6.6653986 14.843528
0.84629899 1.3074136 6.632525 18.074999
1.8037281 1.4867468 6.6187105 17.077999
2.196104 1.4246535 6.7203522 15.57925
9.2275848 1.5436488 6.7149715 9.0904999
10.24085 1.4662265 6.7567654 9.0909996
-0.53866494 1.8322808 6.4785218 16.797983
-0.17104521 1.8102432 6.5641298 17.352268
0.22332773 1.7705017 6.575686 16.423628
0.53239042 1.8198559 6.6379409 17.701647
0.92571563 1.8663237 6.6374598 17.878576
1.728152 1.684262 6.5540352 19.077999
2.3311555 1.9186125 6.6492558 19.08
4.2825956 1.9782927 6.652144 16.085701
4.4719181 1.9830749 6.5274754 16.085251
5.50314 1.9748737 6.7122965 14.083
5.7124929 1.9368215 6.5242553 14.091499
6.284205 1.8992538 6.6817741 13.089168
6.7237859 1.8762901 6.7292023 12.0885
7.9606209 1.7387009 6.7594242 11.0895
8.0169106 1.7661242 6.5635424 11.09
8.5816727 1.6907424 6.5260983 10.0905
-0.8536821 2.058605 6.4288073 20.074499
-0.54662615 2.218555 6.454628 17.776501
-0.18237667 2.1811609 6.4706159 16.292469
0.2116646 2.2230675 6.6310186 17.515816
0.57536602 2.285646 6.6828885 17.708107
0.94340503 2.3400197 6.614471 19.078678
1.4109957 2.3568511 6.6668787 19.680601
1.7971318 2.3324311 6.6257405 20.239683
2.1913764 2.3250585 6.5906115 20.723734
2.5903375 2.255918 6.5998654 19.634085
3.016149 2.208585 6.5658708 18.686523
3.3645422 2.192385 6.5815482 17.943605
3.781373 2.1401577 6.6134124 17.585896
4.1720142 2.096509 6.6286402 16.586584
4.6117167 2.0672019 6.5849738 15.946071
4.9864111 2.0443995 6.5402861 15.374642
5.470221 2.029114 6.6118431 14.420834
-0.48971912 2.4675641 6.4857664 21.073124
-0.20595551 2.4706683 6.5124736 21.151873
0.17500696 2.4576435 6.5560861 18.426928
0.61509788 2.4529419 6.5534453 16.804884
0.96582323 2.4452858 6.5884347 19.273603
1.4224595 2.4387758 6.5862236 18.915417
1.7441193 2.4397759 6.5842209 21.579813
2.2043557 2.4304903 6.5259247 21.086
0.74346876 -0.41700888 7.0324359 2
1.08591 -0.46021155 6.9565797 0.35714287
1.3356645 -0.4800936 7.023087 1
1.7113285 -0.67501646 7.0719314 0
2.0162549 -0.56748736 6.9612484 0.5
5.6194992 -0.79663318 6.8032413 0
-0.087521493 -0.094534263 6.8856821 4
0.25710079 -0.10557113 6.8691592 3.4166667
0.65237087 -0.21086851 6.8892622 3
0.97223157 -0.087883592 6.9942198 3.55
1.3927323 -0.12893112 7.0588417 3.5999999
1.8101331 -0.20635247 7.1245103 4
2.1233008 -0.15027988 7.0525637 4
-0.19621778 0.28817797 6.8286777 8.0657501
0.2636255 0.23604511 6.8610749 7.2851248
0.58909291 0.26445189 6.8651609 7.875886
0.96161705 0.24075454 7.0051007 5.7628074
1.3593515 0.34530139 6.9817309 8.0760002
1.6879048 0.31430802 7.1498833 6.5387502
-0.096683718 0.63356578 6.8724146 11.2532
0.17483459 0.55308205 6.9281721 10.058785
0.60581875 0.63751727 6.8868337 10.020218
1.0203835 0.55979609 7.017159 8.2983723
1.3691275 0.60155922 7.1030087 8.8470278
1.7820882 0.54355979 6.9523101 9.2211428
2.1606576 0.55032915 7.0367303 9.0799999
-0.17625606 0.99785554 6.8567262 14.865702
0.19116008 0.92608613 6.9266944 14.344643
0.62611085 1.0105848 6.9116688 13.209894
0.97761327 0.96162355 6.9861355 10.91835
1.3629727 1.0224761 7.1135573 11.075552
1.6665984 1.1206385 7.1516113 14.077
2.2018628 0.89456797 7.1684346 12.081
-0.11429113 1.2863032 6.8404193 17.7335
0.22214893 1.2907199 6.9675531 15.320749
0.65810692 1.3965549 6.9046812 15.059389
1.0168189 1.4093217 7.0159354 13.706249
1.3793349 1.4143295 7.0832028 13.574807
1.7996817 1.3687367 7.0935936 15.07625
2.0196953 1.3833377 7.1461945 14.577749
9.1897106 1.5733799 7.1954327 9.0895004
9.2782412 1.5662025 6.9762106 9.0900002
10.376031 1.4412994 7.0610409 8.0904999
11.03089 1.4587078 6.9577971 8.0909996
-0.11427873 1.7693398 6.8287339 21.066
0.067724541 1.6357701 6.804163 11.077
0.62144333 1.7834501 6.9019279 16.079342
0.97693253 1.7597516 7.0060058 16.040945
1.3500265 1.6342491 7.1008482 16.879499
3.9320676 1.998153 7.0505934 16.085501
4.1642928 1.9880377 6.9506078 16.084999
4.9025211 1.9799528 7.067791 15.083167
5.3931904 1.9162016 7.009798 14.084667
5.7606621 1.9056523 7.0535192 13.588062
6.2337346 1.8902863 7.039216 12.837875
6.5023189 1.9004879 6.9696245 12.58975
7.2998099 1.7521281 7.09658 12.0925
8.6110573 1.6208514 6.9933405 10.0895
0.29601157 2.2259469 6.9342532 19.619778
0.63187307 2.2440875 6.9539709 16.719633
0.98380893 2.3122077 6.9837694 17.871988
1.405005 2.3234513 7.0315251 17.553604
1.7827021 2.2955809 7.0013022 19.974043
2.1912632 2.2463648 6.9873633 19.329111
2.5625765 2.2130289 6.9450793 18.232233
3.0162392 2.183634 6.9777775 18.007961
3.4293909 2.1728971 7.0227947 17.84334
3.7803471 2.1263199 7.0642076 16.90744
