# .PCD v0.7 - Point Cloud Data file format
VERSION 0.7
FIELDS x y z intensity
SIZE 4 4 4 4
TYPE F F F F
COUNT 1 1 1 1
WIDTH 418
HEIGHT 1
VIEWPOINT 0 0 0 1 0 0 0
POINTS 418
DATA ascii
-1.7322484 2.4799237 -3.7213616 20.01
-2.0458882 2.4948485 -3.5706887 20.011999
-1.9556974 2.5016737 -3.4022121 21.011999
-1.4221869 2.5344906 -3.3438096 22.509251
11.441021 1.988225 -2.8093247 8.1134996
11.575799 1.9624941 -2.5435262 8.1129999
8.4888363 2.1226223 -2.4766219 10.1145
9.3412504 2.0848842 -2.6988592 9.1145
10.184623 2.002733 -2.7186918 9.1140003
7.1627574 2.2102437 -2.2318444 12.115
7.2400546 2.1714478 -2.1107624 12.1145
8.6267395 2.1060672 -2.2944491 10.114
8.8100796 2.0937641 -2.1338346 10.1135
9.7059555 2.0556116 -2.2596133 9.1132498
10.487391 2.0123322 -2.0508208 9.1125002
10.840383 2.0352845 -2.1562562 8.1125002
0.71166575 1.1705782 -1.601642 22.134501
0.63788182 1.2850243 -1.6837338 22.552458
6.3022332 1.7316962 -1.6768525 11.114
11.28497 1.9709435 -1.9575704 8.1120005
4.9352841 2.339469 -1.6758107 16.615499
5.448823 2.286181 -1.7777267 15.11525
6.2431917 2.2211213 -1.9512595 13.115
6.5093164 2.2089705 -1.8172292 13.11425
6.8203049 2.1711929 -1.6542791 12.1135
7.5903711 2.1370039 -1.839185 11.1135
7.8168321 2.1565104 -1.7374128 11.113
8.3011799 2.1334903 -1.8472116 10.113
8.427228 2.1062841 -1.680089 10.1125
9.3878708 2.060317 -1.6486748 9.1120005
-1.9698405 0.17025054 -1.2304399 4.6666665
-1.9428911 0.57531583 -1.2849314 10.318
-1.8922911 0.88136387 -1.212481 15.023
0.76684302 0.99040037 -1.4373621 20.466169
0.81465733 1.1429691 -1.358192 23.13175
0.73280662 1.2557462 -1.5483826 23.134001
2.4994137 2.0041423 -1.2277364 23.1185
3.9353774 2.356385 -1.4553018 19.449499
4.1262655 2.3085086 -1.3232377 18.543715
4.680757 2.3258533 -1.2553514 17.114
5.0472555 2.3301303 -1.4865879 16.514599
5.430491 2.2740252 -1.4180307 15.363874
6.5138249 2.194123 -1.4356523 13.113
6.9677143 2.1873264 -1.3845741 12.1125
7.9124904 2.1194363 -1.5753093 11.1125
8.169735 2.1157999 -1.3442097 11.11175
8.7152357 2.1242063 -1.537481 10.112
8.8405399 2.1023281 -1.3438898 10.1115
9.4367733 2.0180514 -1.4562786 9.1114998
9.9309721 2.0973086 -1.2952687 9.1110001
3.1300795 2.4360771 -1.2845552 23.117001
3.3550968 2.4430661 -1.2515984 22.116249
3.7798245 2.4330406 -1.3235421 20.490749
-1.9650582 0.27355325 -1.0168023 6.548214
0.75297141 0.30131525 -0.84915054 11.1275
-1.9346975 0.60324281 -0.96374804 11.431506
0.74756551 0.62628567 -0.95673984 18.008463
0.85190088 0.51576108 -0.80788422 16.1255
1.5406855 0.71549618 -1.0715464 14.122
1.7041262 0.68539476 -1.0686846 13.358584
-1.9154148 0.968611 -0.96277446 16.359751
0.79041195 0.85586405 -1.0540105 21.796
0.81478792 0.91266274 -0.96509564 23.128
1.5245723 1.0666987 -1.0354289 19.518208
1.633422 0.97623777 -1.0446548 17.621124
-1.8347316 1.3425177 -0.95394266 21.275061
1.4645954 1.2552228 -1.00342 22.7885
10.647865 1.9381505 -1.0315993 8.1102505
3.1184835 2.376699 -0.9414202 23.11475
4.220983 2.3144131 -0.9785378 18.613249
4.7751651 2.291966 -1.0558763 17.113001
4.9865756 2.3063829 -0.90512866 16.778833
5.3823385 2.2976031 -1.0125268 15.540856
6.7632113 2.1857281 -1.1214557 13.11175
6.8084078 2.1834381 -1.0307968 12.1115
8.5750771 2.1278167 -0.92775774 10.1105
9.0762081 2.0790505 -0.9837296 10.1105
10.155399 2.0097413 -0.99367452 9.1102505
3.1197963 2.4288604 -1.1321213 23.115999
3.5197666 2.437757 -1.0366598 21.947916
3.7724993 2.4430249 -0.96270138 20.780416
-1.9537201 0.18460913 -0.59911776 5.3125
0.77322501 0.36665004 -0.7799381 13.12625
0.83314294 0.31590784 -0.78678507 11.1255
-1.9346665 0.56189543 -0.57949668 11.274457
0.76413935 0.56283647 -0.78514147 18.015333
-1.8738046 1.0268832 -0.60706455 18.158398
-1.8305514 1.3490649 -0.65152234 22.265852
10.290515 1.9768645 -0.6575222 9.1094999
10.451927 1.9547819 -0.43381321 8.1090002
3.1567187 2.3774767 -0.55220765 23.112
3.2510188 2.398561 -0.79418963 23.113501
3.9347618 2.391958 -0.73581219 20.112249
4.1575308 2.3288002 -0.61990988 19.166998
4.443614 2.2644372 -0.52769268 18.11075
4.9787693 2.3312924 -0.70099086 17.11125
5.4308796 2.2892499 -0.58767003 15.6105
6.5173306 2.1906285 -0.5610345 13.110001
7.1440172 2.1355653 -0.44918954 12.1095
7.2634249 2.2163372 -0.63098675 12.11
7.699543 2.1452928 -0.5847494 11.10975
9.3161402 2.0480957 -0.50555491 9.6092501
3.1884656 2.4046485 -0.69813663 23.113001
3.4094231 2.4215295 -0.54346901 22.445
3.8428054 2.4325869 -0.57186157 21.089252
5.1745415 2.4010336 -0.44599363 17.110001
5.2186408 2.4260371 -0.56681341 17.1105
-1.8868935 0.34317017 -0.17816448 8.3605833
-1.8915089 0.59936982 -0.198066 12.491053
-1.8516797 1.0110625 -0.24065048 18.648409
-1.7819201 1.261338 -0.20690219 22.450043
10.389489 1.9753054 -0.235862 9.1084995
11.619111 1.889153 -0.25450927 8.1084995
4.1056647 2.3368068 -0.2034914 19.517195
4.5363712 2.2765641 -0.19323432 17.909
5.009901 2.3357399 -0.21075012 17.109001
5.4170647 2.2750418 -0.25652552 15.709101
5.7146025 2.2283688 -0.19079819 14.608749
6.2680926 2.211796 -0.13583276 13.6085
7.2258172 2.1331005 -0.3160418 12.109
7.8257332 2.1158307 -0.15845388 11.1085
8.7842836 2.1250186 -0.37608603 10.109
8.8261423 2.1262224 -0.18181314 10.1085
9.5774775 2.0468848 -0.0037666382 9.1079998
3.4750068 2.4044168 -0.24760672 22.609625
3.8233571 2.4419639 -0.20670652 21.331938
-1.7458774 0.31110245 0.18022911 7.9830894
-1.5375901 0.36673972 0.30689517 9.5404997
-1.7733839 0.62515098 0.18769346 13.4541
-1.5421039 0.41237408 0.2719166 11.04
-1.7905957 1.0030932 0.19975387 19.07991
-1.7365956 1.2579172 0.19722445 22.538626
10.758924 1.9234453 0.016991386 8.1079998
10.982748 1.9192245 0.26261869 8.1075001
3.1586792 2.3651006 0.35241041 23.105499
4.1529965 2.3126874 0.25938964 19.306601
4.4331427 2.2537429 0.10145145 18.1075
5.0107088 2.3022194 0.25171798 16.856874
5.3665104 2.2871718 0.17761165 15.85725
5.7894216 2.2260444 0.20831081 14.707201
6.0507569 2.2051528 0.14905024 14.1075
7.5075521 2.1308703 0.006144776 11.108
7.7014017 2.1155634 0.2644119 11.10725
8.7931118 2.1077142 0.11155184 10.10775
8.8373156 2.101831 0.39256415 10.107
9.4852028 2.0131233 0.20665044 9.1075001
3.4853351 2.5108073 0.15465848 23.107
3.8125618 2.4772677 0.18452528 21.506901
-1.6675447 0.29531848 0.60089165 7.6958332
-1.4928684 0.35868064 0.52039927 9.7103338
-1.7008202 0.60754043 0.61522061 12.939499
-1.4906721 0.60948884 0.53855342 14.293938
-1.6939524 0.97992414 0.6286841 18.491652
-1.6558198 1.2482978 0.59037155 22.591806
-1.5876579 1.3028364 0.7368719 23.0305
3.107451 2.3268867 0.41896883 23.105
3.2213173 2.3932931 0.79420471 23.102501
3.9395676 2.3794551 0.65792865 20.10425
4.143436 2.3037529 0.61150539 19.229656
4.5656152 2.2476606 0.60097116 17.105
4.9368639 2.2645183 0.59928995 16.605251
5.2560759 2.263238 0.52787805 16.105751
5.7071619 2.2175879 0.59904212 14.855624
6.055521 2.1771672 0.66640645 14.1055
7.4856758 2.1604342 0.50258213 12.1065
7.86725 2.0982838 0.50763375 11.1065
8.0244846 2.1162333 0.70660645 11.106
3.7973003 2.4205546 0.67242986 21.104
-1.6255709 0.33187377 0.93142867 8.0317774
-1.5827851 0.24251561 1.1344177 6.6678572
-1.6313778 0.56973302 0.92327422 11.961972
-1.5761491 0.59801626 1.1150742 12.509524
-1.6165823 0.9936679 0.90706885 18.555555
-1.5590529 0.90307802 1.074978 17.022223
-1.4854542 1.2876891 1.0363859 22.642859
3.9498262 2.3248651 1.1072226 19.601749
4.1638803 2.267735 1.0093503 18.531143
4.6837277 2.2704587 0.88032925 17.10375
4.9612708 2.2024384 0.98684502 16.1035
5.3860211 2.2417123 0.95248407 15.104
5.9285374 2.1928625 0.98893458 14.10425
6.1791101 2.1985996 0.96098828 13.6045
6.8976254 2.1826663 0.92742336 12.105
3.3520029 2.4359715 1.0139583 22.529821
3.6948848 2.4301505 0.86148494 21.102751
-1.50985 0.3013027 1.3602155 7.4029484
4.4826341 0.18505709 1.569499 4
-1.4597876 0.60344917 1.4067024 11.886386
4.4825001 0.66976953 1.5792681 7
-1.417544 1.0037374 1.3738799 17.904726
4.4194298 0.82703602 1.5947232 8
5.3496294 0.97531003 1.4278841 8.1020002
-1.3395004 1.3148165 1.4891329 21.4841
4.3944783 1.2076179 1.5975115 11.1
4.5817251 1.2207209 1.5674437 11.1005
5.1180062 1.2772377 1.5004346 10.1015
5.3587513 1.2106538 1.4458904 9.1020002
5.6084881 1.3309324 1.3781761 10.1025
4.9375157 1.7113589 1.5640451 13.101
5.4770308 1.9583988 1.4190047 13.333333
2.9944913 2.3840287 1.400122 23.098
3.8360775 2.344106 1.353106 19.60025
4.1298189 2.236917 1.3584093 18.243572
4.9743495 2.2506733 1.3927301 16.101749
5.4723091 2.1604376 1.3553751 14.632001
6.005096 2.1939681 1.2080632 14.1035
3.1384623 2.4289036 1.2231401 23.099501
3.4682581 2.4151373 1.524188 21.265165
3.6740975 2.4146836 1.3866975 21.099751
-1.295897 0.29714039 1.7813858 6.9992843
2.9532788 0.19795032 1.9236839 4.25
3.3368199 0.22500956 1.8266639 4
4.2620401 0.22343619 1.6997261 4.1666665
4.4257617 0.20635477 1.6115592 4
-1.2836883 0.60261291 1.7949045 11.093421
-1.1887751 0.73128295 1.9799694 12.5
2.7966797 0.67762256 1.9963902 9
3.0564399 0.67728639 1.9067687 8.5000715
3.2617254 0.70037711 1.8572311 8.5721245
3.9393454 0.75955653 1.8303653 8.0979996
4.200284 0.68735957 1.7413971 7.5
4.4094763 0.64883715 1.6208655 7
-1.2841202 1.0010527 1.729314 16.756506
-1.1774684 1.0356411 1.9443674 16.456333
2.7670183 1.0398537 1.9897318 12
2.9588218 1.0879453 1.9408472 12.175799
3.938333 1.1136926 1.8426549 11
4.1750097 0.98549116 1.7467759 9.3999996
4.4276996 1.023589 1.6185665 9.6000004
-1.2568662 1.3153869 1.697849 20.893452
-1.1766143 1.2424529 1.8929974 19.279751
2.6948774 1.2914778 1.9920245 14.5
2.9451191 1.3880155 1.9501559 14.695223
3.507194 1.4195105 1.9284674 14.0965
3.8647885 1.3924489 1.8681295 12.74875
4.0951262 1.4122882 1.7685621 12.333333
4.4225702 1.5337064 1.6108279 13.1
2.8367443 1.7736413 1.9898882 18.094
3.5288985 1.8828827 1.9724756 16.763
3.8324566 1.7917035 1.8633051 15.5
4.1361389 1.749473 1.7020359 14.8
2.6881092 2.3670435 1.8816392 23.094
2.9282842 2.3865209 1.7754664 22.845501
3.5802815 2.3806422 1.864866 20.097
3.8131056 2.2854624 1.7465429 19.009947
4.7755995 2.2497303 1.6169755 16.1005
2.9688318 2.4094489 1.7127471 22.429335
3.353312 2.4127588 1.8002862 21.34675
-1.211755 0.27597302 2.0092404 6
-1.0250899 0.18516545 2.170166 4.9166665
1.8062444 0.19681399 2.2647567 4.5555553
2.239013 0.17220618 2.2676902 3.8181818
2.5649452 0.2090622 2.1636648 4.1875
2.8226445 0.22103783 2.0153646 4.5
-1.2087331 0.46398902 2.0215964 8.5
-1.0947789 0.49893951 2.2436814 9.0693998
1.8103176 0.66584426 2.3413968 9.8029346
2.1609926 0.66134274 2.3075759 8.9333887
2.5839524 0.59476346 2.1518435 8.1333332
2.8117106 0.54649478 2.0115616 7.5
-1.1420999 1.031064 2.0437326 16.280251
1.8335752 0.86247522 2.3803973 11.889501
2.2205701 1.0126585 2.294605 12.444445
2.560348 1.0130044 2.1224597 12.166667
-1.1543505 1.2575998 2.0156677 19.059999
-0.76499754 1.5986091 2.1001306 23.063999
1.8496974 1.3355105 2.3910031 16
2.3015423 1.4252657 2.2007387 16.504944
2.544621 1.3550516 2.068994 15.5
-1.2946179 1.9143755 2.2523131 23.059999
1.8671944 1.7398551 2.3314624 19.84375
2.1789923 1.8052518 2.1751769 19.934284
2.6101689 1.828392 2.0357792 18.892799
3.0167086 1.9461721 2.0211387 19.0945
1.5834873 2.0512192 2.3764889 23
1.7223028 2.0499821 2.3017356 22.689751
2.1989453 2.2430589 2.138623 22.817999
2.5470967 2.3370569 2.0748644 22.592312
3.1076531 2.3298106 2.07951 21.0945
3.2577105 2.4348595 2.0254755 21.095249
0.0038026951 0.019889582 2.4653783 3
1.7399203 0.99475491 2.4689419 13.002034
-1.2225645 1.5934719 2.5516424 19.06175
-1.1325158 1.4075439 2.7908165 17
1.7016366 1.4198115 2.4941018 16.799875
-1.2145061 1.8168832 2.5830185 21.152445
-1.1462134 1.7975985 2.7082729 20.55382
1.5959592 1.9353883 2.4334373 21.5
1.7236009 1.7173519 2.425339 19.75
-1.2208973 2.0221646 2.4850712 23.030624
-1.1282691 2.0766306 2.6311147 22.963665
1.5084051 2.2952294 2.7050953 23.083626
1.6321384 2.3147852 2.6903722 23.084499
-1.086095 0.72524464 3.0876117 9.4513998
-1.1056608 1.0351135 2.9416454 12.833833
1.7053123 0.991359 2.9439797 12.084
-1.0230389 1.349413 3.0422716 15.538462
-0.97036791 1.8154099 3.0090554 19.377312
-0.90790981 2.1006374 3.0240269 21.81525
-0.60323477 2.2635705 3.0426571 23.067499
0.13012074 2.2833822 3.1184723 23.072916
0.64050961 2.298167 3.0368671 23.07675
1.4640518 2.29529 2.9666798 22.0825
1.664331 2.3173685 2.9647722 22.08375
-0.91926527 0.29854724 3.3860457 5
-0.97676867 0.69128913 3.2763889 8.8433332
1.8451116 0.69020784 3.5535212 8.0830002
-0.91577142 1.0159878 3.2839596 12
1.8505902 0.97730243 3.5439091 10.583
-0.88750958 1.3927838 3.2929163 15.283
1.8518268 1.335978 3.3791447 13.0835
-0.88086128 1.6154727 3.2730701 17.066
-0.49964368 2.3552766 3.5242872 21.81875
-0.19060947 2.3221569 3.335511 22.403999
0.04151985 2.334331 3.5271244 22.07225
1.1713998 2.3430023 3.4240363 21.0795
1.4821084 2.360903 3.4710896 21.081249
1.7351078 2.3546765 3.4449921 20.416
-0.81579036 2.3830309 3.6656721 21.066999
-0.6210447 2.371479 3.8640192 20.235001
-0.21039049 2.3665748 3.735733 21.0707
0.089544818 2.3917882 3.6560185 21.0725
0.47591466 2.3784065 3.9574504 20.074749
1.054159 2.3456137 3.8266928 20.078142
1.412571 2.327014 3.8036084 19.413473
1.7972423 2.2845623 3.7537949 19.082209
2.1478086 2.2494969 3.9131699 18.0835
-0.73286772 0.69330835 4.1250267 8.0679998
1.9934709 1.582242 4.0650182 13
-0.62983763 1.8527918 4.2861276 15.955
-0.32484344 1.8055304 4.2411985 15.57025
1.5723479 1.6763406 4.2952867 14.08
1.8191653 1.6894298 4.1795211 14.317666
-0.61035138 2.2832551 4.2325492 18.558929
-0.23087046 2.2679238 4.2908049 18.320751
0.20495099 2.2806213 4.2182174 18.850861
0.5988993 2.2844903 4.1686363 18.816887
0.95592225 2.261452 4.145175 18.505751
1.3245481 2.2247291 4.1869988 17.829
1.8085496 2.1970832 4.2368941 17.081249
2.0880167 2.258074 4.0146399 18.083
-0.19866703 2.200973 4.5436449 17.071001
0.16108374 2.1946599 4.5059633 17.322811
0.74748814 2.2733362 4.7972593 17.0755
0.90090817 2.2380717 4.5375147 17.0765
1.4418739 2.1596053 4.5685143 16.412333
1.6757985 2.1270671 4.6143866 16.08
-0.56946629 1.2214247 5.1792455 10.0695
-0.55605036 2.0064971 5.0522485 15.0695
0.19743845 2.2487898 4.9697065 16.322876
0.64850885 2.2096868 5.0939283 15.874899
0.99663734 2.2171245 5.0060472 16.076502
1.2030232 2.2196019 4.9188743 16.077499
1.9062362 2.1723084 5.0676928 15.08025
-0.47284779 0.99680614 5.4060974 8.0699997
-0.3534112 1.618377 5.557992 12.0705
-0.20051543 2.170089 5.4349213 15.071167
0.19456498 2.1987505 5.3361335 15.239499
0.61169386 2.1798656 5.526371 14.741166
1.0478612 2.1908088 5.2540183 15.0765
1.3828242 2.1302433 5.434516 14.477701
1.7392985 2.1067731 5.2400837 14.412666
-0.36259145 1.1263864 5.7224903 9.0705004
-0.57472819 2.2005644 5.8324723 14.06975
-0.12658232 2.145371 5.8807111 14.0715
0.25815293 2.1387341 5.8709254 14.073001
0.57115376 2.154294 5.7685585 14.07425
1.0157007 2.1589115 5.6994605 14.076
0.99337143 2.1049621 6.0313883 13.07575
1.3467101 2.1086595 6.0688324 13.077
1.7552254 2.115274 6.1184235 12.828375
2.2297003 2.0992413 6.125339 12.83
0.22439572 2.0798163 6.7607737 12.07275
0.64553952 2.03022 6.5777693 12.07425
1.0170034 2.0478113 6.6272531 12.408834
1.3784754 2.0319967 6.555346 12.07675
1.7561495 2.1094887 6.5083857 12.078
2.1634831 2.0939977 6.6063375 12.07925
-0.0011849231 0.38996643 7.0055809 4
-0.00098782778 2.0583229 6.8261662 12.072
0.93836242 2.0399222 7.0884342 12.075
1.8894854 2.0219545 7.0555086 11.078
2.1493759 2.0235145 7.0941334 11.078751
2.5908716 2.0690362 7.1672211 11.08
-0.0015587783 1.1569211 7.3458996 8.0719995
-0.0015317225 1.4536381 7.3212709 9.0719995
-0.0015008613 1.8525603 7.2931776 11.072
1.5110998 1.9924258 7.5888629 11.0765
0.64787745 2.0357904 7.4180532 11.074
1.7446063 2.0187368 7.4409752 11.07725
0.34046406 2.0280273 7.6956549 11.073
0.99520773 1.9669039 8.2382946 10.07475
2.2899961 1.9622397 8.2207546 10.07825
2.5413609 1.9726505 8.0675697 10.079
0.3667123 2.0327673 8.298296 10.073
0.5638873 1.9542611 8.6997185 10.0735
1.5432594 1.953602 8.7452736 10.076
1.7976308 1.9546955 8.5831509 10.07675
2.0571542 1.9617189 8.4091091 10.0775
2.952384 1.9005936 8.6978159 9.0795002
1.0697274 1.9327829 8.9565697 9.0747499
1.3812921 1.9659373 8.899889 9.0754995
2.6210406 1.8886648 8.9755678 9.0784998
0.58460778 1.9207882 9.229394 9.0734997
0.81788301 1.9129122 9.3985853 9.0740004
1.7547271 1.8754423 9.2898521 9.0762501
2.1630387 1.8764615 9.2906189 9.0772495
1.9916151 1.8589249 9.9502783 8.0764999
3.0701864 1.8722881 9.7043524 8.0790005
0.90205956 1.8117664 10.352242 8.0740004
1.5732177 1.7927409 10.306074 8.0754995
1.7728307 1.8854365 10.005224 8.0760002
2.2647099 1.8772146 10.141479 8.0769997
2.4451733 1.8521003 10.047688 8.0775003
3.0073957 1.84808 10.279141 8.0784998
1.1748465 1.7739856 10.763375 8.0745001
1.4015378 1.7815737 10.517588 8.0749998
2.8840315 1.8119432 10.744636 8.0780001
