# .PCD v0.7 - Point Cloud Data file format
VERSION 0.7
FIELDS x y z intensity
SIZE 4 4 4 4
TYPE F F F F
COUNT 1 1 1 1
WIDTH 151
HEIGHT 1
VIEWPOINT 0 0 0 1 0 0 0
POINTS 151
DATA ascii
-1.6867632 1.5100899 -2.7385399 17
-1.717779 0.58311051 -2.4031789 9
-1.6713893 1.4998484 -2.4565318 18
-1.7031913 0.55055374 -2.3908498 8
-1.6867636 1.351841 -2.3416507 16.5
-1.6673868 1.5838406 -2.3262827 19
-1.6993767 0.29938564 -2.0783381 6
-1.7266983 1.1863635 -2.0295558 16
-1.7120323 1.3027647 -2.0702717 17.25
-1.7035334 0.5076949 -1.8547126 9
-1.7004621 1.4390967 -1.9908695 19
-1.7059606 0.33889389 -1.7330221 7
-1.7219875 0.54062235 -1.6230761 9.5
-1.6983453 0.63473386 -1.7398611 11
-1.7260722 0.86167413 -1.6594106 14
-1.7048192 1.0627794 -1.6811807 16
-1.6991963 1.2933173 -1.6721121 18.5
-1.7100197 1.1805501 -1.5889126 18
-1.6913266 1.3774011 -1.5498408 20
-1.67906 1.413353 -1.5229757 21
-1.6690661 0.28588867 -1.2198651 7
-1.6938705 0.59720558 -1.2435387 11
-1.6928862 0.70419008 -1.2457497 13
-1.7157314 0.88983947 -1.3109454 15
-1.7032131 1.080677 -1.3482599 18
-1.6760919 0.30166596 -1.1362133 7
-1.6839491 0.45264831 -1.1441118 10
-1.6734357 1.349268 -1.1294529 21.5
-1.7135218 0.12909417 -0.94102204 4.5
-1.7207916 0.20777149 -0.98459607 6
-1.753472 0.51987684 -0.90496016 11
-1.6828672 0.67912149 -0.95289928 13.5
-1.7140446 0.89656669 -0.94155115 16.5
-1.6918632 1.0950412 -0.95191938 19.5
-1.6887596 1.2522594 -0.90315121 21.5
-1.7845172 0.15403041 -0.6375894 5
-1.7646663 0.54599488 -0.70466805 11.5
-1.7959067 0.72562516 -0.61129749 14
-1.7574958 0.87344998 -0.67479229 16.666666
-1.7545146 1.126598 -0.72334141 20
-1.7332703 1.2377369 -0.64780408 22
-1.7179571 0.083851427 -0.44855645 4
-1.6953453 0.35563952 -0.53393054 9
-1.6584903 0.42402762 -0.49218312 10
0.94570541 0.52661425 -0.41669703 18
-1.7363361 0.70951921 -0.50121206 14.666667
-1.7307341 0.86548895 -0.42242467 17
0.91285133 0.36953574 -0.24117377 15
-1.6834251 0.49820673 -0.33741134 11.5
-1.67672 0.71600366 -0.26849261 16
0.9161604 0.62839764 -0.24921742 22
-1.7107211 0.88784003 -0.20712948 18
-1.7126322 1.0622187 -0.32586765 20.5
-1.6793377 0.12953848 -0.082581274 5
0.92051011 0.39465347 -0.13460393 16
0.90632653 0.51459163 -0.13314319 19.333334
-1.6722665 0.64066452 -0.07845059 14.5
0.9190079 0.61063844 -0.092452809 21.666666
-1.7037578 1.129395 -0.12560539 22
-1.6911064 -0.0061281323 0.094726481 2
0.92757565 0.38946062 0.11441183 15.5
0.91195089 0.55854958 0.089119948 20.666666
-1.7242415 0.92095357 0.13743307 18
-1.6797833 1.0305083 0.02130929 21
-1.7197728 0.15459231 0.34159917 5.5
-1.6648465 0.33880138 0.2568453 9
0.90479368 0.31849307 0.38885331 12.5
-1.6730783 0.50788724 0.2840887 12
0.90761524 0.56283367 0.35625008 20
-1.7077054 0.92487442 0.34173703 18.5
-1.7032802 1.0436916 0.38554183 20
-1.703114 0.11589915 0.4943575 5
-1.6854993 0.25382328 0.57636994 7
0.90809023 0.29320568 0.48614112 11.5
-1.684774 0.57200766 0.41134107 13
0.92330337 0.50126374 0.49175677 17.1
-1.7096385 1.1595261 0.45000878 21.5
-1.6871215 0.37970352 0.7500366 9
0.92110157 0.34232128 0.70382214 12
0.91715735 0.48376375 0.65731966 15.75
-1.7168911 0.75111437 0.74035233 15
0.90817791 0.63232368 0.61832583 19.5
-1.7091143 0.91966283 0.68100268 17.5
-1.7058631 1.0812476 0.67313874 20.25
-1.7038147 1.2259065 0.61668277 22
0.90811872 0.30753005 0.83629251 10
0.90752584 0.41435462 0.83908081 13
-2.3770471 0.17233241 3.9707174 4
-1.8703866 0.02585271 3.9376764 3
-5.3279438 0.50887299 3.9501526 5
-2.6765802 0.42080125 3.9796455 5
-2.2437472 0.57592058 3.9946809 6
-1.8404561 0.50858331 3.9506352 6
-5.9998956 0.71951318 3.9514277 6
-4.7537551 0.60822934 3.9699714 6
-4.5488801 0.63189852 3.9851882 6
-3.7335885 0.66884637 3.983557 6.5
-3.3993771 0.71408415 3.9973385 7
-1.9122045 0.62478334 3.9768729 7
-5.3525333 0.91414881 3.9773827 6.5
-4.4966922 0.80603051 3.9818192 7
-4.0460396 0.88631165 3.9084861 8
-3.6355915 0.90877676 3.9148319 8
-3.3472016 0.9237231 3.9184132 8
-6.0465794 1.1458287 3.9778426 8
-5.323205 1.0958641 3.9500108 8
-4.691215 1.1396683 3.9632049 8.5
-4.4979296 1.1234124 3.9390812 8
-3.8379352 1.1633906 3.9527113 9
-2.3617613 1.0658782 3.9355857 9.5
-3.9820769 1.3276763 3.8862975 10
-3.4470143 1.3333656 3.9477465 11
-2.8719094 1.2004445 3.9338059 10
-2.6266787 1.2129557 3.9698889 11
-2.3708308 1.2224408 3.9388962 11
-4.4944835 1.494458 3.9093161 10
-3.0826359 2.2071691 3.9160218 16
-6.352716 2.6394489 3.944144 14
-3.0383174 2.6727605 3.9726002 19
-2.7025404 0.27133918 4.0446167 4
-1.9077848 0.26823795 4.005981 4
-3.4161799 0.56933618 4.0038333 6
-2.5699279 0.52309525 4.004374 6
-1.9176491 0.40776467 4.0255318 5
-2.6932397 0.75854313 4.0115285 7.5
-2.4124951 0.78842294 4.0176506 8
-2.8824162 0.93151921 4.0293241 8.5
-3.2373834 1.0272171 4.0045834 9
-3.4456429 1.2788634 4.0105586 10
-5.8694811 1.6489685 4.0025377 10
-2.922617 1.6518857 4.0759192 13
-5.0284414 1.9487627 4.0373816 12
-3.9577351 1.8683999 4.0436616 13
-3.5010507 1.8415396 4.0400038 13
-3.3730175 1.8617556 4.0344648 14
-2.6481721 1.8640947 4.0838189 14
-5.8807049 2.0761375 4.020247 11.5
-3.3223391 2.0257139 4.0488234 15
-2.6428213 2.010637 4.069304 15
-2.2539635 2.1871848 4.1101718 17
-5.1192722 2.3827891 4.0326381 14
-4.2498689 2.2693305 4.0448451 14.5
-2.9127231 2.377115 4.1564975 17
-2.2198381 2.3204243 4.0608034 18
-5.6733627 2.4210186 4.0207973 13
-3.0560513 2.5110173 4.0760884 17
-2.9193058 2.470176 4.0525198 18
-5.1199822 2.6648664 4.0090165 15
-2.3309016 2.6445928 4.0117145 19
-2.1681824 2.6617162 4.0498605 20
0.48373073 0.062953353 15.179471 2
