# .PCD v0.7 - Point Cloud Data file format
VERSION 0.7
FIELDS x y z intensity
SIZE 4 4 4 4
TYPE F F F F
COUNT 1 1 1 1
WIDTH 427
HEIGHT 1
VIEWPOINT 0 0 0 1 0 0 0
POINTS 427
DATA ascii
-1.3936464 2.8764753 -4.4072695 21.007
-1.6675841 2.8715007 -4.1107469 21.342169
-1.4244609 2.8831608 -4.1804385 21.5075
-1.6894335 2.6111288 -3.7092962 21.00975
-1.1116477 2.9116261 -3.9719763 22.50625
-1.7045581 1.2747418 -3.3615797 13.01075
-1.7090085 2.2982445 -3.3755004 20.01075
-1.6872386 2.4596448 -3.3145354 21.51075
-1.702376 0.74567276 -2.9480145 9.6786661
-1.7077264 1.0273776 -2.918191 12.262125
-1.7116703 1.3792412 -3.0379894 15.011749
-1.6930845 1.609194 -2.9352715 17.011999
-1.6914723 2.2444482 -2.9347024 21.512001
-1.6797107 2.4689753 -3.0602598 22.511499
-1.7116196 0.59886789 -2.5090649 8.8191252
-1.7068312 1.0218132 -2.5266867 13.346917
-1.680789 1.4771298 -2.5797083 17.203312
-1.6846787 1.9525656 -2.600199 21.013166
-1.6989467 2.1026011 -2.5723939 22.263374
-1.6941046 0.28171983 -2.0844138 5.75
-1.7031456 0.56930804 -2.2630847 8.7273331
-1.7202443 1.1140496 -2.0982568 15.052643
-1.6894433 1.412668 -2.2292981 17.677999
-1.6885959 1.7666966 -2.1648076 21.390188
-1.6812805 2.0305653 -2.2916038 23.0145
-1.6992412 0.32495731 -1.7401743 6.8000002
1.0113403 0.35390091 -1.6684611 8.1315002
-1.707155 0.5733304 -1.7437214 9.9829197
1.1097182 0.56794274 -1.7416017 11.330999
1.2941236 0.70489454 -1.8126022 12.62975
-1.7102531 1.0048454 -1.7193594 15.272072
1.3735286 1.1528769 -1.7133625 18.1285
-1.7024282 1.3286216 -1.7907503 18.535515
1.1814666 1.5487039 -1.8172837 23.130751
1.2343366 1.5836444 -1.757484 23.129999
-1.6814739 1.7190413 -1.8075023 22.572723
-1.6809793 0.32773736 -1.2739892 7.6178894
1.0375676 0.32446569 -1.3690329 8.8433571
-1.6994796 0.64299387 -1.3184285 11.888015
1.0722315 0.5996092 -1.4003625 13.316468
-1.7082056 1.0385467 -1.4152582 16.8818
1.0695162 0.97712958 -1.3710564 19.485929
-1.6874568 1.3761983 -1.4599383 20.557514
1.0910887 1.2554901 -1.4542127 22.557785
-1.6655633 1.6329174 -1.4538788 23.019501
-1.7035418 0.24621573 -1.0210781 6.3955693
1.0054392 0.30994108 -0.98293418 9.8948841
-1.7109028 0.57505649 -0.99840689 11.769762
1.0255374 0.59684747 -0.98848063 15.539276
-1.7093207 1.0084101 -0.9617486 18.027744
1.0432844 0.92638791 -0.99842978 21.301882
-1.6821337 1.2955366 -1.0022981 21.55603
-1.7240816 0.23098841 -0.54736501 6.588614
-1.1064469 0.059222907 -0.43105069 4
0.92486113 0.30263931 -0.5635469 11.353765
-1.7419672 0.60770845 -0.57654959 12.71801
0.93361276 0.5558722 -0.46114668 18.529661
-1.7497286 0.97605169 -0.60905045 18.208651
1.0248121 0.87154996 -0.74539375 22.5224
-1.7223829 1.2504383 -0.63419652 22.080162
-1.6915509 0.22739889 -0.15957597 6.7681293
-1.2599772 0.047938824 -0.19504528 4
-1.0676318 0.057397008 -0.15378439 4
0.91889656 0.36883396 -0.20335841 14.972963
-1.6932539 0.61570197 -0.22075716 13.774648
0.91819799 0.57357144 -0.17616412 20.513042
-1.7216564 1.008564 -0.21427445 19.750706
-1.7346842 1.2663972 -0.32163009 22.831799
-1.6811268 -0.0060064346 0.097408801 2
-1.6972286 0.2637459 0.24507934 7.4987693
-1.3512292 0.016261339 0.089860931 3
-1.0331146 0.04131509 0.22730531 3.6666667
0.91991723 0.35191154 0.25482708 13.971466
-1.6996326 0.54932654 0.23053046 12.544408
0.91872311 0.54076397 0.21868514 19.51726
-1.7117233 0.9869501 0.21829869 19.429968
-1.7391826 1.2517012 0.27000797 22.595055
-1.6717323 -0.0016894341 0.56932205 2
-1.6923403 0.26385373 0.57983911 7.2585325
-1.3513047 0.022460639 0.70570523 3
-0.92111635 0.029127717 0.66755688 3.5
0.91447055 0.30779886 0.5904417 11.514145
-1.7026482 0.6324479 0.5804159 13.510845
-1.5242097 0.55200738 0.55941617 13.044
0.91900331 0.5405125 0.57991141 17.48843
-1.7134135 1.0353789 0.58970547 19.491978
0.95997643 0.86062884 0.72280991 22.759834
-1.7022597 1.2537688 0.60855323 22.287317
-1.1442753 -0.00036618114 0.88120115 2
-0.69852906 -0.0065980554 1.1763026 2
-1.7737095 0.39130676 0.87480611 9.0465002
-1.3972704 0.012213103 0.98742056 2.5
-1.0632437 0.0060461126 1.0474536 2.5
0.90961671 0.31882665 0.8769961 10.234962
0.9066897 0.46572718 0.88483733 13.967197
-1.6889817 1.0707166 0.81856096 19.379667
0.9317295 0.91535056 0.99352962 21.931448
-0.94630218 -0.014259472 1.3108954 2
-0.16542928 -0.020479664 1.5176111 2
-1.533482 0.0057455599 1.4025514 2
0.93674308 0.3570556 1.4046159 9.4188337
0.93297309 0.61801898 1.3937049 14.0189
0.95586514 0.99331778 1.4065599 19.898186
0.99131542 1.2401078 1.5160849 22.585251
-0.99252129 -0.023173928 1.6330583 2
0.96764779 0.3428072 1.7609183 8.0834999
0.95218641 0.60877281 1.7271974 12.194667
0.93713242 1.0511626 1.7499378 18.333292
0.96408117 1.3512998 1.8370527 21.333126
-3.8850317 2.7507756 1.8815676 21.046333
-3.2583008 2.7824795 1.9373037 23.04825
-0.49141702 -0.025736272 2.0028439 2
0.95824152 0.9740321 2.1813285 15.081501
0.93359059 1.3366939 2.1562834 19.50993
-4.8564019 2.7348602 2.0156593 18.045
-4.6106138 2.7153072 2.1930921 18.379499
-3.6734827 2.7425461 2.1611881 21.048166
-3.3512938 2.7416646 2.2442992 22.216166
-0.79264104 -0.063860774 2.7127521 2
3.092282e-11 -0.044848084 2.622355 2
0.95082271 0.89615947 2.6156592 12.413333
-5.6487041 2.6940353 2.7100599 16.046249
-5.0576682 2.739171 2.5675497 17.046749
-4.602891 2.6718988 2.7322643 18.04825
-4.2993464 2.7601769 2.5492959 19.04825
-3.8105979 2.7067232 2.7306054 19.800251
-3.3840127 2.7366579 2.5257878 21.050667
-2.9755731 2.7316763 2.5644398 22.337999
-2.5815434 2.7326438 2.7063487 23.054501
5.2273572e-07 -0.082920134 2.9893148 1
0.84999079 0.62555259 3.0498643 8.5782499
0.90325773 0.8995676 3.000603 11.745334
-6.5587726 2.7052193 3.0572858 14.046
-6.252573 2.6610017 3.0888472 14.046499
-5.7132688 2.6910477 3.0610764 15.04725
-5.3674417 2.6660175 2.9426568 16.047501
-5.0132108 2.6763685 2.986532 16.848301
-4.4683323 2.6876531 2.8589008 18.049
-4.1712093 2.6674836 2.9914458 18.050251
-3.8913076 2.6601913 3.1297088 19.0515
-3.3679774 2.7009709 2.9595988 20.219166
-3.0200458 2.6971443 3.0928636 21.054251
-2.209511 2.7405269 3.0295446 23.057501
-1.9791162 2.7238431 3.110534 23.059
0.7877304 0.68740678 3.2037032 9.0775003
-5.5478754 1.0559053 3.5499473 8.0489998
0.78539056 0.86647511 3.2035277 11.0775
0.91548556 1.0207291 3.4029875 12.078
-6.5561409 2.6181962 3.5116866 13.54725
-5.7887297 2.6914885 3.4356341 15.04825
-5.4244246 2.6531057 3.5380478 15.04925
-5.0976357 2.6904323 3.4204147 16.0495
-4.5900497 2.6736405 3.378089 17.050501
-4.1520243 2.6731529 3.5212944 17.452099
-3.6930828 2.6648042 3.3429916 18.7195
-3.4008489 2.6549544 3.3353837 19.053749
-2.9732974 2.6629345 3.4199097 20.055582
-2.5859547 2.6991615 3.3439262 20.856899
-2.0924745 2.7008855 3.3802931 22.05925
-1.8947467 2.7206197 3.4201667 22.310375
-1.489924 2.712064 3.3950198 23.0625
-1.0254946 2.7189038 3.5395911 23.0655
-0.4721756 2.6852419 3.5689788 23.069
0.31472364 2.6721897 3.5838253 23.073999
0.7960124 2.7074661 3.5728645 23.077
-5.0551171 2.8142951 3.3942192 17.0495
-1.8929011 -0.11083445 3.9389431 2
-6.8261571 0.39670393 3.9586117 4
-5.8157868 0.1926915 3.8015528 3
-4.9686227 0.24023776 3.8081696 4
-4.6331677 0.17648232 3.9891465 3
-3.8822851 0.020364746 3.9704568 2.5
-3.3946772 0.17861307 3.8329699 3.25
-3.0806386 0.12310724 3.9329166 3
-2.4637284 0.22760244 3.8820498 4
-2.2952573 0.14259666 3.9291432 3.6428571
-1.8559077 0.054071151 3.8697343 3
-5.9797001 0.7135675 3.9619293 6
-5.4410105 0.53230518 3.8387251 5
-4.9765034 0.61462069 3.9683251 5.5
-4.6411185 0.64162952 3.977977 6
-4.1596332 0.60416174 3.9842074 6
-3.7227669 0.66447616 3.9846492 6.5
-3.4652455 0.67282069 3.9939623 6.666667
-2.6048846 0.5126431 3.9828863 5.833333
-2.1427326 0.59975737 3.9381039 6.798111
-1.8538713 0.58675367 3.9260077 6.7655001
-8.4875698 1.0602627 3.9810855 6
-6.6090531 0.93715292 3.9614275 6.5
-6.0655828 1.0378555 3.9772599 7.5
-5.776804 1.0935574 3.9475329 7.7750001
-5.3426704 1.0191181 3.961036 7.3876247
-4.9903088 1.051466 3.9742341 7.6257501
-4.5621238 1.0447229 3.8976166 8.1103001
-4.0863018 0.97614783 3.9209025 8.3510828
-3.7862988 1.04883 3.9121027 8.6384583
-3.3648529 0.99721581 3.9125357 8.5741806
-2.990736 0.95096159 3.9554505 8.5282497
-2.6360111 1.0586485 3.9417429 9.5958338
-2.2849534 1.0420823 3.899868 9.5534668
-1.8366041 0.92603701 3.8214517 9.6617002
-6.8399549 1.3030093 3.9488356 8.0480003
-6.5400367 1.2481805 3.9559004 8.02425
-5.9405894 1.5773976 3.7837567 10.049
-5.3695765 1.5396826 3.7647655 10.05
-5.0208411 1.5176765 3.7744601 10.05075
-4.5410657 1.4574327 3.8777542 10.183917
-4.2060337 1.519419 3.7764406 11.05275
-3.8759921 1.3615268 3.8735349 10.406834
-3.4697411 1.374127 3.8912289 11.184916
-2.9714377 1.3018638 3.8740308 10.802124
-2.6054809 1.2826196 3.9021809 11.436042
-2.2806349 1.2990255 3.8844092 11.601464
-1.8082416 1.3972723 3.825834 13.061857
-8.341773 1.7205002 3.899205 8.0459995
-6.8436861 1.6231692 3.772372 9.0474997
-6.5210233 1.6049559 3.7854123 9.0480003
-5.955236 1.7818758 3.6337607 11.0485
-5.4826217 1.6227338 3.6509254 10.0495
-4.9929452 1.7676692 3.8992603 11.3845
-4.6697335 1.7967167 3.9181771 12.052
-4.2118163 1.9182265 3.942863 13.05325
-3.8600581 1.7490281 3.949991 12.55425
-2.0165212 1.9868283 3.8722703 16.061001
-1.7938739 1.9206604 3.8544247 16.062
-7.401423 2.2093239 3.966933 11.04725
-6.4123111 2.2590413 3.9044697 12.0485
-6.0786524 2.1296387 3.88974 12.049
-5.7800694 2.1351695 3.9107633 12.52475
-5.0376902 2.2924252 3.9568415 14.025499
-4.6943283 2.141674 3.9544003 13.052
-3.8742359 2.3907304 3.9017487 16.027
-3.4234295 2.2829671 3.9081771 16.0555
-3.0022767 2.1862261 3.9034097 16.019083
-2.6037335 2.1018131 3.8978825 16.0585
-2.2290313 2.0247834 3.8763719 16.059999
-7.6573024 2.6179349 3.9893429 12.047
-6.9078622 2.6723669 3.7856019 13.0475
-6.5140052 2.6357005 3.8592446 13.04825
-6.2707982 2.5805795 3.91049 13.682918
-5.7231855 2.6140504 3.8796983 14.024625
-5.374002 2.5780616 3.8116467 14.525
-5.0261302 2.6707537 3.8233473 15.6509
-4.537436 2.564719 3.9043534 16.05225
-4.1659179 2.468236 3.9132442 16.026625
-3.83532 2.568105 3.8141689 17.241142
-3.3265657 2.6525919 3.800745 18.3055
-3.0316083 2.6709442 3.9154034 18.907667
-2.5810084 2.6603255 3.838268 19.529251
-2.1765931 2.6572032 3.7028995 20.859798
-1.7974592 2.6655192 3.7594242 21.06175
-1.4345921 2.6636298 3.8218002 21.563749
-0.99058402 2.6756713 3.7805929 22.288334
-0.6336773 2.6818199 3.8137586 22.468201
-0.20365137 2.6856225 3.8061228 22.570751
0.15655275 2.6745036 3.811708 22.644358
0.57904941 2.687108 3.8218436 22.575438
0.88802868 2.6939704 3.6068656 23.077499
-1.4915321 -0.11250097 4.1220136 2
-4.4289899 0.1970998 4.0603166 3
-3.4174504 0.35116422 4.0109696 5
-2.6206417 0.28555238 4.0430856 4.166667
-2.2185972 0.28441739 4.0192661 4.5
-1.9077848 0.26823795 4.005981 4
-4.1237869 0.66181195 4.0104604 6
-3.6842825 0.64243037 4.0074139 6.3333335
-3.4828873 0.61214995 4.0084453 6.25
-2.8549762 0.75088263 4.0112667 7
-2.5945034 0.69159079 4.0141592 7.2450333
-2.2033715 0.58598816 4.0090294 6.5
-1.9264127 0.40602246 4.0274267 5
-4.8371387 0.87634391 4.0037608 7
-3.2929492 1.0419141 4.0125904 9
-2.9424894 0.9490878 4.0279789 8.625
-2.7632065 0.90425617 4.0275846 8
-2.2658365 0.80384713 4.0392189 8.0602503
-1.8150626 0.85002226 4.1384578 8.729167
-4.729825 1.3916702 4.0123615 10.026
-4.3743262 1.3125788 4.0079651 10.053
-3.7688344 1.2493982 4.0146685 10
-3.403209 1.2820357 4.0144696 10
-2.5719249 1.4989626 4.0434895 12.029625
-2.2171617 1.3525795 4.0521855 12.0605
-1.8826208 1.2668533 4.0518017 11.395333
-6.9442806 1.870563 4.0238047 10.048
-6.404541 1.763098 4.0178099 10
-5.8127079 1.7618006 4.0130868 10.5
-5.4490728 1.9693267 4.0146046 12.0505
-5.0635657 1.9486659 4.0344977 12
-4.4993358 1.904213 4.031189 12.05275
-3.8810778 1.8640126 4.0428352 13
-3.4412673 1.8596619 4.0410528 13.488875
-2.9288385 1.7617744 4.0690179 13.552667
-2.6289761 1.827167 4.0707588 14.075222
-2.1690502 1.8860915 4.0714087 15.06075
-1.6825483 1.9684079 4.0884571 16.063
-6.9119744 2.2415195 4.0148425 11.048
-6.4370914 2.0585797 4.0221276 11
-6.3767104 2.1856663 4.0089536 12
-5.8577824 2.0861201 4.0210695 11.583334
-5.0128789 2.3267167 4.0378494 13.850667
-4.4933276 2.1988521 4.0335503 14.05275
-4.14539 2.2482517 4.0502462 14.518001
-3.8120365 2.1660867 4.0481257 14.5
-3.4029591 2.139621 4.049933 15.08525
-2.9566243 2.1776416 4.0997357 15.908055
-2.5964706 2.16625 4.0720115 16.241943
-2.2595649 2.253618 4.0808582 17.490175
-1.8563613 2.1906846 4.0348105 17.6621
-5.6981759 2.4496505 4.0347848 13.183333
-5.4811311 2.5300868 4.0231576 14.0505
-5.0538945 2.6343124 4.0294127 15.01725
-4.6172023 2.4350536 4.0457935 15.0525
-3.7884481 2.6142964 4.0448704 16.55475
-3.4113104 2.5992548 4.0687771 17.056
-2.9791918 2.5156665 4.0620785 17.651844
-2.5904121 2.6214681 4.0305204 18.862957
-2.2116313 2.6208906 4.0456133 19.473541
-1.7845591 2.5982401 4.1203437 19.562584
-1.4194661 2.6553388 4.2415743 20.207428
-1.0181072 2.6548748 4.2412205 20.399916
-0.62909925 2.6712012 4.179502 21.068562
-0.25352457 2.6638646 4.2061195 20.8706
0.21487367 2.6749458 4.1503868 21.216002
0.61101079 2.6598034 4.2600365 20.575251
0.8504582 2.6572094 4.2826715 20.5765
-1.4283584 2.6661022 4.563777 19.065001
-0.82867455 2.6423931 4.7623572 19.068001
-0.57831794 2.6313355 4.7148914 19.069166
-0.19853655 2.6469722 4.6245556 19.570999
0.12048621 2.6233895 4.5316553 19.872601
0.71675718 2.6148453 4.6518726 19.0755
0.88634658 2.6783762 4.6694517 19.07625
0.62906349 1.9751208 5.1442914 14.07475
0.80407894 2.0338292 5.1442719 15.0755
-1.6604804 2.6336784 5.1019702 17.564751
-1.3781028 2.6488421 4.9583402 18.06575
-0.98337448 2.6287849 4.8658504 18.4674
-0.63360143 2.6262574 4.8608675 18.569
-0.22823933 2.6032743 5.1741385 18.070999
0.16001585 2.6125374 5.0030074 18.272701
0.58163327 2.6162548 4.9142799 18.741333
-1.6601672 2.5324461 5.302907 16.065001
-1.4172633 2.5527151 5.3113885 16.732666
-1.0105809 2.6022151 5.4306474 17.067751
-0.64903975 2.6135392 5.3712492 17.06925
0.18260261 2.5878899 5.4850779 17.07275
0.58785546 2.5942881 5.3183756 17.407833
0.83065289 2.6049142 5.3429446 17.0755
-1.7010159 2.5687056 5.8746819 15.0655
-1.4350363 2.5786574 5.8814559 16.0665
-1.0192873 2.5593235 5.8149667 16.068001
-0.63196087 2.5707877 5.7935057 16.0695
-0.2122028 2.5736642 5.6707273 16.321125
0.17853764 2.5799146 5.8454738 16.072668
0.52765608 2.5507939 5.8950901 16.073999
0.94699544 2.5747051 5.731328 16.07575
-1.602916 2.5869017 6.0195436 15.066
-1.4339446 2.5700469 6.2144957 15.06675
-1.0618819 2.5944531 6.0978537 15.068
-0.54116297 2.5524378 6.3418827 15.07
-0.20635204 2.5752506 6.2776475 15.07125
0.14007077 2.555156 6.0750113 15.405833
0.67237407 2.5744398 6.0651674 16.074499
0.61131829 -0.29314965 6.5151305 0
0.90516961 1.1080374 6.7419572 8.0749998
0.96584803 1.4206892 6.6077871 9.4086657
-1.3445265 2.5439358 6.5452871 14.400666
-0.95104754 2.5322406 6.5119629 14.735333
-0.5003823 2.514183 6.6739254 14.07025
0.89208663 2.4501567 6.7784925 14.075
-1.3297352 2.5223279 7.1321259 13.56775
-0.87865627 2.5109432 6.8113766 14.069
-0.62563199 2.498666 7.1768084 13.07
-0.22500129 2.5091801 6.8579578 14.07125
0.15478456 2.476413 6.8582678 14.072499
0.58281666 2.481699 7.0392289 13.573875
-1.6488394 1.8991992 7.5299859 10.067
-1.2862959 2.4986477 7.3731813 13.068
-1.0367535 2.5180097 7.3597746 13.06875
-0.24726042 2.4555941 7.5264649 13.07125
0.16252637 2.4598296 7.3640118 13.072499
-1.4361207 1.9583437 7.6893005 10.56775
-1.5795734 2.5213492 7.9408374 12.0675
-0.85376805 2.4362178 7.922617 12.0695
-0.58134282 2.4602594 7.8381701 12.07025
-1.3425627 2.4393315 8.2078552 12.06825
-1.0448451 2.4332871 8.0199747 12.069
-0.33838171 2.4600623 8.2431211 12.071
0.10154265 2.4585581 8.1492233 12.07225
0.71314943 2.4166734 8.206028 12.074
-1.6886208 2.4500413 8.5311203 11.0675
-1.1405475 2.4610248 8.6386185 11.069
-0.37903374 2.4034731 8.6076984 11.071
0.18463993 2.4395504 8.5903263 11.5725
0.56944096 2.4379163 8.419323 12.0735
-0.58089179 2.391397 9.157465 11.0705
-0.19237779 2.3839262 8.8397436 11.0715
0.61417234 2.3729608 9.1725388 11.0735
0.20616847 2.4272988 9.0357475 11.0725
-1.3244261 2.3734071 9.3163042 10.56875
-0.98721296 2.3567686 9.2399187 11.0695
0.11614338 2.3368473 9.4702015 10.07225
0.64744216 2.3906529 9.5822201 10.0735
-0.80667609 2.433475 9.267828 11.07
0.38663167 2.4080853 9.2112274 11.073
-0.22980005 2.3448064 9.9194221 10.0715
0.41665924 2.3386598 9.6034651 10.073
0.88508534 2.3741553 9.8307495 10.074
-0.54068881 2.3224635 10.14842 10.07075
-1.0291828 2.2790532 10.532999 9.0697498
0.464059 2.2965124 10.719988 9.073
-1.4349566 2.2541649 10.943762 9.0690002
0.73019969 2.226207 11.055414 9.0734997
0.26199883 2.2085013 11.468115 9.0725002
0.0057390165 2.2120948 11.762424 8.5719995
-0.52452642 2.2088234 12.336543 8.0710001
-0.26366648 2.2105908 12.093942 8.0714998
-1.3619149 2.2277215 12.683195 8.0695
-0.81560057 2.1859252 12.572966 8.0705004
0.84257722 2.108551 12.507936 8.0734997
-1.1217771 2.167419 12.851829 8.0699997
0.31694293 2.0723789 13.021165 8.0725002
0.55796766 2.0911949 12.844168 8.073
0.45956114 0.068848193 15.177341 2
-1.3244563 0.447429 15.085963 3
-8.5492502e-11 0.14238492 15.300298 3
