# .PCD v0.7 - Point Cloud Data file format
VERSION 0.7
FIELDS x y z intensity
SIZE 4 4 4 4
TYPE F F F F
COUNT 1 1 1 1
WIDTH 134
HEIGHT 1
VIEWPOINT 0 0 0 1 0 0 0
POINTS 134
DATA ascii
-1.5085001 0.35046589 -2.7040277 6
1.3636043 1.5408287 -2.6553631 17.5
-1.5960088 0.56637812 -2.0086696 11
-1.5686576 1.2136027 -2.1267302 17
-1.6825503 0.57431304 -1.8317034 11
1.1773802 0.41146863 -1.8891256 6.5
-1.5646122 0.71034181 -1.9745753 13
-1.6562531 0.89976126 -1.8116211 16.5
1.1229557 1.1465911 -1.8672626 18
1.0863957 1.2259601 -1.8389249 19
1.1748228 0.20003583 -1.6613479 3
-1.6653687 0.72517467 -1.7041706 14.5
-1.6380389 1.1434925 -1.6508152 17.5
-1.8111286 0.15847135 -1.4320275 8
-1.7995784 0.23943624 -1.4283708 9
-1.6931813 0.5574429 -1.5136144 13.25
-1.7423682 0.70116591 -1.4348787 15
-1.7444263 0.88984346 -1.4459912 17.5
1.1355957 1.1811508 -1.595845 20
-1.6739696 0.27822325 -1.3100297 7.25
-1.5942551 0.44375098 -1.2932174 13.5
-1.7071645 0.70592618 -1.229457 15.5
-1.7309856 0.087858886 -1.0873158 4
-1.8788292 0.21681061 -1.0343603 9
-1.5715225 0.39920127 -1.1320373 13
0.92784476 0.30912107 -1.1071776 7
-1.6958734 0.46619254 -1.0047354 11.5
-1.7184279 0.75250626 -1.1467265 17
-1.7279984 1.0544777 -1.0740335 18
-1.7631133 0.53689861 -0.88662076 13
-1.724225 0.64483452 -0.85816664 15
-1.8156784 0.88850611 -0.82230008 19
-1.7768704 1.0926787 -0.88409549 19
-1.8699194 0.19759493 -0.68761593 6
-1.7519618 0.13121763 -0.79061359 5
-1.8926952 0.34320283 -0.70782793 10.5
-1.7598259 0.30744743 -0.7286945 7.75
-1.697845 0.49617878 -0.74976051 14.5
-1.8682921 0.92996597 -0.6026361 17
-1.8225129 1.0435681 -0.71213251 20
-1.8094752 0.17069036 -0.53350276 5
0.88855374 0.2563805 -0.5907439 6.5
-1.8160208 0.52334434 -0.47702771 13
-1.7873198 0.44527572 -0.45031434 10.5
-1.909821 0.76879776 -0.41640407 17
-1.792586 0.60144329 -0.4736495 15
-1.8753176 0.90136421 -0.47220156 17.75
-1.7989293 0.80200589 -0.47021797 16
-1.880316 1.0027306 -0.5879733 18
-1.8173946 0.19140647 -0.28938952 6
-1.8017652 0.34244946 -0.25103077 8.5
0.87895083 0.23024634 -0.38309819 6
-1.8084152 0.44180971 -0.25859544 10
0.79779518 0.51797152 -0.29629603 19.5
-1.8321093 0.8034482 -0.21891102 16
-1.9539635 1.0337081 -0.23819819 20.5
-1.8994411 0.3060433 -0.084834963 8.5
-2.0145943 0.83409351 -0.065242827 17
-1.9565756 0.97992432 -0.10864701 18.5
-1.9440945 1.0486729 -0.061183058 19
-1.9135371 0.12404752 0.074212477 4.5
-1.8864964 0.29942858 0.12696314 7.6666665
-1.7689222 0.26841539 0.12215548 7
-1.8790165 0.45795929 0.14116624 10
0.79552424 0.67565215 0.19687185 17
-1.7940143 0.80603755 0.09798611 17
-2.0184464 1.1154341 0.023499578 20.5
-1.8644366 1.0407257 0.084958948 19.5
-1.9736224 1.2193543 0.046958417 22
-1.9850923 0.26728505 0.24911436 7.5
-2.014941 0.58184779 0.29513651 15.5
-1.9552977 0.68046725 0.28061056 17
-2.0211372 0.94983888 0.34291872 18
-1.9962316 1.0200305 0.33289614 19
-1.9660202 1.2397624 0.28020903 22
-1.9772717 0.30751202 0.4877744 7.5
-1.9954312 0.48609173 0.58719373 10
-1.9777436 0.74447811 0.45430067 14.75
-1.9209009 1.1274115 0.57684809 20
-2.0010095 0.18830873 0.77599037 8
-1.9412407 0.14959401 0.67683566 5
-1.9605708 0.31579071 0.69359457 7.5
-2.0508056 0.54596353 0.6849544 12
-2.0710082 0.66207546 0.6368593 16
-1.8591355 1.2209098 0.61064714 21
-1.9344318 1.4012444 0.7499752 22
-1.9660599 0.29629272 0.96612871 8.25
-2.0465214 0.49020338 0.89932191 9.5
-2.0224044 0.70615733 0.9563064 15.5
-1.9937257 0.61407632 0.87964165 11
0.74259603 0.92012513 0.95696425 17
-1.9963914 1.1257219 0.91651332 18
0.69336301 1.0362686 0.90889657 19
-1.982841 1.2555637 0.86432779 20
-1.7971188 0.049754024 1.177524 5.25
-2.0444968 0.64431423 1.0144837 14
0.69855338 0.87319165 1.151896 15.25
-2.1151705 0.59655488 1.2579471 10
-2.0742373 0.65265542 1.2424413 12.5
0.5956322 0.77465779 1.3853647 13
0.60770094 0.79836667 1.357481 14
0.59014726 0.94961995 1.3583717 15.5
0.63901639 0.97884756 1.2498603 17
-2.1408758 1.1852005 1.2047539 18
0.64441329 0.1795169 1.5859449 4.5
-2.1502476 0.53344357 1.4221128 9
-2.2496426 1.7315705 1.7306747 20.5
-2.1825328 1.9490573 1.7391808 22
0.44120607 1.1368921 1.830024 20.5
-2.2121117 1.463564 1.9533851 17.5
-2.2046092 1.6008449 1.9457436 19
-2.1886225 1.7954557 1.9370127 20
-2.1638119 1.8303841 1.9016192 21
-2.2051618 0.14052817 2.0132568 4.5
-2.2665303 1.1514928 2.1425548 16
-2.1369543 1.2877589 2.1710854 17.125
-2.1982808 1.5186468 2.0441811 18
-2.1949348 0.38320819 2.3028219 8
-2.2208416 1.0188677 2.2470593 14
0.44328791 0.56744409 2.5569711 8
0.43259913 0.98956525 2.5383315 12
-2.0576437 1.19201 2.4431148 16
0.42357701 1.1220182 2.5281508 13
0.42318016 0.39181733 2.6115966 6
-2.4037204 2.2670386 2.8814189 20
-2.2984872 0.29674327 3.5205951 5.5
-2.3883691 0.48010236 3.4059076 7
-2.3910859 0.71136856 3.4420843 8.5
-2.5154424 0.59791917 3.7516716 7
-1.4407566 2.6274314 4.3050761 20
-0.78352612 2.6660759 4.2410431 20
-0.010325775 2.5007529 4.7318444 17
-0.018997058 2.3822055 4.8112903 16
-3.7233136 1.4214261 10.627152 7
