# .PCD v0.7 - Point Cloud Data file format
VERSION 0.7
FIELDS x y z intensity
SIZE 4 4 4 4
TYPE F F F F
COUNT 1 1 1 1
WIDTH 1146
HEIGHT 1
VIEWPOINT 0 0 0 1 0 0 0
POINTS 1146
DATA ascii
0.90505278 1.0717255 -1.1097231 23.114
-1.9929725 1.1025491 -1.1020933 17.024
-1.7720042 1.1312826 -1.1759747 21.021166
0.94130719 1.1312535 -1.1981435 23.115
1.0001281 1.1445746 -1.1190126 23.127001
1.169248 1.1943902 -1.101995 22.112
-1.9614761 1.2669948 -1.1853815 22.0215
-1.8046671 1.2047687 -1.1533664 19.522499
-1.7396523 1.2565807 -1.1377468 20.522249
-1.9457895 1.3063064 -1.1315562 20.0235
-1.802847 1.3893876 -1.1536343 22.022499
-1.7413722 1.4473162 -1.1668531 23.021999
-1.9888129 1.5817218 -1.1296629 22.52375
-1.7764901 1.5342338 -1.1325587 23.022499
-1.7309856 0.087858886 -1.0873158 4
-1.8779479 0.21013644 -1.0610558 9.0168753
-1.7795162 0.22837713 -1.053901 10.0335
-1.6719271 0.26764262 -1.061125 8.0220003
-1.8414531 0.34675843 -1.048172 10.5285
-1.7444289 0.37019721 -1.0616113 11.02775
-1.6907657 0.38643384 -1.0857747 10.021749
-1.5459421 0.33883235 -1.0343899 13.032
0.84296703 0.35266304 -1.0654827 9.9569168
0.94959402 0.37253946 -1.0932498 8.6134996
1.089133 0.35804087 -1.0012442 9.1300001
1.1000593 0.36298007 -1.0911328 8.1309996
-2.0092323 0.47849101 -1.012323 11.024
-1.9370675 0.47368681 -1.0193343 10.0245
-1.7236958 0.45265269 -1.0398899 10.911583
-1.6958734 0.46619254 -1.0047354 11.5
-1.5990016 0.40045395 -1.0435127 13.532249
0.9330799 0.44876322 -1.0425928 11.228555
1.1684077 0.45615488 -1.0957812 10.1305
-2.1192896 0.52747983 -1.0926783 11.0235
-1.9320083 0.58426964 -1.0412087 15.0345
-1.8198308 0.59401274 -1.0084769 12.024
-1.7564887 0.54397166 -1.0499496 13.189167
-1.645296 0.54224646 -1.0718205 14.776875
0.89754283 0.57932234 -1.0832684 13.61375
0.96208692 0.56675202 -1.038345 13.9195
-1.8396528 0.63163853 -1.0347008 16.700666
-1.7615666 0.64343125 -1.0485811 14.959666
0.85305548 0.64179254 -1.0476714 16.113501
0.97011524 0.61803257 -1.0802031 14.62
1.0158778 0.65916616 -1.0126116 15.29475
1.1409278 0.67190307 -1.0106981 14.1295
-1.8617308 0.77562892 -1.022508 16.529125
-1.7801821 0.73651767 -1.0286958 14.0235
0.9912535 0.74379528 -1.0133094 18.125999
1.0627803 0.70870554 -1.0853821 16.125999
-1.8197112 0.86364377 -1.0447929 18.022751
-1.7804823 0.8558917 -1.0600481 16.951323
-1.6424913 0.85599053 -1.0763443 21.032
0.93485177 0.86170441 -1.0157685 19.445665
-1.902797 0.96875703 -1.0793618 21.033751
-1.7660189 0.91655427 -1.0248501 17.0235
0.84545565 0.94896472 -1.0019796 22.112751
0.9609071 0.97154737 -1.072071 20.613001
1.157747 0.90293884 -1.0147394 17.62925
-1.9495254 1.0850477 -1.0405174 20.529375
-1.8990393 1.0812955 -1.08459 21.022499
-1.7586999 1.0482881 -1.0514421 18.761625
0.87282586 1.0288762 -1.0267813 23.113001
0.97197455 1.0573937 -1.0461466 22.619499
-2.0213389 1.1120034 -1.0864282 20.023001
-1.805654 1.150589 -1.0660392 22.022249
-1.7808154 1.1498022 -1.0288981 19.0235
-1.9468249 1.2769165 -1.0518599 21.523624
-1.8277891 1.203611 -1.0594944 23.022499
-1.7720641 1.2636098 -1.0512717 21.023251
1.2658122 1.2236415 -1.0288546 22.1105
-1.8371183 1.4034029 -1.0148495 22.024
-1.9860957 1.5681696 -1.0440183 23.0245
-1.7693381 0.16220453 -0.90480733 9.0352497
-1.8414857 0.2508885 -0.9360044 10.53525
-1.798455 0.22422788 -0.93765408 10.035
-1.6932714 0.25439179 -0.96629632 8.0235004
1.0054811 0.28270233 -0.99896991 6
-1.9168677 0.3272163 -0.901115 8.0255003
-1.8695552 0.33334476 -0.94846016 12.03525
-1.7149639 0.36926782 -0.93913192 11.027417
0.85093188 0.36483768 -0.9457882 9.9501677
0.9484452 0.34024829 -0.9562149 8.8708744
1.1232991 0.38219276 -0.93003464 8.4495001
-1.9339952 0.4858937 -0.93727189 10.525
-1.8130655 0.45093411 -0.91959476 14.03525
-1.7393467 0.46136981 -0.93958092 11.190833
-1.5544134 0.44206646 -0.97351539 14.78275
0.88987774 0.49894351 -0.92817026 13.1305
-2.0856986 0.5153414 -0.99536335 11.0245
-1.8613374 0.52138627 -0.95118189 11.02475
-1.7846282 0.56644475 -0.94475567 14.024
-1.6987618 0.5696789 -0.92259312 14.024
0.92104781 0.56346852 -0.91751039 13.5108
1.0079391 0.55804968 -0.94076675 15.125
1.1535373 0.53119034 -0.96151888 11.795584
-1.8276464 0.68990755 -0.91761494 16.0245
-1.7285748 0.66909617 -0.9490425 15.694
-1.5876071 0.61888534 -0.95082998 18.033251
0.8386091 0.6092211 -0.93803966 15.61175
0.98723078 0.64501274 -0.98422968 15.1115
-1.8748715 0.74392021 -0.94850403 16.029999
-1.7203617 0.71719736 -0.9952153 16.523001
-1.9364696 0.84805888 -0.94938439 19.702166
-1.8155026 0.86654562 -0.94737411 17.02425
-1.7704535 0.86533856 -0.98410511 18.028999
-1.6235626 0.83511037 -0.98268968 21.033001
0.95111579 0.8469488 -0.92839259 19.655806
1.1289139 0.83963025 -0.97468466 17.129
-1.9141331 0.97624922 -0.96568644 21.3685
-1.827243 0.91545403 -0.94916761 19.024
0.84727788 0.97032362 -0.90996045 23.111166
0.9219656 0.9619199 -0.96109498 21.4865
1.0524157 0.9220109 -0.94804305 20.1105
1.110553 0.99659503 -0.91284233 20.12825
-1.9358494 1.0879161 -0.94378906 23.0355
-1.852242 1.0382965 -0.95787883 19.52425
-1.781106 1.0345781 -0.94538462 19.857418
1.144196 1.0151901 -0.97176397 19.62875
-1.9092194 1.1819931 -0.90096772 19.025499
-1.8155227 1.1605749 -0.90230942 20.025
1.0823419 1.1187648 -0.94461554 22.12875
-1.8506377 1.221218 -0.96660638 23.02375
-1.7815887 1.2672489 -0.95549256 21.02425
1.0697603 1.2009258 -0.92260689 23.1285
-1.8049728 1.3606763 -0.91869694 22.52475
-1.9494601 1.5370903 -0.91619378 23.025499
-1.4022617 -0.01853436 -0.84534556 5
-2.1126933 0.18116775 -0.87819314 6
-2.0983458 0.19440585 -0.83132958 6
-1.7483029 0.15806562 -0.80099458 9.0365
0.85885036 0.15521654 -0.81701082 2
-1.8483564 0.26825285 -0.83521807 11.0365
-1.7496858 0.2579968 -0.89364856 9.5299997
0.73892659 0.2651917 -0.80039859 10.1265
-1.847417 0.35656601 -0.83446157 12.5365
-1.7057812 0.33988571 -0.80963874 10.02575
-1.5633121 0.39141047 -0.89114422 14.534
0.79511547 0.33528465 -0.89594293 9.1113329
0.9309411 0.32896405 -0.83886981 9.8768749
1.036299 0.32533178 -0.85605174 8.6285
-1.9995258 0.49262321 -0.82977843 11.02625
-1.8361669 0.49190831 -0.839643 12.531
-1.7634381 0.45072097 -0.82409608 10.775625
-1.5861574 0.44024074 -0.83598542 15.284875
0.7985236 0.40842748 -0.89825493 12.131
0.86267382 0.49491024 -0.8258484 13.62925
0.94931304 0.4584817 -0.85218537 11.276125
-1.8494036 0.53124821 -0.84177822 11.02575
-1.7770894 0.54709589 -0.84696722 13.837379
-1.6296272 0.57313746 -0.84598434 17.035
0.75409317 0.54180169 -0.84036225 15.962667
0.8576265 0.54601687 -0.89149159 14.13025
0.90689409 0.59428656 -0.82716501 15.10925
-1.8425044 0.63988441 -0.82581347 16.032999
-1.7262845 0.64108264 -0.84262455 15.012751
0.70976835 0.65077519 -0.80200803 19.627001
0.98338765 0.64840096 -0.86620849 16.292501
1.0784149 0.6490252 -0.82721984 14.618
-1.9288826 0.77593732 -0.84061891 16.5315
-1.8326924 0.70161819 -0.86212659 16.025249
-1.7621179 0.74106085 -0.85444319 18.259562
0.77166682 0.76052529 -0.83851522 20.129999
0.85529536 0.71853709 -0.88260025 18.129999
0.95865774 0.73181891 -0.8599304 18.117001
1.0456412 0.76074302 -0.84534299 17.625751
-1.8287711 0.86776227 -0.83902246 18.646812
-1.5833104 0.81036091 -0.88910288 22.034
0.88578886 0.8879894 -0.86057329 20.62925
0.97490674 0.83061314 -0.81741494 19.128
1.1289349 0.81850719 -0.89224917 17.128
-1.793319 0.95476252 -0.85210019 18.525249
0.87852424 0.93704867 -0.86474901 22.610126
0.91808105 0.98719108 -0.80241036 23.108749
1.0972306 0.90807724 -0.8673172 19.108999
1.1253821 0.93069726 -0.84609729 19.121056
-2.1827271 1.0233126 -0.8756606 18.025999
-1.9437838 1.0918539 -0.8614192 23.036501
-1.8580068 1.0364491 -0.83935356 20.829283
-1.7768704 1.0926787 -0.88409549 19
1.0673352 1.0838459 -0.85814297 22.12775
-1.9017197 1.1502118 -0.82005006 19.026249
-1.8258901 1.163461 -0.85545594 21.525311
-1.7871118 1.2387555 -0.85978103 21.025249
1.4728205 1.2893146 -0.8173877 21.107
-1.9492584 1.531219 -0.86416924 23.025999
-1.8117225 0.020372689 -0.75142342 6
-1.7634509 0.12813514 -0.77851218 5
-1.9007449 0.28092882 -0.77805084 11.0375
-1.748971 0.24216616 -0.74631715 7.2637501
1.4172287 0.26434225 -0.73438966 5
-1.9101672 0.34973001 -0.72604656 10.513625
-1.895811 0.36115092 -0.75293255 12.51875
-1.7563255 0.39616567 -0.76542294 11.5315
-1.5275085 0.36447853 -0.75168985 14.035749
0.73201305 0.39283681 -0.79197818 13.1265
0.89752328 0.37607914 -0.70795578 9.7069988
0.91932607 0.37509128 -0.78404033 9.7433128
1.0119162 0.33801383 -0.76103711 9.1273336
1.334376 0.31863123 -0.75268948 6
-1.8441247 0.48269311 -0.72135997 10.027
-1.7889621 0.48667181 -0.78884518 12.02625
-1.6193875 0.44947782 -0.74551016 15.5
0.7763207 0.40937629 -0.75617456 12.447583
0.8495689 0.49218601 -0.77077574 14.1285
0.93859786 0.44536179 -0.7487576 11.700916
1.0488989 0.4938333 -0.72934765 12.1265
-1.8358914 0.54791081 -0.74874812 13.030251
-1.7508656 0.54910946 -0.74349213 13.888438
0.77095658 0.57851005 -0.74876565 16.62875
0.84557199 0.55653596 -0.74645758 15.206417
1.0712357 0.55827063 -0.75127786 13.163438
-1.9076022 0.66826487 -0.70739537 13.0275
-1.8463496 0.64094377 -0.71932065 15.5325
-1.7426416 0.62140131 -0.7582016 15.0265
-1.5606472 0.60903877 -0.70968163 19.036501
0.72297812 0.60868454 -0.73317963 19.12575
0.8386575 0.64656138 -0.72179484 17.617626
0.93618298 0.61008507 -0.72621357 15.367125
-1.9532504 0.77534229 -0.7512877 18.704666
-1.8723691 0.72071075 -0.7379837 15.027
-1.7360681 0.73245996 -0.75642055 20.036877
0.75141519 0.77391309 -0.77547252 22.125999
0.92527366 0.76450521 -0.7638585 18.441332
1.0620401 0.77026063 -0.74716741 17.126499
1.1495795 0.70915937 -0.72520125 15.1065
-1.8463644 0.8732146 -0.78880787 18.526249
-1.7792515 0.8519671 -0.71987003 16.526751
0.76325756 0.82686055 -0.71766251 23.125
0.8804419 0.87374353 -0.75516075 21.691376
0.93632841 0.8679986 -0.74797332 20.6175
-1.8277372 0.93488199 -0.73871803 18.976084
0.87616205 0.9523204 -0.71688497 23.107332
1.1151867 0.93985271 -0.74997985 19.459415
1.2177445 0.90437686 -0.70397115 18.106001
-1.9478576 1.0959232 -0.78674102 23.0375
-1.8313153 1.0290254 -0.75051695 21.179832
1.024087 1.025156 -0.72695094 22.126249
-1.8334339 1.170884 -0.74822938 22.026625
-2.0165641 1.2760261 -0.71268165 23.0275
-1.8479173 1.2416451 -0.72396088 22.527
1.4832603 1.2890202 -0.77917945 21.106501
1.5458186 1.3054826 -0.7103126 21.105499
-1.8558156 1.4089322 -0.75250578 23.026751
-1.7571156 0.089884922 -0.68908429 8.0380001
-1.8699194 0.19759493 -0.68761593 6
-1.7952371 0.13799001 -0.66878664 9.0384998
-1.9081441 0.25943935 -0.60892248 8.0290003
-1.798697 0.25517625 -0.63732409 8.0284996
0.76662469 0.2762773 -0.66991198 10.042666
0.87075061 0.25279549 -0.63594276 8.6250839
-1.9030652 0.3013742 -0.69784349 11.0385
-1.8731614 0.33137459 -0.66085714 10.1515
-1.7762812 0.37727925 -0.66637313 9
-1.6612853 0.34222251 -0.66574323 11.6995
-1.5217407 0.37826189 -0.66865039 14.537
-1.494369 0.38783145 -0.62697738 15.0375
0.76608086 0.35207617 -0.66404206 11.5178
0.84940267 0.3032648 -0.63137078 11.1225
1.0203035 0.34754261 -0.67969555 9.1260004
-1.824308 0.43619242 -0.62218672 12.033625
-1.7408956 0.45480949 -0.67686927 12.02775
-1.6822054 0.41014171 -0.62180758 11.0285
0.75506538 0.42584571 -0.65943325 13.6125
0.9339267 0.44133064 -0.61982942 11.30515
1.0324153 0.44499627 -0.67014092 11.119083
-1.8067069 0.54473531 -0.6265111 12.52825
-1.773428 0.52792466 -0.67385805 14.699709
-1.6005075 0.50096524 -0.66180825 17.0375
0.7799632 0.56286597 -0.63877529 16.803125
0.84551567 0.52697247 -0.60480189 14.87575
1.0743427 0.55575609 -0.63146579 13.115
-1.9200187 0.66967273 -0.65273738 15.533625
-1.8538775 0.69347155 -0.63568234 14.028
-1.753687 0.60406119 -0.6762526 15.02775
-1.694718 0.61237574 -0.60562181 15.528749
-1.5518095 0.61397135 -0.61295962 20.038
0.82310915 0.63626826 -0.65007293 17.616375
0.94976455 0.61288112 -0.69761121 15.1265
-1.8371952 0.7468884 -0.64464891 15.778
-1.7611243 0.75499052 -0.63929534 18.698334
-1.5773065 0.73720717 -0.65364027 21.5375
0.77112222 0.76281178 -0.64280933 21.791834
1.0508068 0.75436324 -0.67746222 17.1255
-1.8115654 0.89059728 -0.66025215 19.528
-1.7911948 0.87592226 -0.65793771 17.0275
0.89041865 0.83754909 -0.65099853 21.106001
0.92383641 0.86379892 -0.60176814 21.125
1.0632081 0.88938957 -0.61986375 19.6245
-1.9053432 0.92061794 -0.65746933 17.028
-1.8601731 0.95663822 -0.6273638 19.273876
0.79046375 0.90288991 -0.61613804 22.792665
0.96513855 0.98559874 -0.62437665 22.605251
1.1077459 0.95816129 -0.66729778 20.125
1.2701032 0.91061306 -0.65783423 18.105249
1.3021172 0.9099912 -0.60930181 18.1045
-1.9049499 1.0501863 -0.69149762 23.0385
-1.8295995 1.0273358 -0.6401636 19.147457
-1.7698269 1.0495501 -0.64771211 22.361416
1.0801885 1.0595565 -0.64890099 22.105499
-1.856029 1.1238641 -0.67044592 19.861
-1.8279897 1.3292731 -0.60400057 22.52825
-1.846136 1.4019186 -0.68164641 23.0275
-1.6458967 -0.033803202 -0.59756863 5
-1.8094752 0.17069036 -0.53350276 5
-1.7928553 0.12657888 -0.57588071 8.0397501
-1.6569661 0.14178139 -0.55518895 9.0394993
-1.4844162 0.10173978 -0.52395695 8.5392494
0.7904191 0.18763347 -0.53325003 8.1215
-1.8130729 0.25553358 -0.57414591 7.2648749
0.88500285 0.27512783 -0.56334728 7.8122501
0.90121043 0.22399205 -0.51389921 5.5
1.0823772 0.28920192 -0.52060968 8.12325
-1.9122086 0.34971553 -0.55266345 12.373751
-1.8447878 0.3536571 -0.54738885 8.5289993
-1.6555543 0.34059536 -0.55593383 12.662001
-1.5298897 0.3664341 -0.56963742 14.663688
0.76461744 0.33974978 -0.55039412 11.954329
0.84411657 0.33511105 -0.57236111 8.8543749
-1.9551172 0.49330485 -0.51760411 15.041
-1.8539385 0.4822076 -0.5484947 12.02975
-1.7599201 0.41974008 -0.57992101 11.279249
0.76620364 0.44346142 -0.55200708 14.737979
0.85563302 0.40991938 -0.50893134 11.103001
0.91056329 0.43394855 -0.56802481 12.12475
-1.8687041 0.55388522 -0.56731635 14.0345
-1.7796307 0.52094042 -0.56183881 14.684675
-1.6025069 0.51354629 -0.50023705 17.290125
-1.5949402 0.51158857 -0.59788775 17.0385
0.75406945 0.55273318 -0.55450183 18.430323
0.82498175 0.55471623 -0.55158889 15.958208
0.94765782 0.55263013 -0.54630673 14.192167
1.0553778 0.54550683 -0.55482113 13.62375
-1.9570802 0.63193756 -0.54054141 13.0295
-1.8535228 0.65287977 -0.55386174 13.612291
-1.7420564 0.65428007 -0.53430057 17.285
-1.6652876 0.6203199 -0.55739981 19.039501
0.7584607 0.63435632 -0.54626614 20.373125
0.85677397 0.62898201 -0.57686746 17.483749
-1.8627262 0.7612766 -0.54223299 16.029375
-1.5850174 0.71714145 -0.59332806 21.0385
0.79568416 0.72488785 -0.51090711 23.121
0.87619251 0.74761009 -0.57194263 20.779583
0.91248286 0.73647416 -0.52216804 19.123751
1.0240517 0.72106695 -0.53730494 17.123499
1.287033 0.77201396 -0.54239279 15.1035
1.3143071 0.78259337 -0.51364774 15.103
-1.859423 0.85727245 -0.54899132 20.564554
-1.7501041 0.87054396 -0.54873502 19.029251
0.76069134 0.82118189 -0.54695523 22.125
0.84757823 0.85225129 -0.58535695 21.85475
0.91543889 0.80234343 -0.51626945 20.103251
-1.8670913 0.96354395 -0.55474991 19.352966
0.82516217 0.90679097 -0.53331941 23.12425
0.95485562 0.93710983 -0.55838037 21.947292
1.0724702 0.95777535 -0.59244806 21.124001
-1.859118 1.011632 -0.55602133 18.514626
-1.709186 1.0655189 -0.55140805 23.029499
-1.9450458 1.1791703 -0.59679997 23.028999
-1.8396149 1.1409012 -0.53119141 20.362499
1.1136179 1.112113 -0.50211996 23.103001
-1.8305582 1.2964646 -0.50368452 23.029499
-1.840741 1.3298872 -0.54443717 22.528999
1.5219898 1.4303352 -0.58714962 23.104
-1.8205976 0.081036523 -0.42207003 8.0419998
-1.3562851 0.030494083 -0.43575525 3.5
-1.8348519 0.28345183 -0.46263635 8.0310001
-1.6378121 0.27510789 -0.49471569 9.0305004
0.77435493 0.26221845 -0.46684411 9.7892494
0.86900043 0.29398292 -0.4688175 8.1021252
0.97376436 0.26923344 -0.42116684 8.1219997
1.0833004 0.29909441 -0.47340983 8.1225004
-1.8472432 0.3417353 -0.46306559 10.619354
-1.657088 0.35062823 -0.47520673 14.040751
-1.5336345 0.35408747 -0.47732857 14.54025
0.76899517 0.37534359 -0.42368436 13.621166
0.87051612 0.32408082 -0.40200222 10.122
1.0240409 0.38394365 -0.49481463 10.123
-1.9121075 0.43722552 -0.42074504 14.04225
-1.840256 0.41887692 -0.42428654 10.281
-1.7800903 0.46073779 -0.45243081 12.180417
0.77058631 0.45805627 -0.44336766 15.8715
0.89133668 0.47330624 -0.47262895 12.60225
0.9154672 0.47146881 -0.47029647 12.775833
1.040315 0.45345733 -0.43302834 11.36175
-1.8283089 0.52422822 -0.47084293 13.063708
-1.7514884 0.54685533 -0.48113233 15.785875
-1.5882609 0.53124249 -0.43331102 16.536375
0.7554906 0.55407304 -0.44344974 17.744555
0.83458084 0.5497247 -0.43405274 16.122606
0.9341749 0.55176723 -0.4574784 14.61225
1.0464039 0.58545226 -0.42430788 14.788333
-1.8661184 0.6080066 -0.465244 15.53625
-1.76527 0.62335247 -0.46744019 15.5155
-1.5635332 0.64711511 -0.44730541 20.790874
0.77627158 0.63774914 -0.42149681 20.110332
0.84840655 0.64649034 -0.49393773 17.602749
0.92672884 0.62303072 -0.43196908 16.1015
-1.9280334 0.75508267 -0.43881333 17.691
-1.8518641 0.76727653 -0.42038727 15.0305
0.79615182 0.70809996 -0.43712145 23.119499
0.87094378 0.77523869 -0.44589347 20.351833
0.91743493 0.76430106 -0.4313252 19.1015
1.0117416 0.70422703 -0.44489777 17.122
-1.8754911 0.85637397 -0.43289456 19.524332
-1.7989293 0.80200589 -0.47021797 16
0.84276271 0.88872755 -0.48631445 23.102667
0.97714168 0.84735525 -0.43978262 20.122
1.031726 0.84478176 -0.45870632 19.538792
-1.9335203 0.9748677 -0.487445 17.530001
-1.869109 0.94037271 -0.44085717 19.187166
0.82704812 0.91486204 -0.42574525 23.12225
0.9337222 0.93067998 -0.45315287 22.275499
1.4184805 0.92216349 -0.47799373 17.102501
-1.9069777 1.0042576 -0.41691709 20.5315
-1.8631966 1.0274982 -0.44278318 20.197334
-1.8341295 1.1252645 -0.44730511 20.696833
1.1520728 1.1074312 -0.41125458 22.1015
-1.8561721 1.238137 -0.42316028 22.0305
-1.839076 1.307461 -0.43716335 23.030251
1.6910368 1.3173192 -0.42240441 20.101999
-1.794543 0.092179179 -0.34902227 8.0430002
-1.5895528 0.028565571 -0.35612887 3
-1.707139 0.16158086 -0.34087038 9.7096663
-1.4781437 0.15211664 -0.36854014 10.042
-1.6561391 0.26553178 -0.3398163 10.038
0.7440418 0.27273083 -0.3286258 10.121
0.84550589 0.2669318 -0.35711417 7.3995833
-1.8431852 0.35440788 -0.359909 9.747714
-1.6457713 0.36895356 -0.36830121 14.0425
-1.5578754 0.30986521 -0.38047439 13.708667
-1.4791243 0.37073094 -0.31061274 15.793125
1.0751693 0.34382948 -0.34789231 8.9470005
-1.9093122 0.42578673 -0.33246619 14.0435
-1.8500524 0.46046883 -0.3376742 11.407063
-1.5629123 0.40239173 -0.31891137 12.0335
0.73799342 0.48026252 -0.35155973 15.972234
0.88300455 0.47138828 -0.39168063 12.7006
0.90127057 0.4766227 -0.33405995 14.1205
1.0056927 0.40173426 -0.37484097 11.121
1.2309189 0.48138875 -0.37124458 10.10075
-1.9857165 0.58716083 -0.3260859 14.037875
-1.8202623 0.55223227 -0.35345829 14.20225
-1.6260412 0.53735018 -0.39454004 18.042
-1.5690024 0.55173534 -0.34620672 15.033
0.76296329 0.55009645 -0.31848913 19.569231
0.8478148 0.56348324 -0.31800926 15.943083
0.92336971 0.55597442 -0.39410859 15.1215
-1.9196675 0.69184512 -0.34460035 18.709999
-1.8315074 0.64564157 -0.3544583 14.365251
-1.7617975 0.67879492 -0.30545565 16.033251
-1.5759227 0.61687505 -0.35767472 19.842499
0.7698341 0.65263504 -0.33155221 20.327387
0.8859272 0.65609545 -0.39995125 17.100832
0.9986555 0.68457782 -0.35274637 17.120501
1.0455382 0.60594022 -0.34285945 15.12025
-1.9382312 0.78199971 -0.34256038 17.032501
-1.8526715 0.76450467 -0.36512864 16.19825
-1.7294748 0.74358451 -0.3326897 21.043251
0.84195352 0.78150344 -0.34726417 20.599726
-1.8399469 0.80363464 -0.3349553 16.0315
-1.6690639 0.87492663 -0.33115444 21.033001
0.83126688 0.85106534 -0.35928136 22.1
0.97570145 0.82333708 -0.35720202 19.870564
1.5069883 0.89445198 -0.32533404 15.6005
-1.9241234 0.94061381 -0.3525199 19.034687
-1.8416905 0.95135075 -0.35959819 20.5355
-1.7351376 0.96927685 -0.32374445 22.033001
-1.687616 0.97843856 -0.36488938 22.032499
0.92223144 0.93911803 -0.35171634 22.610374
1.0237404 0.97623646 -0.35614812 22.110374
-1.8681848 1.0403202 -0.35292822 20.365166
-1.735391 1.0750911 -0.30599034 23.033251
-1.8496137 1.1387825 -0.3798629 21.031
-1.7558658 1.1106243 -0.35623169 23.032499
1.194281 1.1126142 -0.34904259 22.1005
-1.8405238 1.2091467 -0.38335785 22.031
-1.8650539 1.3288733 -0.35344768 23.031376
-1.5113373 -0.14893585 -0.23684044 2
-1.1287202 0.035944141 -0.22668904 3.25
-1.8319772 0.14944516 -0.25733489 7.9084377
-1.4705017 0.17379202 -0.28771508 11.0435
-1.8635089 0.2599206 -0.2474585 7.2387223
-1.6065412 0.23447385 -0.28277966 8.0340004
-1.5482717 0.29392481 -0.26901278 13.044001
0.75423896 0.28956556 -0.22878012 9.357625
-1.8287992 0.34615439 -0.24908412 9.8490009
-1.6429825 0.35633036 -0.27623165 14.044
-1.5393234 0.33397973 -0.26532704 10.0345
0.80188781 0.36474687 -0.2922098 11.92
1.0314734 0.34592125 -0.23346712 9.1184998
1.1280359 0.32198244 -0.25218022 7
1.76097 0.36286837 -0.2200523 6
-1.9360235 0.43690065 -0.22946617 12.5395
-1.8382342 0.44954878 -0.24686506 11.527875
-1.7748966 0.46878776 -0.25556889 13.696416
-1.6213517 0.47684956 -0.24619378 17.0445
-1.5131006 0.40468997 -0.2257507 16.04475
0.75408792 0.48991102 -0.23259693 16.855709
0.84568828 0.46786398 -0.25124148 13.207146
0.99287587 0.42257583 -0.23104285 12.1185
1.3212862 0.47512835 -0.2458643 9.099
-1.9700205 0.58218479 -0.27193493 14.0385
-1.8499244 0.57119036 -0.2546671 14.277688
-1.6562526 0.56335604 -0.24810325 18.0445
-1.5782142 0.58807886 -0.24409322 19.0445
0.78797787 0.5291962 -0.25824299 20.107349
0.90862793 0.51645702 -0.26455235 14.785832
1.0166343 0.54598975 -0.25981188 13.556556
-2.0068488 0.60911965 -0.24135724 12.033
-1.8802196 0.6614449 -0.22330001 16.539625
-1.7009358 0.68470705 -0.22216205 20.045
-1.5371022 0.66367358 -0.2719425 21.044001
0.75260079 0.64723903 -0.21036735 21.005451
0.88415349 0.66391146 -0.24768947 17.2978
0.9853583 0.6616528 -0.23541875 17.1185
-1.9436343 0.73501647 -0.23066209 19.045
-1.8716062 0.74315614 -0.23735784 15.700043
-1.7594633 0.7686007 -0.22465967 21.045
0.82991469 0.74582583 -0.27040398 20.358582
0.98987895 0.79352659 -0.21266676 19.451334
-1.9103084 0.80308861 -0.29604787 20.044001
-1.8443959 0.84246361 -0.23764306 18.277813
0.83900982 0.83515584 -0.27601215 21.598249
-1.9510149 0.94477355 -0.24303262 19.436291
-1.8199393 0.90995663 -0.23413068 18.032749
-1.7485523 0.98350859 -0.28849107 22.033501
-1.6114142 0.92041123 -0.27791378 22.034
0.9293772 0.96728045 -0.2705653 23.098499
1.574595 0.9327541 -0.27656466 16.1
-1.9608014 1.0389838 -0.22059526 20.517124
-1.8507712 1.0382376 -0.22666785 19.35741
1.0374262 1.0010146 -0.27760828 22.118999
-1.8778647 1.1691556 -0.25270256 21.032625
-1.9686139 1.2582512 -0.20295843 23.03425
-1.8707076 1.2228241 -0.26057369 22.032501
1.3212168 1.2073156 -0.26414108 22.099501
1.8151004 1.2962768 -0.28639501 19.1005
-1.8976206 1.3647655 -0.22754875 23.033001
-1.8349907 -0.15525043 -0.15720592 2.5
-1.6503291 0.022214845 -0.1209479 3
-1.8606094 0.15466568 -0.14744662 9.0459995
-1.4916406 0.19379477 -0.15570129 11.046
-1.8779553 0.28865921 -0.18217041 8.0334997
-1.703064 0.23561662 -0.12026708 11.0465
-1.6959705 0.25178498 -0.1844139 12.0455
-1.5789135 0.27832064 -0.18314515 13.0455
0.75086081 0.27409703 -0.18139589 8.0955
0.84013057 0.2571983 -0.10175169 6.8329639
-1.9114997 0.3014431 -0.11166185 8.5
-1.8592694 0.34643874 -0.14685322 9.9956455
-1.6388996 0.3431707 -0.18737935 14.0455
-1.4556315 0.33262524 -0.14429238 10.786875
0.74209964 0.35221335 -0.15349586 11.950334
0.86502546 0.39141104 -0.15235831 11.783666
1.0874519 0.35933125 -0.1451266 9.1169996
-1.93373 0.41183931 -0.11631566 10.0355
-1.8498147 0.41691083 -0.14329261 10.534625
-1.7825011 0.46281055 -0.1670078 13.707251
-1.6520844 0.45756948 -0.12874965 16.046499
-1.5453355 0.47823614 -0.1418343 17.379665
0.7187022 0.44161677 -0.12835386 14.105249
0.83317494 0.45684373 -0.15044442 12.428833
0.93405306 0.448596 -0.11771322 12.106
1.4290479 0.46579868 -0.1176165 9.0974998
-2.0325541 0.5630402 -0.13650288 11.53425
-1.9440849 0.54796708 -0.13643754 14.374083
-1.8391867 0.57005048 -0.17634387 12.5335
-1.6662467 0.57966977 -0.1740732 18.54575
-1.547405 0.5670867 -0.19071279 19.0455
0.69542444 0.51868391 -0.14871046 16.0945
0.77643973 0.55712461 -0.14711267 18.7265
0.87163007 0.54558659 -0.17401579 14.346251
0.92196923 0.52048182 -0.12560515 14.6165
1.0457071 0.56296754 -0.17270166 14.10725
-1.8485999 0.63174224 -0.14048697 14.034625
-1.5418957 0.6911481 -0.13098183 22.046625
0.69597352 0.6521405 -0.10642086 20.615749
0.74145722 0.69261408 -0.16071036 19.095249
0.86725694 0.66363335 -0.14774188 17.814646
1.0197859 0.64230853 -0.15379135 16.117001
-1.9104631 0.7811566 -0.19185595 20.0455
-1.8359886 0.71457213 -0.15177132 15.618209
-1.7647636 0.78193915 -0.16025995 21.046
-1.6962683 0.70029438 -0.12989847 20.046499
-1.4928871 0.73009974 -0.18144837 19.035999
0.74501181 0.72012383 -0.12375697 20.0945
0.80217862 0.78078389 -0.15048191 20.762167
0.97991484 0.77092052 -0.12646116 19.116501
-1.9471248 0.84230959 -0.15414889 17.234751
-1.8584328 0.84918523 -0.12144822 16.700916
0.91286576 0.84117758 -0.1129199 20.095501
-1.9507574 0.96711081 -0.16705082 19.859833
-1.6375909 0.90221298 -0.1165528 21.036501
0.83463264 0.93003905 -0.18809143 23.0965
1.0609958 0.95565474 -0.15474331 21.097
-2.0218246 1.062061 -0.12697051 23.046499
-1.9814413 1.0326309 -0.13116355 19.493042
-1.8665438 1.0364399 -0.13142984 19.534126
-1.7524652 1.0101876 -0.19013953 22.035
1.0422378 1.0124699 -0.18470795 22.1175
1.0674806 1.1101618 -0.17208011 23.11725
-1.9432507 1.2204309 -0.11910833 22.118126
-1.918712 1.3851019 -0.14435804 23.034002
-1.9388533 -0.14386067 -0.031362876 3
-1.4142492 -0.11509061 -0.068896368 2.6666667
-1.9112133 0.29671818 -0.018649131 8.3701668
-1.8113359 0.29197943 -0.019480901 8.0354996
-1.7243958 0.21214503 -0.024497494 10.048
-1.5104396 0.20396043 -0.020863816 11.0485
-1.9932592 0.38611886 -0.00066713989 13.048
-1.8913889 0.33185044 -0.056730419 9.6387224
-1.6789154 0.3124187 -0.032396033 13.048
-1.4625667 0.33713743 -0.045357972 13.378278
-1.3948519 0.35636437 -0.049240619 11.372167
0.72164631 0.30498183 -0.014879391 10.780499
1.069551 0.3786574 -0.027709171 10.115
1.7918479 0.37224752 -0.081490189 6
-1.9756323 0.44177866 -0.059626963 14.04725
-1.8634367 0.41566983 -0.043227687 11.373166
-1.791671 0.44387788 -0.02337013 10.5355
-1.6505548 0.44080454 -0.038188577 15.548
0.67512369 0.46480161 -0.041255981 14.092
0.72442508 0.42166677 -0.02285853 14.114
0.83959961 0.41394445 -0.046900474 11.937584
0.98689687 0.4796018 -0.028317906 12.1045
-2.034574 0.55216467 -0.048186772 11.03525
-1.930141 0.55008048 -0.034533657 14.542126
-1.8345459 0.54900366 -0.051277213 13.538625
-1.6326032 0.58952576 -0.073562607 19.047501
-1.5714569 0.52363628 -0.042692527 17.798126
0.6760565 0.52602899 -0.074159525 17.103874
0.78891933 0.53357422 -0.041793082 18.778835
0.85846198 0.56281537 -0.059103847 15.094
1.044805 0.53071833 -0.090886518 13.116
-2.0462191 0.65267408 -0.026569454 13.0355
-1.9142904 0.69910294 -0.02526924 15.03675
-1.8780155 0.62445718 -0.088758513 18.047001
-1.7982348 0.62082511 -0.022564871 14.0355
-1.6818247 0.607629 -0.072560713 19.047501
-1.4134442 0.67233771 -0.034368724 18.039
0.67796201 0.67804503 -0.015176758 21.363625
0.79033321 0.60373527 -0.070611313 17.915199
0.84431261 0.69020587 -0.058008488 18.351084
0.92336529 0.63499409 -0.09935461 17.115999
-1.9252539 0.76353419 -0.08661513 20.047001
-1.8603354 0.72565126 -0.066773564 15.28575
0.73211467 0.72423911 -0.039495379 19.98559
0.81785965 0.72424537 -0.030872241 18.59325
0.98194665 0.76177472 -0.068536744 19.115499
-2.0097373 0.83964825 -0.04182525 17.01825
-1.9241972 0.84323406 -0.06641303 18.541124
-1.8228837 0.83819389 -0.022857055 21.881416
-1.7870269 0.83595353 -0.021234317 17.0355
-1.9685674 0.97661626 -0.051611215 19.446415
-1.4300262 0.93361735 -0.056018412 23.0385
0.95283937 0.96780312 -0.097589552 22.095499
1.6336441 0.91705918 -0.056893051 15.0975
-1.9738185 1.0405018 -0.035361804 20.279938
-1.8638941 1.0377895 -0.03386296 19.535374
1.0282452 1.0109904 -0.052090764 22.11525
-1.9478767 1.1544222 -0.037775826 21.369167
1.3481463 1.1320516 -0.045117527 20.0965
-1.9532646 1.2427397 -0.033400983 23.036499
-1.89832 1.2171803 -0.024632698 22.0355
-1.8395455 1.3201532 -0.021018891 23.0355
1.3946954 1.3048952 -0.099683225 22.0975
-1.9484074 1.400898 -0.06444557 23.035
-1.9168725 0.12724665 0.072782189 6.2744999
-1.8759506 0.19191359 0.079171076 9.0492496
0.6808812 0.17290175 0.032767683 4.3333335
-1.9213479 0.27576834 0.077888697 8.0380001
-1.7563217 0.23958531 0.079742327 11.0495
-1.5898945 0.24312606 0.047104195 12.0495
0.71683359 0.20593011 0.019175127 8.1129999
0.84458661 0.29407555 0.0067293942 8.0924997
-1.9455972 0.34636033 0.077118561 8.5372505
-1.8541349 0.35793734 0.039021328 11.0425
-1.4740369 0.31197351 0.055367097 14.05
0.70096445 0.38326102 0.040475726 13.1125
0.81751198 0.33854312 0.053551346 9.0914993
0.90214974 0.3711772 0.058366269 11.113
1.0549524 0.38207015 0.00066463649 10.1145
-1.9291892 0.47125313 0.091797739 11.0375
-1.83559 0.44870749 0.048388261 13.378667
-1.7666962 0.47127184 0.090258278 11.037
0.69625717 0.4586243 0.019390136 13.091
0.7812348 0.41631487 0.021492571 13.61325
0.8004632 0.41131753 0.048594207 11.0915
0.93728793 0.47935665 0.065989219 12.60275
-2.020139 0.51745498 0.067896962 13.042749
-1.9792223 0.57107878 0.059079394 14.041333
-1.8474478 0.56240863 0.054963131 15.044917
-1.784004 0.56317639 0.05525957 13.0365
-1.580817 0.51805687 0.067708865 18.050001
0.66544133 0.54293418 0.048076991 16.851124
0.77930719 0.54628783 0.052822907 17.270361
0.81774056 0.58676082 0.079349756 15.091249
0.95690662 0.57931674 0.013426468 15.114
-2.0519707 0.671924 0.060651772 13.0365
-1.9426452 0.6836046 0.059357703 14.0365
-1.8118833 0.63725221 0.05781991 14.0365
-1.6692028 0.64353615 0.066452518 19.049749
0.66695929 0.68956852 0.034828141 21.112499
0.75845909 0.66980666 0.018044353 19.161638
0.82873654 0.61095142 0.052653633 19.860188
-1.9590079 0.75709599 0.036439165 19.382
-1.8774586 0.73952264 0.046492267 15.537333
-1.7546451 0.75244856 0.042594984 19.796
-1.5711145 0.79391348 0.057928756 23.049999
0.69788241 0.73607302 0.061795443 20.0905
0.74801445 0.73354304 0.060619146 19.091
0.98578906 0.71429253 0.046227664 17.571814
-2.016705 0.84549129 0.042597361 16.536751
-1.9497217 0.86247444 0.03964901 17.370333
-1.8203959 0.86485958 0.075368643 20.043125
-1.7940143 0.80603755 0.09798611 17
-1.3762727 0.89666051 0.057254761 23.040833
0.90629739 0.83504969 0.0035835952 21.114
-1.9732709 0.97778475 0.056180678 18.036501
-1.8364084 0.9843151 0.090449527 19.018501
0.78641576 0.92077971 0.025859952 22.592125
1.1624112 0.97448552 0.07198146 19.094
1.6720048 0.93792665 0.043047279 15.0965
-1.9654537 1.0491837 0.070575193 23.04925
-1.8627307 1.0545918 0.075982749 19.643312
1.0517457 1.0497512 0.032439351 22.613876
-2.0184464 1.1154341 0.023499578 20.5
-1.9576724 1.1686378 0.03807199 21.370085
-1.9736224 1.2193543 0.046958417 22
-1.8469292 1.2996732 0.018680857 23.035999
1.4375604 1.3790764 0.0087958872 22.596251
1.4424196 1.421904 0.075023025 23.095501
2.0852842 1.4190713 0.056265444 18.0975
-1.9759405 -0.18131205 0.12691619 2
-1.6972331 -0.012541808 0.11916128 2
-1.1776049 0.046957538 0.11813363 3.5
-0.97870713 0.06354817 0.17180058 4
-1.9112234 0.16615435 0.14658651 5.6428571
-1.8857219 0.19264738 0.15639855 9.0502501
0.95983088 0.16629052 0.10683629 4
-1.9352361 0.26257896 0.12211981 8.0384998
-1.8653322 0.28217307 0.13579904 7.568222
-1.7680686 0.25834239 0.11781144 9.0249996
-1.5870047 0.2326515 0.10751651 11.0505
0.68732303 0.22865415 0.18501945 8.1092491
0.70211208 0.24502088 0.13146152 8.8605003
-2.0388336 0.35378787 0.14081277 9.374917
-1.9946952 0.33661979 0.17603514 8.7054996
-1.8407888 0.35807031 0.15400697 9.0377502
-1.3933895 0.35593671 0.14575186 11.042
-1.2319514 0.31076673 0.14985356 10.5435
-1.1981455 0.30499899 0.19035032 10.0445
0.68746978 0.38304478 0.19697644 12.609
0.80216885 0.34731847 0.16561672 9.0895004
1.4249768 0.31329608 0.1827583 5.75
-1.9533249 0.46182784 0.12884419 11.708501
-1.8714303 0.44872794 0.14938834 12.02525
-1.7726732 0.47804528 0.12867437 11.0375
-1.6768239 0.404668 0.15489872 14.051
0.68418241 0.45994812 0.16668826 13.848875
0.70200711 0.42547661 0.12157534 14.11075
0.83281672 0.4493179 0.16125566 15.60775
0.93277502 0.48979804 0.11467081 12.851875
1.0388036 0.40886492 0.1326157 10.61225
-2.0379751 0.53274029 0.17985956 13.3795
-1.9123545 0.56361848 0.14946987 16.550251
-1.8730769 0.5907045 0.1673878 14.375501
-1.6176491 0.54049671 0.13523941 18.051001
0.65650141 0.56086022 0.18402773 15.587749
0.75209498 0.55650389 0.11853862 17.111126
0.81052506 0.55325216 0.19091131 20.853874
0.9305107 0.58956599 0.19765012 15.444
-1.9180616 0.6799016 0.15542011 14.03775
-1.6470796 0.62677276 0.14528726 19.051125
0.7934534 0.67125005 0.18196297 16.863291
0.82815146 0.6639092 0.14978546 23.105
0.95235294 0.61785495 0.11003928 16.112251
1.1010827 0.63555408 0.1069853 13.593
-2.0386999 0.79949099 0.10361931 15.037
-1.8680471 0.76838624 0.14358792 16.039
-1.7835168 0.75776935 0.16782708 16.038
-1.5574431 0.75571263 0.17158921 22.052
0.73983103 0.74562001 0.15287805 20.092913
0.98397094 0.727642 0.16543813 18.1115
-2.0515227 0.81686461 0.16926666 15.03775
-1.9990809 0.81981009 0.10392107 20.0495
-1.8464638 0.88789403 0.17220914 19.794437
0.66730964 0.84064841 0.1042232 23.100124
0.77722597 0.88945228 0.17627421 21.0895
0.87550753 0.8014878 0.10465081 20.112
-2.0354426 0.92745274 0.18540381 18.542418
-1.9952978 0.93715894 0.10300323 18.538
-1.8973519 0.98718673 0.14936826 18.704332
0.75820136 0.93816924 0.14423755 22.7565
0.81362182 0.92369795 0.19774781 23.110001
1.6755635 0.95770627 0.15637574 15.09525
-2.0052464 1.0756708 0.18407622 20
-1.9647541 1.0066193 0.16311873 23.050501
1.0616641 1.0503495 0.14503655 22.112125
-1.9964354 1.1726468 0.19204344 20.719
-1.9389243 1.2680997 0.1396212 22.0375
-1.8471388 1.2359837 0.13277972 22.0375
-1.9816325 1.3580117 0.17840631 23.0385
1.436116 1.4641836 0.14434049 23.094624
-1.5360146 -0.13886307 0.28897297 2
-1.1874368 -0.093496732 0.23839812 3
-1.0051798 0.041431576 0.27192563 4
0.74979877 0.088094942 0.24640867 1
-1.9487205 0.13903181 0.24556263 8.0512505
-1.7283335 0.16856997 0.22628966 9.3850842
-1.6171854 0.19687526 0.27414107 10.053
1.469777 0.12390921 0.27916929 1
-1.9850923 0.26728505 0.24911436 7.5
-1.8565651 0.29743499 0.21611084 8.0384998
-1.7889767 0.27769732 0.22121508 11.0515
-1.5012665 0.23413742 0.22398324 11.386167
0.66273928 0.25077236 0.27285206 8.0966253
0.70448261 0.24990457 0.20393886 9.1090002
-1.9327236 0.39192176 0.23437771 11.045
-1.8725131 0.35610414 0.25943464 10.545375
-1.354529 0.3610999 0.25844279 11.044001
0.82811731 0.35833392 0.23827612 11.5955
-1.96978 0.46495742 0.27793908 10.289124
-1.8846793 0.4423261 0.25678962 12.296
-1.0759535 0.47808254 0.27438694 15.047375
0.66350353 0.43167865 0.26711231 13.096875
0.77245712 0.46202737 0.23901477 13.858875
0.8417598 0.44215491 0.26637334 15.937187
1.0520506 0.44342893 0.25167516 11.360374
-2.0488806 0.55223882 0.27284434 13.53
-1.7691233 0.50813317 0.26021799 12.039249
-1.6054702 0.506378 0.28772092 17.053499
0.76749247 0.59549791 0.24914226 15.088
0.81195199 0.5528121 0.27623701 18.105167
0.96204543 0.50433069 0.20480463 12.0905
-1.9508911 0.6319713 0.25443155 14.936891
-1.7607962 0.67962104 0.23931624 16.154501
0.76472253 0.62597084 0.23632975 15.754874
-2.0315638 0.7822749 0.25485393 15.03875
-1.974141 0.72203684 0.25577679 16.462376
-1.758443 0.75484306 0.24032862 16.039
-1.5777957 0.78523612 0.26710498 22.053499
0.6491887 0.79343367 0.21865228 22.097834
0.73255217 0.7330817 0.26994985 19.09775
0.87941223 0.70207375 0.28075612 18.108999
0.96612626 0.71199667 0.20534088 17.11075
-2.0112932 0.83091289 0.24354354 18.045376
-1.9582492 0.84326714 0.23556906 19.047501
-1.7869414 0.89513236 0.24176306 18.039
0.62351227 0.88319439 0.26937941 22.08625
0.73385543 0.88296568 0.25540602 22.098125
-2.017158 0.94835013 0.24629572 18.44175
-1.9694664 0.97831059 0.23961772 22.0515
-1.8862201 0.95540935 0.2965779 18.039499
0.73272789 0.96014744 0.25329304 22.587875
-2.0054965 1.0526206 0.26727358 19.039375
-1.9909999 1.0921186 0.22338189 23.05125
1.0858774 1.0649506 0.2593621 22.110498
-2.029062 1.1336684 0.20140359 20.539
-1.9196153 1.1751137 0.2169738 21.0385
-1.8494235 1.1690862 0.24175423 21.538876
-1.6189919 1.1230828 0.27974418 23.04225
1.4611183 1.1696621 0.28849527 19.093
-1.9747075 1.2217578 0.25805655 21.804277
-1.9576764 1.3197979 0.23289692 22.705666
-1.9854177 1.4021583 0.26764435 23.039
-1.9758151 0.1410576 0.31627828 8.052
-1.7599938 0.13710105 0.30796123 8.0527496
-1.642029 0.18517508 0.31713974 10.0535
-2.0077934 0.29053682 0.30874023 8.0402498
-1.9114859 0.20639443 0.33069396 9.0524998
-1.5319536 0.22354692 0.30889928 11.054
-1.4756494 0.23181969 0.34716791 11.055
-1.0933151 0.26834935 0.3751646 9.0485001
0.67399466 0.24993885 0.34288543 9.1059999
-2.0520034 0.3551504 0.30621237 12.05175
-1.8613341 0.31108427 0.35900068 9.5467501
-1.6854091 0.3841657 0.3248837 14.0535
-1.3467621 0.35912871 0.34480026 11.04525
0.65902257 0.39216173 0.30948704 11.971062
0.74468315 0.33718979 0.33847985 8.7530003
0.86560178 0.38259998 0.36951241 14.766667
-1.9746991 0.44529438 0.36140761 10.165751
-1.88973 0.46079525 0.3373332 14.05275
-1.0417354 0.49118012 0.35253212 15.049
0.76767951 0.48855847 0.33690643 16.6035
0.83717936 0.41420516 0.35480791 12.107333
1.0562656 0.45301554 0.31094116 11.1095
2.1204243 0.40299976 0.37606624 6
-2.0464542 0.53923446 0.33899507 12.19325
-1.748026 0.5235073 0.35278654 12.040501
-1.6123307 0.59377617 0.38739294 18.055
0.59473717 0.58774698 0.3110356 16.084999
0.84212697 0.54222977 0.34166551 17.020584
0.91596144 0.55913556 0.34987801 14.108
1.0103536 0.5289607 0.36622676 11.08875
-2.0009074 0.65356928 0.33170363 14.0405
-1.9424518 0.64923596 0.34684697 15.642167
-1.7671834 0.69372928 0.39074236 15.041
0.76800227 0.66091591 0.34150559 20.062653
0.88433474 0.64841485 0.3397674 16.108
-2.0092161 0.74329257 0.37927938 18.052999
-1.7601373 0.72099441 0.33547178 15.04025
-1.2673659 0.70334524 0.36992368 18.046499
0.68803692 0.78112048 0.32514083 21.773333
0.73791486 0.78427726 0.36307821 18.58625
0.86584389 0.76283288 0.3296158 17.087999
0.94799823 0.71428674 0.33726388 17.1085
-2.0206184 0.84409213 0.33443791 18.046501
-1.9488993 0.84406453 0.35159293 16.24025
-1.8441851 0.82637411 0.32438314 20.052999
-1.586236 0.82573962 0.39560771 22.055502
0.56789684 0.87596494 0.39071897 21.58375
0.63936067 0.86379272 0.37844935 21.084875
0.70840842 0.83712232 0.34547731 19.752832
0.88793421 0.8220942 0.38915548 18.0875
1.8262305 0.89982074 0.33286235 13.094
-2.0368001 0.95093966 0.36578202 19.526501
-1.9523284 0.93967456 0.34956557 19.24535
-1.7792413 0.92292655 0.37838632 18.040751
0.74568212 0.93674445 0.3604365 22.3465
1.0534518 0.97634572 0.33361459 19.08975
1.2548349 0.99020582 0.30884036 18.091499
-1.9962316 1.0200305 0.33289614 19
-1.6174809 1.0931892 0.37888625 22.043501
1.0834318 1.0738726 0.35863876 21.775749
-2.0417652 1.1578251 0.34983003 20.151417
-1.9890214 1.1276039 0.30980948 19.539499
-1.8566697 1.1511626 0.37326127 20.790501
-1.9580132 1.2583631 0.3429153 22.415937
-1.8262408 1.3200052 0.34780049 23.040251
-1.9493406 1.4018028 0.30936071 23.039499
2.4194441 1.6363865 0.38648739 18.095501
-1.3483276 -0.067793891 0.49081117 3
0.24171822 0.083184883 0.45650133 2.5
-1.9886732 0.1599737 0.44337004 8.0535002
-1.8072259 0.11279659 0.45555961 8.0544996
-1.6415689 0.14985426 0.49642056 8.0559998
1.3975732 0.1113002 0.41909227 1
-1.9293282 0.22118929 0.42045933 9.0535002
-1.8382504 0.29798472 0.49011946 8.0419998
-1.7588358 0.20003052 0.41468197 9.5542498
-1.4939113 0.22485712 0.4437722 10.723
0.67643058 0.27683049 0.43054193 8.052125
-2.0142756 0.30067229 0.40980408 8.0412502
-1.9772717 0.30751202 0.4877744 7.5
-1.8680158 0.34200707 0.4485763 9.3793335
-1.7156816 0.37510717 0.42544734 13.05475
-1.304023 0.36031961 0.44865271 11.047
0.59083402 0.32411414 0.48046926 8.0825005
0.65793228 0.31642371 0.46699622 10.437
0.75866306 0.39496714 0.47000316 15.59675
0.8724339 0.38223621 0.48615807 14.097667
1.5462397 0.37187916 0.4133819 6.5
-2.0480471 0.45893443 0.45550594 9.7910004
0.65788776 0.41673109 0.43390197 13.10425
0.83892685 0.43233758 0.44559968 13.852125
1.0333629 0.40723658 0.47132808 9.6070004
-2.0463097 0.57089943 0.48003897 11.04125
-1.7351953 0.54066116 0.46619976 12.042
-0.96850443 0.51429367 0.48816168 15.05175
0.66350955 0.5031662 0.42777795 15.1045
0.76752943 0.59132141 0.45078862 15.771832
0.84594983 0.57793254 0.47666472 15.1055
0.91728848 0.55088764 0.41714931 14.107
-2.0608368 0.6268177 0.4428421 15.497888
-1.9710438 0.67679471 0.45584804 14.455829
-1.7350389 0.68750525 0.44584048 15.04175
-1.638464 0.61501122 0.48617142 18.05625
-1.2234937 0.6093697 0.4518151 16.048
0.66598243 0.61925322 0.45818982 20.568228
0.7810688 0.63293922 0.46728677 18.116138
0.87234026 0.6857717 0.45385888 16.606125
1.2462586 0.68308759 0.44301555 13.08975
-2.0396085 0.75271845 0.43949449 16.047251
-1.9778693 0.78963369 0.46012181 15.271
-1.8161552 0.77530074 0.4565179 19.054874
-1.2268019 0.72355747 0.44794711 18.048
0.6649456 0.76743197 0.41809636 19.844749
0.71491897 0.77490526 0.43743631 18.084999
0.84319991 0.77484512 0.42199484 18.433167
0.96834749 0.70241737 0.42958969 16.10725
-2.0135734 0.85427594 0.43808761 17.212084
-1.9033871 0.85978174 0.47206104 18.048626
0.6134004 0.89444852 0.48187846 23.103251
0.73143196 0.8869431 0.46073076 19.584999
-2.0299296 0.94817322 0.46338993 18.79775
-1.9457957 0.97095728 0.45562792 19.690216
-1.7915944 0.94623888 0.46057457 18.04175
0.74315286 0.96552521 0.46652412 21.928291
-1.9705136 1.0733852 0.45057574 19.542
0.74954629 1.0254203 0.40668026 22.086
1.7846631 1.0433795 0.42430457 15.093
-2.0012872 1.1354049 0.46631169 19.04125
-1.9710186 1.1180606 0.46647617 19.708834
-1.8601105 1.1374927 0.45848382 20.5415
-2.0787225 1.2194341 0.45664296 21.0415
-1.8473113 1.2511604 0.47300485 22.54175
-1.9606161 1.3442028 0.47067675 22.291874
2.441715 1.6866096 0.46727303 18.094999
-1.8075039 -0.15232088 0.51115775 2
-1.8124741 -0.033854045 0.52592874 2
-1.4635235 0.05424013 0.50869179 3.5
0.63286602 0.041735612 0.52394849 2
-1.9278123 0.15696341 0.57223964 5.4545455
-1.7865093 0.17093651 0.52391869 9.0555
-1.4765079 0.18944079 0.51085013 10.0575
-1.0211504 0.19813375 0.54803932 7
-1.8251841 0.29249668 0.52890468 8.0424995
-1.5267911 0.27986866 0.57379633 11.058
-1.9592966 0.37647843 0.57378489 10.884583
-1.8899821 0.32049397 0.588404 8.0430002
-1.7641842 0.36410317 0.54551703 12.056
-1.2982833 0.36148536 0.50686574 10.04775
0.74719942 0.34352118 0.54775745 8.0837498
-2.0378761 0.46126664 0.54676604 9.5419998
-1.9766334 0.44572386 0.55854893 10.028584
-1.6160839 0.48311937 0.55564022 15.05725
0.6706894 0.41045451 0.501728 12.503301
0.80104202 0.46669114 0.58299428 16.428335
-2.0490425 0.51844484 0.54089665 12.883667
-1.7379601 0.53220838 0.58591956 12.0435
-0.92085701 0.52755547 0.53867316 15.053
0.65099752 0.55713516 0.54629266 17.59495
0.75477415 0.53753132 0.53620529 16.599606
0.90815157 0.534168 0.51511711 13.105499
1.0749246 0.55865449 0.56710017 11.087
-2.0709205 0.66031313 0.5704838 14.2985
-1.9602051 0.65977252 0.55383503 14.222688
-1.7255095 0.67083627 0.55517852 14.3765
-1.6649916 0.63440174 0.57474643 17.057251
0.71451986 0.6178683 0.55557323 14.0835
0.84267777 0.66967797 0.54951423 21.096125
0.97603077 0.69931644 0.5182128 16.106001
1.2699285 0.69285965 0.5262444 12.089
-1.949882 0.72214198 0.5722664 14.376249
-1.7649585 0.7320286 0.51626188 17.04925
0.72197407 0.76870835 0.5733459 17.0835
0.81819564 0.77494043 0.53720921 19.1045
0.95408493 0.7888267 0.54686457 17.772165
-2.0359802 0.87412608 0.5908066 16.0425
-1.9328668 0.87706047 0.56356102 16.0425
-1.6565607 0.87551832 0.57251829 22.057501
-1.5974836 0.87346542 0.50184673 22.056999
-1.3730553 0.8756873 0.5392108 20.047501
0.57229447 0.88821727 0.50190878 21.0825
0.676736 0.88239467 0.54209852 21.093124
0.72603577 0.88808465 0.54405284 19.084
-1.9373542 0.92596447 0.54126853 20.555374
-1.8060502 0.97431207 0.56451261 18.542999
0.61121589 0.90767562 0.57807606 23.101749
0.76524407 0.96925092 0.54364932 22.104
1.0947365 0.97756958 0.50953746 18.087999
1.3059607 0.99504352 0.51857114 17.0895
-2.007128 1.0736779 0.57257557 19.042999
-1.9722978 1.0326507 0.55443317 18.361834
0.78481311 1.011349 0.52073234 23.1045
0.80207652 1.0260504 0.58705592 22.60375
1.1171777 1.0798656 0.54948878 20.10675
-2.0072925 1.1508743 0.53334606 19.042
-1.9297653 1.1664144 0.5464294 21.588501
-1.8894069 1.118817 0.57005918 20.02125
-1.7517487 1.1213733 0.50882697 21.044001
-2.103539 1.2491338 0.52151978 21.042
-1.9446665 1.2371424 0.58146894 21
-1.8266751 1.2327579 0.57351685 22.042999
-1.9150705 1.3396993 0.56470966 23.043501
-2.0625572 1.49913 0.59582531 23.0425
-1.4966142 -0.049560271 0.69509917 4
-1.9851108 0.04754262 0.63958865 6
-0.16381417 0.076056294 0.65220475 3
0.2916013 0.042065483 0.61267292 1
0.38161004 0.027666628 0.66975105 0
0.40835547 0.025743242 0.63417596 2
-1.9412407 0.14959401 0.67683566 5
-1.8184824 0.1489321 0.62531912 8.0565004
-1.4827464 0.16596229 0.62774235 9.059
-2.013052 0.2106692 0.6108737 8.7220001
-1.9381232 0.26596379 0.64865875 6.875
-1.5387309 0.28723064 0.62204939 11.0585
0.63850695 0.25024715 0.65742898 8.1005001
-2.0785294 0.32289785 0.65438193 9.0493755
-1.9932101 0.38574088 0.69611531 8
-1.8774416 0.32215208 0.69750804 8.0442505
-1.786021 0.3551715 0.65850544 12.05725
-1.4684026 0.31018275 0.64274657 9.0475006
-1.2610936 0.37614393 0.63561559 10.0495
0.67384416 0.33257711 0.64489496 13.425417
0.89649749 0.36469632 0.64534611 12.844999
1.0920275 0.39131328 0.63782299 9.1052494
-2.0295901 0.46685308 0.66668642 9.6050835
-1.9672791 0.42191786 0.65135431 12.306126
-1.768979 0.4952693 0.67892623 11.0445
0.58657771 0.49349934 0.62877256 19.091
0.67258298 0.42343366 0.60464978 14.555666
0.79781133 0.47733569 0.65440392 12.1025
0.84106725 0.48478368 0.69760191 16.0935
-2.0500693 0.54683304 0.64564002 12.96225
-1.7070695 0.57314491 0.65861803 13.0445
-1.1063733 0.57283819 0.69807291 14.052
0.62292522 0.57691717 0.64919108 18.476805
0.70191801 0.54008728 0.63858926 14.101749
0.92447072 0.51062489 0.67476588 12.1035
1.0859773 0.5759815 0.67365313 11.086
1.1470864 0.5278371 0.6525076 11.1055
-2.0632036 0.66051388 0.64642107 15.274687
-1.9598855 0.62015563 0.65589362 12.0435
-1.7175653 0.66117245 0.65739942 15.676188
0.64625931 0.65402436 0.61603916 20.096748
0.7509408 0.63888502 0.66754019 17.337749
0.8347407 0.64267075 0.61943221 16.85125
0.9884389 0.69558513 0.64171803 15.1045
-1.9718528 0.73945767 0.66661 15.55025
-1.752977 0.75082159 0.69393873 15.04475
-1.1171483 0.79059333 0.6972096 19.052
0.64935172 0.72830409 0.68134308 16.081499
0.72934097 0.73498994 0.67873144 15.5825
1.2824939 0.70496756 0.63644314 12.088
-2.0431433 0.85324931 0.68624735 15.0435
-1.9354062 0.87173092 0.6543082 16.043501
-1.8695191 0.85925937 0.65408486 18.050814
-1.3606701 0.88170183 0.67196846 19.049
0.68626171 0.82205939 0.61991829 20.102001
0.95249242 0.82687581 0.64267182 18.10425
1.0218215 0.84394467 0.66817975 17.1045
-1.9542983 0.96017623 0.67182493 20.056749
-1.7915366 0.99046719 0.64876807 19.044001
-1.666348 0.90791476 0.64424497 21.391666
0.58802509 0.93613505 0.69776386 22.433167
0.70412588 0.95371193 0.6913842 19.082251
1.1199009 0.98355997 0.6258415 18.087
-2.0374413 1.017827 0.61559409 21.05575
-1.9428995 1.0790595 0.6359002 22.056499
-1.8007921 1.0040579 0.6930294 19.0445
-1.5894966 1.0518109 0.65616137 20.046749
0.79907948 1.0290329 0.6393581 22.103001
-2.0087957 1.1908528 0.67550516 20.043501
-1.9335301 1.1121291 0.63050914 19.544001
-1.8774785 1.1470348 0.65853769 20.362749
-1.6739967 1.1634003 0.66117883 21.796124
0.76376665 1.1021556 0.6927681 21.083
1.1282411 1.1333795 0.67985988 20.605249
1.5059344 1.1933863 0.60738707 18.09
-1.8502403 1.2387252 0.63678801 21.355335
0.81009316 1.2649758 0.67787385 23.08375
