# .PCD v0.7 - Point Cloud Data file format
VERSION 0.7
FIELDS x y z intensity
SIZE 4 4 4 4
TYPE F F F F
COUNT 1 1 1 1
WIDTH 630
HEIGHT 1
VIEWPOINT 0 0 0 1 0 0 0
POINTS 630
DATA ascii
-1.7418063 2.4799237 -3.7217257 20.01
-1.9650096 2.5016737 -3.4024045 21.011999
-1.3047645 2.5212572 -3.3479328 23.008499
11.492036 1.9563601 -2.9608693 8.1137505
9.3324757 2.0848842 -2.7077465 9.1145
10.175833 2.002733 -2.7282283 9.1140003
11.567143 1.9624941 -2.5541334 8.1129999
8.6035585 2.1451592 -2.5199683 10.1145
8.6927299 2.1027126 -2.3369052 10.114
9.6975193 2.0556116 -2.2687814 9.1132498
8.9799137 2.0894737 -2.1013005 10.11325
10.832026 2.0352845 -2.1662977 8.1125002
7.2317333 2.1714478 -2.1180327 12.1145
10.479115 2.0123322 -2.0605905 9.1125002
6.2657018 1.7808099 -1.9084898 11.11475
11.276767 1.9709435 -1.967954 8.1120005
10.496876 2.0425494 -1.857715 9.1120005
7.4768705 2.1570127 -1.8240474 11.446834
9.0778542 2.13027 -1.8043824 10.1125
6.2839589 2.2097166 -1.8279203 13.114499
7.8087983 2.1565104 -1.7451272 11.113
5.525032 2.202035 -1.715991 14.7149
5.0211673 2.3325071 -1.7111888 16.115499
0.64288175 1.2584774 -1.671621 22.468918
4.9523392 2.4283209 -1.6710221 17.115499
0.74795985 1.2533227 -1.5180529 23.133499
10.167477 2.0635698 -1.5672768 9.1114998
7.9045811 2.1194363 -1.5830973 11.1125
8.9232512 2.1378877 -1.567979 10.112
5.6241941 2.2429802 -1.5118347 14.114
5.0153275 2.3455377 -1.5256623 16.61475
0.76255596 1.0192419 -1.4410559 20.910557
19.381624 1.0623165 -1.4202136 4
3.8723741 2.3786378 -1.4552439 19.616249
19.513577 1.068844 -1.367318 4
0.80970234 1.1405416 -1.3685145 23.13175
19.533039 1.6280737 -1.3698585 5
19.635324 1.6662824 -1.3144087 5
9.9232779 2.0973086 -1.3046104 9.1110001
6.5680909 2.1801658 -1.3809781 13.11275
7.374279 2.1903458 -1.38232 12.11225
8.1620026 2.1157999 -1.3521956 11.11175
8.7167025 2.1325345 -1.3323418 10.1115
5.2758012 2.2993486 -1.3320975 15.780334
6.1491394 2.2667725 -1.3593899 14.113
4.1996031 2.3045082 -1.3794841 18.36525
3.7607558 2.4335411 -1.3519042 20.5159
-1.9742653 0.14698672 -1.2364058 4.5
-1.9651691 0.32092929 -1.2454581 7
-1.9510635 0.57884586 -1.2189381 10.625
-1.9302572 0.68231302 -1.2547815 11.927917
-1.8948613 0.88794726 -1.2043411 15.023
4.6730947 2.3258533 -1.2606521 17.114
3.1223958 2.4360771 -1.2886622 23.117001
5.0341616 2.4238079 -1.2404045 17.113501
-1.9932719 0.22752538 -1.1289467 6
-1.9231551 0.91192883 -1.1701792 15
-1.9008366 1.0422989 -1.1073908 17
3.0686595 2.417871 -1.1556101 23.116249
-1.9624256 0.075838149 -1.0991071 3.2
-1.9625934 0.20906442 -1.0277301 5.5
-1.9741672 0.3707056 -1.0837336 8.0244999
-1.9768649 0.47288334 -1.0943984 9
-1.9494985 0.58947653 -1.0282124 11
1.7597445 0.61089301 -1.080524 12.1206
-1.9554992 0.72241056 -1.0521402 12.5
0.78342897 0.87435657 -1.0899071 21.796333
1.6937068 0.82790232 -1.0523077 15
1.7039129 0.80115193 -1.0688471 15
0.80693692 0.94122303 -1.0534751 23.129
1.655917 0.95534402 -1.0391996 17.454168
-1.9001855 1.0814075 -1.0461031 17.6495
1.5100852 1.0858408 -1.0431538 20.121876
1.5361257 1.141753 -1.0249941 21
1.4066516 1.2341717 -1.0080086 23.12225
10.640375 1.9381505 -1.0414928 8.1102505
10.128376 2.0181384 -1.0039507 9.1102505
8.5890312 2.1357126 -1.0352482 10.11075
4.7676558 2.291966 -1.0612496 17.113001
5.3742728 2.2769907 -1.0460337 15.44575
6.0315046 2.275419 -1.0661607 14.112
7.5102439 2.2045159 -1.0762504 12.11125
3.9939127 2.352622 -1.0701886 19.114
-1.9395576 0.14277156 -0.99515831 5
0.71498042 0.29878944 -0.92307103 10.72885
-0.32794166 0.54446769 -0.9667744 19.0075
-1.9400303 0.66221458 -0.98015738 12.0253
0.74492484 0.63726258 -0.94177061 18.36385
-1.920241 0.98009944 -0.964194 16.454546
-1.8478416 1.3412504 -0.94205642 20.962425
5.944809 2.2566223 -0.9150089 14.1115
3.1459999 2.3968742 -0.99712259 23.115
4.1910415 2.3077986 -0.98105395 18.613249
4.9159102 2.3085001 -0.90425926 16.778833
3.3392076 2.4452412 -0.96300203 22.685856
3.774801 2.4457445 -0.96973199 20.86375
-1.9111984 0.57708299 -0.84204668 11
-1.9120938 0.66338181 -0.83736223 12.5
0.83364737 0.63275796 -0.81637532 18.62575
-1.9328216 0.94270718 -0.88269538 16
-1.8934166 1.1506709 -0.86043692 18.666666
-1.8779424 1.2425737 -0.85859013 20.5
-1.963406 0.0041578338 -0.7255429 2
0.75278777 0.31320399 -0.77992237 11.9264
0.82754487 0.42620152 -0.79478312 14.1255
0.75878584 0.53829283 -0.7886731 17.459749
-1.8875196 0.77205229 -0.7814129 14
-1.8899883 0.85957986 -0.71107149 16
-1.8670173 1.2744026 -0.71860892 21
-1.857653 1.3226452 -0.72344112 21.5
8.6782761 2.1286747 -0.75354421 10.11
3.1812332 2.4046485 -0.70228899 23.113001
-1.9451489 0.517102 -0.65585029 10.5
-1.9326843 0.61549062 -0.60027856 12.066667
-1.8926516 1.0163995 -0.6945284 17.874115
-1.8978267 1.1662275 -0.68796951 20
-1.8374573 1.3351793 -0.60587639 22.171572
10.084812 2.0204308 -0.65999812 9.1094999
7.2921214 2.1605582 -0.64032978 12.110001
5.8047986 2.2411265 -0.63618839 14.6105
3.413929 2.3974524 -0.67118323 22.112499
4.1993656 2.3225725 -0.60418999 18.944582
4.9904056 2.3245289 -0.65880644 16.861
-1.9579431 0.18434866 -0.59508175 5.3125
-1.9440672 0.37431315 -0.56554115 8.0295
-1.9465051 0.47638747 -0.55947447 10.029625
-1.862021 0.97573698 -0.57478714 17.846153
-1.8410804 1.0889097 -0.54332584 19.5
11.296695 1.9033346 -0.5100987 8.1090002
8.9337292 2.1207242 -0.58727998 10.1095
4.5278883 2.2730224 -0.59302872 17.777666
5.2319031 2.2995975 -0.58077735 16.1105
3.1495991 2.3774767 -0.55633563 23.112
3.4295709 2.4264612 -0.56915969 22.445084
3.7509234 2.4304006 -0.5756793 21.1115
-1.9531572 0.032055512 -0.49635318 2.5
-1.7912701 1.1877428 -0.47467324 21
9.9671679 2.011106 -0.41385669 9.1090002
-1.8658396 0.83356696 -0.37211591 16
8.777297 2.1250186 -0.38454551 10.109
3.2345648 2.3573089 -0.36012626 23.1105
-1.9108838 0.11859328 -0.29868919 4
-1.9273951 0.29235759 -0.248882 7
-1.8961858 0.22057235 -0.21712485 6.2142859
-1.9056172 0.59078997 -0.2215905 12.071428
-1.8574438 1.0206966 -0.21285492 18.766644
-1.8009243 1.2246118 -0.29178298 22
-1.7818968 1.2844856 -0.26192677 22.79425
11.612217 1.889153 -0.2651507 8.1084995
10.38261 1.9753054 -0.24555704 9.1084995
5.8015375 2.2095878 -0.21304117 14.442166
6.6622462 2.2132287 -0.22089307 13.108749
3.4503226 2.4364045 -0.20868777 22.609375
3.8689849 2.4285307 -0.21500836 20.859251
-1.8944427 0.35414991 -0.19729318 8.7003336
-1.9111261 0.54581678 -0.19469836 11
-1.8877733 0.54687446 -0.12419775 11.605964
-1.7964326 1.2519217 -0.14461392 22.4
7.0924864 2.1134737 -0.16287832 12.1085
8.8193054 2.1262224 -0.19030491 10.1085
4.2755537 2.2990761 -0.18763284 18.608999
4.6208348 2.2609732 -0.13731408 17.441999
5.0355935 2.2821214 -0.14258057 16.608625
5.3947077 2.2630229 -0.14398907 15.5086
3.9391522 2.3863528 -0.15312186 20.358875
-1.8425269 0.92091697 -0.078751802 18
9.7185812 1.9920442 -0.0014819285 9.1079998
7.6796265 2.1423476 -0.0870139 11.10825
-1.8474127 0.15153824 0.0070439819 5
3.9512033 2.3762176 0.086815 20.1075
-1.734827 0.057294697 0.14582103 3.5
-1.77877 0.19434293 0.14322464 5.8947368
-1.7619216 0.33600333 0.17322107 8.4383001
-1.8091363 0.5839293 0.18429179 12.5
-1.7983413 0.59664279 0.12672903 13
-1.8075887 0.61217374 0.1558691 13.038
-1.7994902 1.0755028 0.15642126 20.180859
-1.7630531 1.2450242 0.12994273 22.4
8.7865009 2.1077142 0.1030854 10.10775
4.4436097 2.2652578 0.19529414 18.107
5.774498 2.2032666 0.19246879 14.10725
-1.5283904 0.42229232 0.28621873 11.04025
-1.7658075 0.65897489 0.22583267 14
-1.7972111 0.98311561 0.20942822 18.708334
-1.7408797 1.2362654 0.2674371 22.539501
10.564465 1.9332463 0.22149037 8.1075001
9.7343235 2.0033944 0.21528041 9.1075001
7.7792401 2.1379471 0.25173083 11.10725
5.0116882 2.2754922 0.21721311 16.607
5.5576835 2.2371483 0.23706327 15.106999
4.1057734 2.3345182 0.24137828 19.535215
3.4752882 2.4708202 0.21490723 22.820858
3.6618721 2.4567072 0.24371211 22.106501
-1.7027321 0.10443578 0.31426689 4.3333335
-1.5440475 0.36673972 0.30638006 9.5404997
7.09372 2.1148574 0.30317369 12.107
8.8309212 2.101831 0.38406363 10.107
6.1959157 2.2021046 0.33939901 13.60675
-1.7194948 0.4744916 0.49795613 11
7.4793658 2.1604342 0.49512184 12.1065
-1.6573029 0.22375363 0.59590012 7
-1.5134772 0.33893636 0.53070384 9.0437498
-1.4754925 0.34950042 0.52582002 9.5
-1.7105216 0.56302625 0.58371735 12.243534
-1.5257022 0.58421916 0.53345412 13.758
-1.7055866 0.95499766 0.58480662 18.281668
-1.6783372 1.2869005 0.50838059 23.042749
6.1926422 2.1934719 0.53855044 13.772667
8.0821018 2.1024768 0.51706451 11.1065
4.559382 2.2476606 0.59575838 17.105
5.1314778 2.2586327 0.59842581 16.105333
5.6727519 2.2292745 0.55263245 15.10575
4.1214833 2.3057506 0.56906629 19.104834
3.7661836 2.4001915 0.57350814 21.1045
-1.6564782 0.19234338 0.64315563 5.9230771
-1.677775 0.33980599 0.61145163 8.5439997
-1.7066244 0.57694066 0.61592805 12.571428
-1.7050244 1.0122947 0.60370892 19.200001
-1.6516216 1.2514888 0.60547662 22.5
6.4311728 2.1560907 0.63134938 13.10575
4.2066755 2.2655118 0.65973473 18
3.469507 2.3920901 0.64582789 22.10375
3.8344972 2.3877752 0.65587074 20.604126
3.9768429 2.361212 0.66643363 20
4.0753069 2.3280787 0.63731897 19.25
3.4003406 2.4029658 0.60464633 22.604
-1.5977707 1.1742035 0.75784117 22
-1.5951493 1.2528183 0.7909224 22.773251
7.1112962 2.1281412 0.7017222 12.10575
5.3871531 2.2408233 0.70381582 15.605
-1.6523383 0.34816509 0.83189082 8.5233746
-1.6581162 0.47150946 0.85131502 10.5
-1.6335716 0.95621347 0.89623767 17.8475
-1.6047615 1.2330946 0.8252309 22
6.5666685 2.1489449 0.85470718 13.105
4.6777091 2.2704587 0.87502545 17.10375
3.0491221 2.3272448 0.88541234 23.1015
-1.6169158 0.2235906 0.98843378 6.2142859
-1.6331499 0.63862842 0.94259632 13.090667
-1.6204655 0.98740745 0.91318321 18.444445
-1.5178995 1.2651861 0.98155415 22.5
6.1952152 2.1964808 0.9580763 13.6045
6.8916426 2.1826663 0.92041552 12.105
4.1645298 2.2653272 0.95170969 18.531429
5.6577053 2.2058175 0.99329245 14.604
3.8415749 2.3651214 0.95612973 20.302401
-1.604344 0.050280817 1.0245268 3
-1.5568377 1.003598 1.0552745 18.384615
-1.4732451 1.2795918 1.0751755 22.49489
4.9811258 2.2676997 1.0574563 16.503201
3.6882496 2.4149363 1.0160829 21.101831
-1.5878768 0.19511062 1.1105964 5.7777777
-1.5602713 0.38233906 1.145524 9.0504999
-1.5815989 0.61480469 1.1381729 12.5
-1.5183619 1.0629797 1.1200279 19.337749
-1.4538465 1.2822298 1.1240331 22.666666
5.379931 2.2397065 1.1269878 15.103251
3.5142543 2.4401636 1.1082077 21.601
-1.5199287 0.7299338 1.2199345 14.0515
-1.4463943 1.1740214 1.2035676 21
5.6962395 2.2116735 1.2651453 14.103
3.1496785 2.4142904 1.298867 23.099001
3.2275212 2.4187624 1.2592783 22.099501
-1.4140266 0.9705714 1.3872955 17.277779
-1.4544518 1.0427361 1.3082043 18.598228
5.6248975 1.6603593 1.3649176 12.1025
5.5183082 2.0779493 1.3689235 14
5.4256816 2.1746786 1.3853061 14.666667
4.5980773 2.280457 1.3430774 17.1015
4.9542165 2.2683811 1.3687859 16.3018
5.4104133 2.2454679 1.31453 15
3.7766378 2.3555534 1.3741806 19.975
-1.4869153 0.18910831 1.4168371 5.3809524
-1.4552031 0.60879523 1.4359289 11.863636
5.3440323 0.97531003 1.4220676 8.1020002
-1.3554683 1.0958563 1.47602 18.666666
5.1124649 1.2772377 1.4947964 10.1015
5.4714136 1.2416558 1.4054962 9.6022501
-1.3641448 1.3708928 1.416558 22.327137
5.4113889 1.650318 1.4407936 12.102
5.4788804 1.9420431 1.411273 13.25
5.4462571 2.10501 1.4174097 14.102166
2.6637857 2.2631128 1.4547105 23.0965
4.1736884 2.2548907 1.4337707 17.93375
3.0469923 2.3705854 1.4417431 22.597876
-1.4167428 0.0032473654 1.5445248 2
4.5053039 0.13221948 1.5473351 3.5
4.4782081 0.20153587 1.5667983 4
4.4806504 0.34486002 1.5454396 5
-1.345677 0.97130823 1.5538833 17
4.479672 0.95100504 1.5724555 9.1002502
-1.3288363 1.2060874 1.5927147 20
4.3890114 1.2076179 1.5924304 11.1
4.5762353 1.2207209 1.5622183 11.1005
5.0151443 1.7012514 1.5368441 12.767833
-1.3412429 0.067800336 1.6908751 3.5
4.2575512 0.22940035 1.6949545 4.1666665
4.4036508 0.22665714 1.6166418 3.5
-1.3051877 0.50377131 1.6952614 10
-1.309046 0.69749349 1.657957 13
-1.3224812 1.1270266 1.6375673 18.5
-1.3118045 1.2198478 1.6170859 20
-1.2583836 1.3586771 1.6998907 21.257401
4.3061471 1.4678924 1.6365089 12.5
4.4121833 1.5085754 1.6050329 12.6
4.2665634 1.6137146 1.6402963 14
4.1633387 1.7848402 1.6806926 14.833333
4.203114 1.8331552 1.6418626 15
4.111867 1.9337338 1.6875973 16
4.7524843 1.9812185 1.6038095 15.1005
4.0852757 2.2110281 1.6971365 18
4.2653952 2.2509274 1.6615429 17.099501
4.7701478 2.2497303 1.6116009 16.1005
3.8046052 2.3316617 1.6248361 19.598751
3.3818088 0.077311441 1.7581999 3
-1.3317032 0.17700087 1.7519189 4.9333334
4.1732588 0.15673275 1.7407514 3.5
3.4030237 0.23925027 1.7656784 4
-1.2995932 0.30468795 1.754723 7
4.1799264 0.31879929 1.7481967 5
4.0856094 0.75058186 1.7810348 8
4.21878 0.7563771 1.7444428 8.099
4.0439558 0.85859656 1.7980366 8.666667
4.1560674 0.87822556 1.7793136 8.7993755
-1.3024117 0.90935564 1.7447518 15
-1.2756258 0.97649801 1.7749581 16.09091
-1.2786169 1.0438466 1.7464839 17.307501
4.1412573 1.3794919 1.7394745 12
4.0857363 2.0616467 1.7165331 17
4.041286 2.174345 1.7203809 17.666666
2.6038048 2.2895818 1.7015548 23.094749
3.1878753 2.3910499 1.7483591 22.0965
3.0207348 0.090380177 1.8485298 3
3.0537229 0.26931491 1.8667307 5
3.3703256 0.21407993 1.8012116 4
-1.2799163 0.58464324 1.8210133 10.814751
3.2217813 0.69731456 1.8676478 8.0959997
3.0375381 0.7656123 1.884182 9
3.9250886 0.76162165 1.8249326 8.0979996
4.0006509 0.7579267 1.8124149 8
3.3530543 0.80494469 1.8373616 9.0965004
3.0413296 1.0136981 1.8902775 11.59525
3.7974486 1.2630523 1.885832 12
4.0151358 1.251578 1.8140483 11
3.7997434 1.4592201 1.885641 13
3.8639739 1.4914898 1.8655704 13.25
3.748143 1.7679152 1.8995233 15.5
3.8708124 1.7740923 1.8401655 15.333333
3.7763262 2.2091982 1.8054984 18.363636
-1.2551713 0.13293219 1.9386499 4
2.9732373 0.19338907 1.9075969 4.2222223
-1.26062 0.27437258 1.9407457 6
-1.2509322 0.4875004 1.9381901 9
2.9327722 0.46185273 1.9461457 7
2.9402182 0.56276178 1.9353257 7.5
-1.2418774 0.68197405 1.9131395 12
2.9229934 0.63699579 1.9193579 8
2.7983031 0.703107 1.9932601 9
2.8881171 0.89583969 1.9391342 10.5
-1.1730895 0.95544618 1.9665561 15.5
2.775059 0.97764564 1.9791672 11.5
2.9260712 0.98687047 1.9377224 11.333333
-1.1741619 1.0667173 1.9519435 17
2.8014863 1.0790865 1.9520711 12
2.7234147 1.1748706 1.9759691 13
3.0692744 1.1852653 1.9007994 13
3.085283 1.2978361 1.9055544 14
2.6589344 1.3727903 1.9737569 15
2.9193726 1.3189844 1.9493245 14.142858
2.7686121 1.4376575 1.9731586 15.5
2.945585 1.4160508 1.9342644 14.761333
3.0826085 1.433673 1.914546 15
2.7183695 1.5799044 1.9855794 17.0935
3.745364 1.5409169 1.9133427 14
3.6670144 1.6857708 1.9108728 15.097
2.818475 1.8200486 1.9817909 18.094
3.4482007 1.8803681 1.9855397 17.096001
3.5591593 1.9345216 1.9765452 17
3.5231302 2.1393716 1.9689609 18
3.4433985 2.2410676 1.9864233 19.096001
3.5365109 2.2733459 1.9377685 19
3.3443801 2.4238734 1.9833692 21.095751
3.4429908 2.4177749 1.9094663 20.5
2.7095337 0.0058089029 2.067641 1
2.8109269 0.16720541 2.013442 4
-1.2126323 0.27968618 2.0213742 6
-1.2161995 0.4567613 2.0179811 8.5
2.8131387 0.57982409 2.0090508 7.6666665
-1.1477972 0.95909238 2.0538635 15.020125
2.6935594 1.2335228 2.0080979 14
2.5636318 1.3650508 2.0563672 15.375
2.7446544 1.5321726 2.0165522 16.0935
2.4591336 1.7239337 2.0612118 18.841999
2.3068871 1.8020451 2.0920553 20
3.1238382 2.1958406 2.0552962 20.094666
2.6059036 2.2296813 2.0646281 21.87039
3.1405804 2.4452221 2.0067523 22.094999
3.2215774 2.448657 2.0449772 21.094999
-0.96702135 0.080118358 2.1935682 3
2.5753441 0.18823466 2.1519387 4
-1.0506545 0.22454786 2.1657062 5.3076925
-0.99020445 0.22101824 2.1674483 5.5
-1.138256 0.31664249 2.12816 6.5
-1.1421108 0.57398748 2.1355019 10.166667
2.5995057 0.59777123 2.1355891 8.1538458
-1.1081423 0.74129999 2.1719658 12.5
2.5461681 0.96534133 2.1300848 11.615385
2.3411191 1.5147343 2.12954 17.5
2.3208227 1.6743695 2.1072605 19
2.1330371 1.7663727 2.1934671 19.444445
2.3090577 1.8271137 2.114887 20.091
2.0945566 1.9357219 2.1622052 21.5
2.2016194 2.2345452 2.120307 22.8904
-0.55812812 0.031355638 2.2744265 3
1.8237631 0.085671194 2.2337425 3.5
2.122632 0.024883309 2.266113 2
2.3465714 0.011482108 2.2321198 1
-0.97472584 0.10633658 2.2237697 4
2.2135789 0.16068175 2.2642696 3.8
1.9130394 0.20140225 2.2630188 4.5
1.8675164 0.32111496 2.2697716 5.5
-1.0956532 0.48489618 2.2622249 9
-1.029403 0.55758113 2.2000413 9.7286673
2.1298404 0.50761974 2.2950141 7.5
-1.107573 0.63060403 2.2209423 11
2.2148659 0.61667037 2.2954164 8.5555553
2.22017 1.033654 2.287034 12.6
2.2215266 1.3812411 2.2396958 16
-1.3033309 1.8943596 2.2074022 23.05975
2.0215039 1.8478301 2.2358382 20
1.7741797 2.1116691 2.2613344 23.08725
2.150914 0.25298914 2.3082459 5
1.713871 0.55905914 2.3095989 9
1.7232313 0.66531646 2.3234072 10
1.8476132 0.65987492 2.3266983 9.5714283
1.7625664 0.70676702 2.3354797 10.336813
1.8811592 0.77095062 2.3587003 11
1.7843063 0.85466039 2.3788159 11.83675
1.8681078 0.88170397 2.3691502 12
1.9383483 1.0288265 2.3839662 13
1.8998939 1.3893324 2.384047 16.6
1.8567188 1.7849733 2.3291495 20
1.8375217 1.8338193 2.326149 21
1.5896058 2.0675225 2.369276 23
1.6159002 2.0089025 2.3850985 22
-0.00099778222 0.021545418 2.4757118 3
1.6822493 0.99926943 2.4251587 13
1.6904969 1.1356246 2.4411457 14.5
1.7770114 1.1181355 2.4887443 13.875
1.6751028 1.2653072 2.4536321 16
1.6766218 1.4795196 2.4843318 17.335627
1.7086383 1.5013545 2.4379921 18
1.7589241 1.6657184 2.4201701 19.333334
1.6438309 1.7509073 2.4523826 20.085501
1.7082291 1.7735001 2.4049106 20
1.6172901 1.8158292 2.478955 21
1.5888574 1.9979653 2.4066114 22
-1.2251898 2.0197899 2.4884748 23.061501
-1.1325326 0.64072067 2.5671735 10.0625
1.7413955 1.4140357 2.5071025 16.727272
-1.206115 1.8717077 2.5778952 22.062
1.6335862 1.4946086 2.6113441 17.5
-1.2170175 1.5957586 2.6067567 19.062
-1.1513925 1.955231 2.6919141 22.06275
-1.1411976 2.0282114 2.6545203 22.729334
-1.1964595 1.2384481 2.7180557 15
-1.1750731 1.3150172 2.7245748 16
-1.1471717 1.4298441 2.7827454 17.0315
-0.31398562 0.24941614 2.8836112 5
-1.1515 1.350529 2.8493364 16
1.0542045 2.2964928 2.8950801 23.08
-1.1172638 0.68729168 2.9989831 9.3971672
-1.1075532 0.93469965 2.9568992 11.813749
1.7008836 0.991359 2.9409678 12.084
-1.0982369 1.1155844 2.9790723 13.5
-0.94325912 2.1828609 2.9918027 22.315001
1.403378 2.3105469 2.9495201 22.748833
-1.0804892 0.95033431 3.0572188 11.5
-1.0431387 1.0553526 3.0961792 12.5
-1.0344768 1.3616484 3.0346215 15.538462
-0.96976924 1.8365268 3.0179641 19.636288
-0.58374631 2.2824566 3.0595341 23.067699
0.44285116 2.2950435 3.0927634 23.075251
1.6481118 2.3339598 3.019954 22.083502
-1.0685303 0.68821269 3.1337559 9
-0.90469682 1.2770308 3.1774001 15
-1.0055152 1.3530234 3.1020801 15
-0.97194928 1.4683547 3.1047051 16.5
0.17056052 2.278481 3.1240997 23.07325
-1.0233908 0.6231373 3.2195683 8.0649996
-0.9590717 0.72229677 3.2993104 9
-0.91260332 1.0233078 3.2918444 12
-0.8977977 1.2783377 3.2548048 14.5
-0.88503587 1.6154727 3.2720485 17.066
1.6126225 2.3495212 3.2678313 21.0825
-0.89883465 0.19813499 3.396992 4
-0.93717039 0.2667751 3.3704858 4.833333
-0.90841925 0.57348531 3.3734491 7.625
-0.87809098 1.0710452 3.3234541 12.5
-0.85831237 1.2264084 3.3596127 14
1.8573778 1.3954506 3.3002977 14.08375
-0.89106977 1.4994016 3.3205276 16.066
-0.14576854 2.3382988 3.3645015 22.070999
0.094766632 2.3085098 3.3164001 22.739334
-0.86552399 0.23865843 3.4647753 5
-0.87994593 0.46184739 3.4177196 6.5
-0.85194713 0.70564651 3.4364769 8.5
-0.85427624 0.88808095 3.4148085 10.5
1.1438224 2.3630352 3.4793043 21.07925
1.4780855 2.360903 3.4682493 21.081249
1.8411521 0.69020784 3.5504012 8.0830002
1.8467265 0.97730243 3.5408008 10.5
1.8671577 1.0161946 3.5408309 11
1.8542192 1.26004 3.5425014 12
-0.57532501 2.3596065 3.5146174 21.818249
0.71414304 2.3862576 3.5688012 21.5765
1.8815277 0.78230304 3.6151695 9
0.079646155 2.3889492 3.6437407 21.5725
0.72916031 2.4121597 3.6855838 21.0765
-0.8258568 2.3719401 3.7181563 21.066999
1.4181355 2.3254704 3.7963181 19.5802
-0.32847747 2.4023318 3.7204316 21.07
1.7924919 2.2692578 3.8051596 18.748751
-0.65028423 2.3780487 3.8290832 20.734833
-0.25390255 2.3829007 3.8530078 20.6705
1.0237181 2.3528092 3.8162482 20.078001
2.1441255 2.2494969 3.909817 18.0835
0.47226641 2.3784065 3.955384 20.074749
1.9918185 1.5633106 4.062088 13.0825
1.843161 1.7275927 4.1552854 14.367286
2.1434162 2.1523039 4.1085672 17.083
0.12492216 2.2913592 4.1989326 19
0.97446197 2.2608082 4.1488056 18.505856
1.3112079 2.2319016 4.1497202 18.079
-0.68526042 2.3523996 4.1301069 19
0.11065082 2.3199723 4.1414299 19.5
0.596048 2.3058486 4.1358318 18.93243
1.5689594 1.6763406 4.292376 14.08
-0.71959329 1.8241246 4.2700248 15.5
-0.56545085 1.8007469 4.2981 15.569
-0.38190749 1.8500508 4.2551637 16.07
-0.69224834 2.1554613 4.2783947 17.5
-0.67188597 2.2055013 4.2439127 18
-0.57842022 2.2904146 4.2407761 18.568874
-0.20080127 2.2820926 4.2459006 18.642355
0.18480243 2.2839322 4.2088971 18.739668
1.8245091 2.2023523 4.2011127 17.281399
0.17682672 2.246176 4.3052921 18
-0.58325565 2.2225423 4.4798794 17.069
1.4386959 2.1596053 4.5657039 16.412333
-0.20362054 2.2285633 4.5257273 17.070999
0.89770621 2.2380717 4.535121 17.0765
0.19460802 2.1985486 4.6377001 17.073
1.6726556 2.1270671 4.6113968 16.08
0.62525457 2.2958243 4.7031054 17.408333
-0.21415263 2.2225366 4.8840075 16.570999
0.15529908 2.2412915 4.9470344 16.272701
1.2001147 2.2196019 4.9162478 16.077499
-0.55885559 2.0064971 5.0509758 15.0695
0.64573526 2.2096868 5.0917287 15.874899
0.99379611 2.2171245 5.0035796 16.0765
-0.56838661 1.2158142 5.1528597 10.0695
1.9845982 2.1725688 5.1076832 15.0805
1.0452107 2.1908088 5.2515116 15.0765
1.7794216 2.1751907 5.3801999 14.412666
-0.12098794 2.2098484 5.3412819 15.0715
0.18322347 2.1829746 5.4807448 15.07275
0.53146094 2.1871443 5.4101896 15.07425
1.4586586 2.178597 5.452137 14.578
-0.35582724 1.618377 5.5565634 12.0705
1.2597858 2.1589341 5.6337605 14.077
0.19155772 2.1416306 5.7502346 14.07275
0.63016778 2.1691556 5.7389874 14.0745
-0.64997399 2.1439242 5.8794045 14.0695
-0.25157863 2.1485755 5.8034606 14.071
1.0626209 2.1227345 5.8177834 13.826125
-0.13612336 2.1121821 6.0451517 13.0715
0.86696231 2.1087556 6.0675378 13.07525
2.1583393 2.0935006 6.1374445 13.07975
0.68146622 2.1210039 6.2416191 13.0745
1.5030341 2.1174836 6.2044392 13.0775
-0.0022697791 2.1637688 6.3436236 13.072
1.6999093 2.1004379 6.3122458 13.078
0.19073622 2.0921593 6.5488987 12.739334
1.7602882 2.0722742 6.5294228 12.078
0.58170217 2.0472646 6.653306 12.407333
1.0304556 2.0166187 6.6586361 12.0755
1.3923283 2.0297065 6.6394911 12.07675
2.1618731 2.0939977 6.6029716 12.07925
2.4568183 2.0583887 6.7603121 11.58
-0.0024205609 2.0348399 6.8021235 12.072
2.1481411 2.0235145 7.0907779 11.078751
-0.0025410752 1.3341597 7.1685863 8.0719995
-0.00256048 0.46133867 7.2276001 4
-0.0025813046 1.4598134 7.2909169 9.0719995
-0.0025563736 1.8985604 7.2151055 11.072
1.8224499 2.0200994 7.4334216 11.077499
0.98907465 2.038414 7.5138664 11.075
0.5838185 2.0382328 7.6817546 11.07375
1.5404725 1.9994065 7.7137036 11.0765
0.34249675 2.04901 7.7512283 11.073
1.3829286 2.0008795 7.8299069 10.076
2.1250844 2.0067778 7.9140692 10.078
0.98697108 1.9721143 8.1424103 10.07475
0.36640516 2.0327673 8.2963123 10.073
2.8800151 1.9262565 8.4391298 9.0795002
0.570714 2.020102 8.5850172 10.0735
2.6389747 1.9158782 8.7402554 9.0787506
2.4134638 1.8714908 9.0165014 9.0780001
2.1064007 1.8528757 9.5296497 9.0769997
0.95180577 1.8692274 9.6545134 9.0742502
1.3698658 1.8639543 9.6383181 9.0752497
2.3588915 1.8685442 9.6474428 9.0775003
3.0709605 1.8722881 9.7002878 8.0790005
1.7653415 1.9037192 9.9260139 9.0760002
1.0920943 1.8868282 10.017352 8.0745001
1.5778214 1.8713686 10.139232 8.0754995
1.7742416 1.8516701 10.133902 8.0760002
3.0021546 1.7794921 10.269653 8.0784998
2.532939 1.7508181 10.372915 8.0775003
2.0390387 1.8552839 10.300615 8.0764999
1.3886007 1.7946769 10.443024 8.0749998
2.2990978 1.840872 10.412324 8.0769997
2.8447793 1.8162502 10.552837 8.0780001
0.94139963 1.7842126 10.634857 8.0740004
3.3694267 1.6884946 11.534652 7
2.5778081 1.7587306 11.701195 7
2.8438563 1.5982004 12.775589 6
3.9458466 1.5411875 13.537324 6
4.9828095 1.3469387 17.057495 5
