# .PCD v0.7 - Point Cloud Data file format
VERSION 0.7
FIELDS x y z intensity
SIZE 4 4 4 4
TYPE F F F F
COUNT 1 1 1 1
WIDTH 451
HEIGHT 1
VIEWPOINT 0 0 0 1 0 0 0
POINTS 451
DATA ascii
-1.3944224 2.8764753 -4.40698 21.007
-1.6683062 2.8715007 -4.1104074 21.342169
-1.4251956 2.8831608 -4.1801438 21.5075
-1.6900824 2.6111288 -3.7089527 21.00975
-1.1123445 2.9116261 -3.9717379 22.50625
-1.7051438 1.2747418 -3.3612337 13.01075
-1.7095966 2.2982445 -3.3751535 20.01075
-1.6878157 2.4596448 -3.3141923 21.51075
-1.7028862 0.74567276 -2.9476686 9.6786661
-1.6959325 1.0380282 -2.9345031 12.512
-1.5625887 0.82899553 -2.8444164 10.5115
-1.6954454 1.3721685 -3.0105538 15.011749
-1.6909808 1.6976084 -3.0321805 17.344999
-1.6919801 2.2444482 -2.9343584 21.512001
-1.6802415 2.4689753 -3.0599182 22.511499
-1.7119268 0.59886789 -2.5088215 8.8191252
-1.6748414 0.97276509 -2.5497935 12.727571
-1.6825148 1.4728479 -2.5789096 16.904402
-1.6815429 1.9710314 -2.6930676 21.012751
-1.6993885 2.1026008 -2.5720484 22.263374
-1.6947453 0.28166717 -2.0860202 5.75
-1.7037153 0.57845944 -2.2569268 8.8622856
-1.5863732 0.72108763 -2.219543 11.01425
-1.7163507 1.0017095 -2.1887608 13.640249
-1.6955837 1.4195455 -2.2246799 17.807344
-1.6885816 1.7864336 -2.1914515 21.348391
1.1034794 1.6167217 -2.0748863 22.13275
-1.6816711 2.0305653 -2.2912619 23.0145
-1.7007675 0.29337808 -1.7733287 6.1666665
1.0024734 0.34017432 -1.6536145 8.1315002
-1.7049987 0.5717178 -1.7463081 9.9384422
1.1094279 0.56794274 -1.7417687 11.330999
1.2938203 0.70489454 -1.8128024 12.62975
-1.7026078 1.0342656 -1.6916577 15.686125
1.3732432 1.1528769 -1.7135773 18.1285
-1.7029691 1.2907082 -1.723807 18.380688
1.1719117 1.5186172 -1.8131804 22.797501
1.2340434 1.5836444 -1.7576733 23.129999
-1.6817762 1.7190413 -1.80716 22.572721
-1.6861632 0.37285158 -1.3383532 8.2706251
1.0262887 0.31409609 -1.4311337 8.4630003
-1.7045143 0.72658265 -1.3661623 12.847171
1.0731326 0.60532391 -1.4099498 13.395701
-1.7116661 1.0010248 -1.3922954 16.450951
1.0843126 1.011117 -1.393973 19.590345
-1.6875788 1.3761983 -1.4597585 20.557514
1.0944146 1.2516358 -1.4327523 22.629002
-1.6543274 1.622375 -1.4494282 23.019501
-1.7038718 0.24406576 -1.045473 6.3296571
1.0115714 0.30551779 -0.99701506 9.7090836
-1.7015251 0.58316952 -1.0150633 11.817913
1.0311238 0.59463799 -0.99704331 15.411233
-1.7150116 1.0098809 -0.95160753 18.057137
1.0482451 0.94626027 -1.0114594 21.493919
-1.6809138 1.2954621 -1.0072726 21.55603
-1.7254353 0.22747748 -0.54091161 6.5258398
-1.1064627 0.059222907 -0.43097743 4
0.92478412 0.29754913 -0.56167567 11.281693
-1.7636833 0.64872819 -0.58411491 13.382843
0.91805017 0.5076822 -0.47636706 17.330528
-1.7532098 0.96710336 -0.6088593 18.031666
1.0247033 0.87155008 -0.74554497 22.5224
-1.7224289 1.2504383 -0.63400835 22.080162
-1.6877121 0.26037556 -0.20829672 7.4875693
-1.2599792 0.047938824 -0.19497252 4
-1.0676324 0.057397008 -0.15372168 4
0.91877151 0.36152959 -0.23248462 14.583592
-1.7097813 0.62655246 -0.24076378 13.824648
0.90878332 0.49599791 -0.20416296 18.433004
-1.7364945 0.9717046 -0.18790098 19.161552
-1.7347162 1.2663974 -0.32127845 22.831799
-1.6811161 -0.0060064346 0.09749113 2
-1.5128194 -0.0082977414 0.20255323 2
-1.7062494 0.23798342 0.25123262 6.9628778
-1.3512185 0.016261339 0.089928396 3
-1.0330999 0.04131509 0.2273536 3.6666667
0.92190558 0.36118028 0.20870461 14.265847
-1.7085012 0.58525592 0.17914072 13.147039
0.91581619 0.50454563 0.22105363 18.479544
-1.7201873 0.98098874 0.26636955 19.279373
-1.7391065 1.2517014 0.27036041 22.595055
-1.6717064 -0.0016894341 0.56938934 2
-1.6963298 0.26373553 0.58557296 7.2547202
-1.3512775 0.022460639 0.70575392 3
-0.92109412 0.029127717 0.66758734 3.5
0.91583365 0.3166016 0.59979761 11.813996
-1.6990432 0.63321596 0.58993089 13.510942
-1.5423713 0.52342308 0.71849316 12.046
0.91169184 0.54923928 0.57821178 17.766047
-1.7250944 1.0301557 0.59326106 19.478664
0.93520051 0.83259743 0.70509696 22.759834
-1.7039964 1.2610238 0.59717798 22.343216
-1.1442478 -0.00036618114 0.88123655 2
-0.6086483 -0.0029643774 1.1699007 2
-1.773523 0.39130676 0.87516481 9.0465002
-1.3972393 0.012213103 0.98746479 2.5
-1.0632162 0.0060461126 1.0474826 2.5
-0.59688133 0.027858853 0.89439982 3
0.90517503 0.31527743 0.87843245 10.163083
0.9027968 0.47429338 0.89061451 14.13375
-1.7029593 1.0452192 0.81782734 19.046249
0.92211974 0.90051228 0.97796202 21.971766
-2.1322744 -0.0076192319 1.4561272 2
-1.0133125 -0.0081531778 1.2613736 2
-0.044644468 -0.024669513 1.4431269 2
-1.5334445 0.0057455599 1.4025929 2
-0.94521856 0.00077658892 1.4187824 2
0.9324351 0.36077809 1.41494 9.4603748
0.91280389 0.61725885 1.3840641 14.138028
0.93971062 1.0413736 1.5163889 19.766596
0.97173524 1.206846 1.5225036 22.084999
-4.3545227 2.8071058 1.378462 21.042999
-0.99249309 -0.023173928 1.6330773 2
-0.59135985 -0.0082163364 1.7958617 2
-0.075499497 -0.026365489 1.7001998 2
0.9679957 0.3428072 1.7607774 8.0834999
0.91866589 0.59960955 1.7757779 11.882951
0.93747836 1.0511626 1.7498027 18.333292
0.95309407 1.3546292 1.8446128 21.416334
-6.0489659 2.7188296 1.6352481 16.042
-5.9181643 2.7088518 1.8033868 16.042749
-3.8846614 2.7507756 1.882311 21.046333
-3.2579205 2.7824795 1.937933 23.04825
-5.45365 -0.10363668 2.1269591 2
-2.0017016 -0.16225076 2.3936391 1
-1.6057945 -0.14507169 2.1965342 1
-0.491402 -0.025736272 2.0028486 2
-0.3043285 -0.021294862 2.0044115 2
0.813995 0.63481194 2.0942404 11.0805
0.95866603 0.9740321 2.1811891 15.0815
0.92279762 1.3260908 2.1776896 19.247831
-5.5937996 2.7033737 2.1931045 16.0445
-4.9324903 2.7637537 2.1203098 18.04525
-3.6730614 2.7425461 2.1618931 21.048166
-3.3508575 2.7416642 2.2449453 22.216169
-3.0416703 2.7748561 2.2907004 23.050751
-0.79261756 -0.063860774 2.71276 2
-0.35527074 -0.061317831 2.7141058 2
0.95132643 0.89615959 2.6155212 12.413333
-5.6481829 2.6940353 2.7111247 16.046249
-5.3244271 2.7158167 2.4883792 17.046
-5.0571728 2.739171 2.5685067 17.046749
-4.602366 2.6718988 2.7331383 18.04825
-3.3835254 2.7366579 2.5264401 21.050667
-2.9827032 2.7317319 2.5934892 22.302376
-2.5810227 2.7326438 2.7068543 23.054501
-1.5261995 -0.18603438 3.1081493 1
5.2256564e-07 -0.082920134 2.9893146 1
0.85057366 0.62555259 3.0497448 8.5782499
0.9238463 0.89289725 3.1521397 11.0785
-6.5581884 2.7052193 3.0585167 14.046
-6.2519832 2.6610017 3.0900221 14.046499
-5.7126832 2.6910477 3.0621531 15.04725
-5.366878 2.6660175 2.9436703 16.047501
-5.012639 2.6763685 2.9874809 16.848301
-4.4677839 2.6876531 2.8597503 18.049
-4.1706367 2.6674838 2.9922414 18.050251
-3.8907101 2.6601913 3.1304536 19.0515
-3.3300157 2.7271783 3.0576179 20.386332
-2.2089317 2.7405267 3.029983 23.057501
-1.9785222 2.7238431 3.1109302 23.059
-0.21183585 -0.10338753 3.3319359 1
0.78834128 0.68740678 3.2035952 9.0775003
-5.5472012 1.0559053 3.5509937 8.0489998
0.78600144 0.86647511 3.2034202 11.0775
0.91613275 1.0207291 3.4028561 12.078
-6.5554738 2.6181962 3.5129168 13.54725
-5.7880759 2.6914885 3.4367247 15.04825
-5.4237523 2.6531057 3.5390716 15.04925
-5.0969849 2.6904323 3.4213793 16.0495
-4.589407 2.6736405 3.3789611 17.050501
-4.1258693 2.6756496 3.4707575 17.552
-3.6924465 2.6648042 3.3437004 18.7195
-3.400214 2.6549544 3.3360386 19.053749
-3.002815 2.6522093 3.4607871 19.8556
-2.6138601 2.6543839 3.5670302 20.057501
-2.0808952 2.7355359 3.4396679 22.0595
-1.8810315 2.7344224 3.4410036 22.393835
-1.0248224 2.7189038 3.5398133 23.0655
-0.4714981 2.6852419 3.5691001 23.069
-0.38573503 2.677597 3.5794494 23.0695
0.31540382 2.6721897 3.5838032 23.073999
0.79669058 2.7074661 3.5727549 23.077
-5.054471 2.8142951 3.3951759 17.0495
-2.9971359 -0.10668029 3.9016995 1.5
-2.709681 -0.140838 3.7891886 1
-2.2332764 -0.056190033 3.9681172 2
-1.9092059 -0.099933252 3.9403276 2
-6.8260336 0.39670393 3.9588246 4
-5.8156729 0.1926915 3.8017254 3
-5.5262942 0.25059646 3.9221101 4
-4.9685173 0.24023776 3.8083072 4
-4.655952 0.25078562 3.9747245 3.6666667
-3.8536587 0.092985593 3.9696698 3
-3.4189985 0.16838582 3.9627895 3
-3.0805602 0.12310724 3.9329796 3
-2.4647458 0.2820074 3.9838948 4.5
-2.2280858 0.095434003 3.9447463 3.3095238
-1.87682 0.20404845 3.9708681 3.75
-5.8482685 0.63742465 3.9627883 5.5
-5.4374733 0.52992988 3.9650843 5
-4.9733725 0.61525726 3.9600198 5.5
-4.6829791 0.54347008 3.9583809 5.5999999
-4.2406473 0.60463351 3.9828112 6.0357141
-3.7226763 0.66447616 3.9847343 6.5
-3.4651594 0.67282069 3.9940379 6.666667
-2.4592314 0.65767264 3.9893658 7
-2.1808355 0.53586453 3.97877 6.3333335
-1.8829107 0.6069569 3.9090989 7.0246
-8.4874334 1.0602627 3.9813704 6
-6.6089311 0.93715292 3.9616311 6.5
-6.065464 1.0378555 3.9774396 7.5
-5.776372 1.0935574 3.9481511 7.7750001
-5.3781829 0.98956168 3.942564 7.1701002
-4.9866562 0.97090036 3.9653027 7.4171662
-4.59589 1.0980338 3.8717313 8.2628746
-4.0897079 1.0180514 3.9248743 8.5133123
-3.7697093 1.0107201 3.8987811 8.5179443
-3.3655679 0.99714881 3.9127085 8.5741806
-2.9903255 0.95096159 3.9557831 8.5282497
-2.6353798 1.0586485 3.9421799 9.5958338
-2.2844212 1.0420823 3.9001904 9.5534668
-1.8358805 0.92603701 3.8218217 9.6617002
-6.8392081 1.3030093 3.9501176 8.0480003
-6.5396013 1.2481805 3.9566126 8.02425
-4.5523105 1.4506582 3.8627269 10.128278
-4.3230867 1.5772736 3.7986207 11.0525
-3.8669405 1.3907796 3.9129529 10.596792
-3.4209187 1.5071775 3.9482868 11.852
-3.0042381 1.2784228 3.8717983 10.664
-2.6003337 1.2188373 3.9444501 11.019501
-2.2628996 1.2260014 3.9375973 11.030251
-1.8270038 1.2471008 3.9314322 11.728667
-5.954546 1.7818758 3.6348813 11.0485
-5.4819283 1.6227338 3.6519599 10.0495
-4.9922071 1.7676692 3.9002056 11.3845
-4.668992 1.7967167 3.9190636 12.052
-4.2349501 1.8225311 3.9404709 12.3865
-3.7787597 1.7117325 3.944978 12.351334
-3.5941319 1.6248102 3.9606452 12
-2.0157883 1.9868283 3.8726733 16.061001
-1.7931443 1.9206604 3.8547871 16.062
-7.4006729 2.2093239 3.9683173 11.04725
-6.4115725 2.2590413 3.9056737 12.0485
-6.0779161 2.1296387 3.890883 12.049
-5.7749619 2.1769311 3.9227822 12.683167
-5.0056133 2.2784889 3.9571683 14.016999
-4.6935802 2.141674 3.955291 13.052
-3.8734515 2.3907304 3.9025364 16.027
-3.4226902 2.2829673 3.9088364 16.0555
-2.9858515 2.1810493 3.8973441 16.014313
-2.6029956 2.1018131 3.8983924 16.0585
-2.2282977 2.0247834 3.8768137 16.059999
-7.6565475 2.6179349 3.9907739 12.047
-6.9071455 2.6723669 3.7868962 13.0475
-6.5132751 2.6357005 3.8604672 13.04825
-6.2699776 2.5805795 3.9117959 13.682918
-5.7246404 2.6349082 3.865284 14.024625
-5.448494 2.5683658 3.8632231 14.349999
-5.0254054 2.6707537 3.8242986 15.6509
-4.5366974 2.564719 3.9052155 16.05225
-4.1651297 2.468236 3.9140904 16.026625
-3.8345523 2.5681047 3.814949 17.241142
-3.325846 2.6525922 3.8013866 18.3055
-3.0308158 2.6709442 3.9160311 18.907667
-2.6173205 2.6633892 3.8282077 19.529062
-2.1758912 2.657203 3.7033317 20.859798
-1.796747 2.6655195 3.7597871 21.06175
-1.4338685 2.66363 3.8220973 21.563751
-0.9898681 2.6756711 3.7808092 22.288334
-0.62196147 2.6873147 3.7958655 22.568251
-0.20381187 2.6705914 3.7979281 22.570751
0.18074617 2.6690385 3.7938905 22.644501
0.57977289 2.687108 3.8217735 22.575438
0.88871294 2.6939704 3.6067393 23.077499
-0.76006138 -0.15903491 4.3592076 1
-5.783349 0.075082064 4.0441909 3
-4.4288888 0.1970998 4.0604277 3
-3.4173656 0.35116422 4.0110431 5
-2.5739076 0.29151458 4.0514627 4.166667
-2.2203217 0.28398213 4.0182309 4.5
-1.9077313 0.26823795 4.0060077 4
-4.1753035 0.61994183 4.0105314 5.833333
-3.6841919 0.64243037 4.0074978 6.3333335
-3.482801 0.61214995 4.008522 6.25
-2.8549011 0.75088263 4.0113215 7
-2.5946243 0.65699565 4.0130019 6.9680839
-2.2033107 0.58598816 4.0090642 6.5
-1.9263585 0.40602246 4.0274534 5
-4.8370333 0.87634391 4.0038891 7
-3.4714384 1.0891824 4.0107183 9
-2.9945996 0.96367723 4.0209141 8.75
-2.763133 0.90425617 4.0276365 8
-2.2650733 0.80384713 4.0396671 8.0602503
-1.8142813 0.85002226 4.1388235 8.729167
-5.4307933 1.5556915 4.0032954 10.0505
-4.7290144 1.3916702 4.01332 10.026
-4.3735685 1.3125788 4.0087972 10.053
-3.7715082 1.2487614 4.0161271 10
-3.4023654 1.2820357 4.0151982 10
-2.5867367 1.5195549 4.0438957 12.279563
-2.244189 1.3892431 4.0511265 12.310375
-1.8818552 1.2668533 4.0521798 11.395333
-6.9435201 1.870563 4.025105 10.048
-6.4036593 1.763098 4.0192065 10
-6.2922411 1.7405264 4.0184669 10.049
-5.7803416 1.7135167 4.0120273 10.349999
-5.4483137 1.9693267 4.0156331 12.0505
-5.0626936 1.9486659 4.035593 12
-4.4985738 1.904213 4.0320439 12.05275
-3.8802207 1.8640126 4.0436683 13
-3.4404397 1.8596619 4.04177 13.488874
-2.9260395 1.7214932 4.0635719 13.386001
-2.6270316 1.8063043 4.0689368 13.936333
-2.1682811 1.8860914 4.0718389 15.06075
-1.6817762 1.9684079 4.0887985 16.063
-6.9112158 2.2415195 4.0161376 11.048
-6.4362087 2.0585797 4.0235314 11
-6.3758311 2.1856663 4.0103436 12
-5.8656816 2.0858133 4.0214543 11.583334
-5.0027876 2.2281842 4.0364356 13.517334
-4.4925652 2.1988521 4.0344043 14.05275
-4.1445594 2.2482517 4.0511055 14.518001
-3.8111792 2.1660867 4.048944 14.5
-3.4021375 2.139621 4.0506358 15.08525
-2.9557984 2.1776416 4.1003475 15.908055
-2.5956542 2.16625 4.0725503 16.241943
-2.2587469 2.2536178 4.0813327 17.490175
-1.8555988 2.1906846 4.0351839 17.6621
-5.7094307 2.4627278 4.0359359 13.275
-5.48037 2.5300868 4.0241919 14.0505
-5.0530601 2.6343124 4.0304618 15.01725
-4.6164379 2.4350536 4.04667 15.0525
-3.7876837 2.6142964 4.0455961 16.55475
-3.4105418 2.5992548 4.0694342 17.056
-2.9998009 2.5329764 4.0667367 17.702457
-2.5896146 2.6214681 4.0310516 18.862957
-2.2108212 2.6208909 4.0460777 19.473541
-1.7837811 2.5982401 4.1207032 19.562584
-1.418666 2.655339 4.2418685 20.207428
-1.0173072 2.6548748 4.2414417 20.399916
-0.6283105 2.6712015 4.1796522 21.068562
-0.25273097 2.6638646 4.2062016 20.870602
0.20997591 2.6530182 4.172605 21.073099
0.61077738 2.6560371 4.2507081 20.575251
0.85126573 2.6572094 4.2825518 20.5765
-1.4274995 2.6661019 4.5640726 19.065001
-0.82777965 2.6423931 4.7625432 19.068001
-0.57743162 2.6313355 4.7150321 19.069166
-0.1976667 2.6469722 4.6246271 19.570999
0.12133913 2.6233895 4.5316682 19.872601
0.71763194 2.6148453 4.6517773 19.0755
0.81432736 2.6237304 4.5979919 19.076
0.63002795 1.9751208 5.1442118 14.07475
0.80504346 2.0338292 5.1441603 15.0755
-1.6595236 2.6336784 5.1023078 17.564751
-1.3771722 2.6488421 4.9586263 18.06575
-0.9824608 2.6287849 4.8660655 18.4674
-0.63268846 2.6262574 4.8610182 18.569
-0.22726931 2.6032743 5.1742148 18.070999
0.16095467 2.6125374 5.0030131 18.272701
0.58255589 2.6162548 4.9142094 18.741333
-1.571725 -0.21297193 5.3950624 1
-1.7583066 2.5505095 5.4132071 16.064751
-1.4162682 2.5527151 5.3116813 16.732666
-1.0095642 2.6022151 5.4308662 17.067749
-0.58462816 2.6090472 5.3728161 17.0695
-0.28823993 2.6095791 5.4108467 17.070749
0.18362926 2.5878899 5.4850798 17.07275
0.58885163 2.5942881 5.3183031 17.407831
0.84718615 2.5385075 5.4468551 16.5755
-0.70905322 -0.25133994 5.8491197 1
-1.6999183 2.5687056 5.8750272 15.0655
-1.4339373 2.5786574 5.8817525 16.0665
-1.0182005 2.5593233 5.815187 16.067999
-0.63087791 2.5707877 5.7936559 16.0695
-0.2111423 2.5736642 5.6708007 16.321125
0.19673523 2.5682354 5.8042207 16.07275
0.54051089 2.5720236 5.9972358 16.073999
-1.601792 2.5869017 6.0198712 15.066
-1.4327848 2.5700469 6.2147927 15.06675
-1.001951 2.5831118 6.1689215 15.06825
0.67350638 2.5744398 6.0650802 16.074499
0.9064253 1.1080374 6.7418275 8.0749998
0.96707928 1.4206891 6.6076465 9.4086657
-1.7850838 2.516464 6.6890831 14.065999
-1.2742064 2.5564106 6.4019923 15.0675
-1.0268086 2.5366609 6.7054367 14.0685
-0.49913898 2.514183 6.6740518 14.07025
0.89334893 2.4501567 6.7783651 14.075
-1.6759621 -0.28164095 6.8832569 1
-1.3834177 2.5402343 7.023716 13.8175
-0.87738788 2.5109432 6.8115721 14.069
-0.62429696 2.498666 7.1769571 13.07
-0.22372441 2.5091801 6.8580346 14.07125
0.15606147 2.476413 6.8582749 14.072499
0.58412653 2.481699 7.0391588 13.573875
-1.6474401 1.8991992 7.5303211 10.067
-1.284925 2.4986477 7.3734508 13.068
-0.96457225 2.5206511 7.4043918 13.069
-0.24586172 2.4555941 7.526545 13.07125
0.16389544 2.4598296 7.364017 13.072499
-1.4346923 1.9583437 7.6895976 10.56775
-1.5780993 2.5213492 7.9411602 12.0675
-0.85229719 2.4362178 7.9228077 12.0695
-0.55095196 2.4735317 7.8255825 12.403666
-1.3410397 2.4393315 8.2081347 12.06825
-1.0433565 2.4332871 8.0201998 12.069
-0.25637466 2.470788 8.1817102 12.07125
0.10305485 2.4585581 8.1492395 12.07225
0.71467191 2.4166734 8.2059336 12.074
0.19823226 2.3955281 8.6094532 11.0725
-1.687039 2.4500413 8.5314636 11.0675
-1.1389462 2.4610248 8.6388617 11.069
-0.37743798 2.4034731 8.6078024 11.071
0.18623091 2.4458146 8.5868301 11.5725
0.57100236 2.4379163 8.4192543 12.0735
-0.57919586 2.391397 9.1576061 11.0705
-0.19073977 2.3839262 8.8398132 11.0715
0.61587101 2.3729608 9.1724625 11.0735
-1.3227011 2.3734071 9.3165808 10.56875
-0.985502 2.3567686 9.2401333 11.0695
0.11789631 2.3368473 9.4702148 10.07225
0.41529673 2.3476322 9.23915 11.073
-0.80496007 2.433475 9.2680101 11.07
-0.22796524 2.3448064 9.9194994 10.0715
0.54035729 2.3298116 9.7101202 10.07325
0.87091017 2.2792895 9.8707628 10.074
-0.53881234 2.3224635 10.148553 10.07075
-1.0272361 2.2790532 10.53322 9.0697498
0.46603969 2.2965124 10.719937 9.073
-1.4329349 2.2541649 10.944057 9.0690002
0.73224145 2.226207 11.055316 9.0734997
0.26411587 2.2085013 11.468102 9.0725002
0.0079096947 2.2120948 11.762458 8.5719995
-0.52225113 2.2088234 12.336675 8.0710001
-0.26143536 2.2105908 12.094026 8.0714998
-1.3595763 2.2277215 12.683478 8.0695
-0.81328219 2.1859252 12.57315 8.0705004
0.84488374 2.108551 12.507817 8.0734997
-1.1194079 2.167419 12.852068 8.0699997
0.319343 2.0723789 13.021142 8.0725002
0.56033546 2.0911949 12.844102 8.073
-1.3287203 -0.090593934 15.185093 2
-0.5532459 -0.087726772 15.149044 2
0.44020262 -0.065248638 15.179518 1
-0.96632993 0.24185051 14.831363 3
-0.59393817 0.33234853 14.964029 3
0.46330875 0.074743032 15.174746 2
-1.3244175 0.447429 15.085968 3
3.265086e-10 0.14238492 15.300297 3
