# .PCD v0.7 - Point Cloud Data file format
VERSION 0.7
FIELDS x y z intensity
SIZE 4 4 4 4
TYPE F F F F
COUNT 1 1 1 1
WIDTH 523
HEIGHT 1
VIEWPOINT 0 0 0 1 0 0 0
POINTS 523
DATA ascii
3.9197743 -0.062022272 -4.275744 4
3.7515361 0.15346062 -4.2121029 5
4.2294593 0.076890245 -4.2375917 3
3.8405554 0.32287565 -4.2289958 6
4.2211003 0.36727136 -4.267951 4
4.5755868 0.57445127 -4.2998319 5
4.3275428 0.65631008 -4.2576833 6
4.5063815 0.85453355 -4.2899933 7
4.1543078 1.7231139 -4.2287087 12
3.2806556 1.2820892 -4.0851831 11
3.9493911 1.3469677 -4.1964469 11
3.7273245 1.5197576 -4.1895771 12
3.8175039 1.7664548 -4.1806583 12
3.8351576 1.9191811 -4.1449475 13
4.143383 1.9164152 -4.0860176 13
3.93609 2.1399062 -4.1710043 14
4.1650248 2.0526013 -4.0540295 14
3.8761265 2.3552799 -4.0955486 15.5
4.0544744 2.3635674 -3.9555624 15
-0.18066931 2.2041361 -3.0803256 22
-2.1320715 1.2575427 -2.8191276 14
-1.8057501 2.2042551 -2.808749 23
-0.91907722 0.24744007 -2.7620492 3
-0.69779384 0.34401745 -2.7637687 4.5
-0.80142617 0.49518609 -2.7637539 6.5
-0.83408046 0.64417082 -2.7436979 8
-0.74201715 0.72121876 -2.7446029 9.5
-0.77330029 0.91506869 -2.7346818 12
-2.8815439 1.039494 -2.6203117 10
-0.89682186 1.0969113 -2.6824322 14.25
-2.6420934 1.2712944 -2.715225 13
-2.5689299 1.3788518 -2.7168155 14
-1.1131755 1.2579414 -2.6580632 16
-2.5453796 1.4452828 -2.6930211 15
-2.1120818 1.4129707 -2.7859399 15
-2.3326771 2.2034731 -2.6266322 22
-1.881515 0.24902534 -2.5741563 2
-3.0745649 0.47249895 -2.5814886 4.75
-1.8976438 0.45389155 -2.5214648 5
-3.0086079 0.67836678 -2.5622499 7
-1.6551106 0.68920922 -2.5260961 9
-3.0741801 0.85033739 -2.5346708 8.5
-3.2115119 1.2918181 -2.4078827 12.5
-2.0614343 1.2861987 -2.4107902 16
-1.8680872 1.2861068 -2.445415 16.5
-1.457095 1.3467654 -2.5563715 17.5
-3.0140913 1.5988389 -2.4595354 16
-2.8208609 1.5156018 -2.5711231 15
-3.0855925 1.6293985 -2.4767594 16
-2.9578912 1.7743152 -2.4681385 17.5
-3.040591 1.9508325 -2.4296935 19
-2.7503061 1.900261 -2.4394739 19
-2.8563142 2.026907 -2.4415777 20
-2.6589317 2.182852 -2.5326571 21.5
-2.6254616 2.3159993 -2.5244811 23
-3.809588 0.41887504 -2.2623186 3
-2.4808631 0.45442563 -2.3504143 4.5
-3.7800086 0.64371973 -2.2885613 5
-2.6745889 0.69978303 -2.2601337 7.8333335
-3.7637918 0.82214874 -2.2677879 7
-3.5736473 0.89784211 -2.3298614 8
-3.3183353 0.99598622 -2.3714375 9.5
-2.6565905 0.91264313 -2.2748299 10
-2.5354948 0.89971823 -2.2954288 10.5
-3.6668026 1.0940772 -2.2809117 10
-3.2578766 1.1468542 -2.397481 11
-2.3096843 1.0930461 -2.3673139 13
-2.0128646 1.195416 -2.3974669 15
-3.5260367 1.2366729 -2.3347433 11.5
-3.3192244 1.3834537 -2.384372 13.5
-3.4666891 1.5251379 -2.3338428 14.5
-3.3430338 1.7121563 -2.2253051 15.75
-3.2289813 1.932745 -2.2730284 18.5
-2.990463 1.9785157 -2.3803635 19
-3.3496559 2.1224835 -2.2451265 20
-2.7932706 2.2267187 -2.3771269 21
-4.7154965 0.51239049 -2.0652404 3
-4.0333347 0.45034957 -2.1227262 3.5
-4.7032156 0.70726883 -2.0425644 5
-4.2296486 0.61361039 -2.0662699 4.5
-4.0196042 0.74981451 -2.1017809 6.5
-3.7768178 0.73407984 -2.164144 7
-4.2162161 0.83802384 -2.0664699 6.5
-4.0268135 0.88858795 -2.0761266 7.5
-3.9387579 0.99383855 -2.1634932 8.5
-4.6357598 1.1999081 -2.0108919 9
-4.2037029 1.1456658 -2.0514958 9
-3.8774533 1.0025539 -2.0702724 8.5
-3.7160761 1.1728933 -2.0596402 11
-4.1654615 1.2397239 -2.0533473 10
-3.8972268 1.3324995 -2.1304374 11.5
-3.7267928 1.3177887 -2.0641527 12
-3.9052615 1.4388422 -2.0580702 12.75
-4.6025743 1.6894954 -2.046072 12.5
-3.8293161 1.6533511 -2.0342607 14.25
-3.5960591 1.6115953 -2.0863819 15
-4.5122337 1.8611797 -2.0286326 14.25
-3.7625463 1.8162963 -2.0649457 16.5
-3.6618271 2.050025 -2.0705068 18
-3.5751901 2.1149609 -2.1025758 19
-3.2561259 2.1196017 -2.1144383 20
-3.5078077 2.221318 -2.1358867 20
-3.3420339 2.2784648 -2.161598 21
-5.0814724 0.44169244 -1.8849711 2.5
-5.0792775 0.69699275 -1.9023595 5
-4.9754834 0.67331922 -1.9362078 4.5
-4.9686422 0.82198292 -1.9285449 6
-4.9399996 1.0015275 -1.944227 7
-4.7493525 1.0573031 -1.9979727 8
-3.9488907 1.1685902 -1.9925293 10
-4.8806944 1.3019118 -1.9386237 9
-4.7962008 1.318092 -1.9648352 10
-4.5749483 1.3547308 -1.9442205 10
-4.7594309 1.4520968 -1.9529526 11
-4.7678456 1.6517676 -1.9336936 12
-4.7484913 1.8147004 -1.931761 13
-5.9192424 2.3033705 -1.8084667 13
-5.5853181 0.48406938 -1.7221518 3
-5.6188879 0.64324009 -1.7062469 4
-5.5799084 0.77605414 -1.7156248 5
-5.7426629 0.82614684 -1.6021675 5
-5.5281863 0.97184312 -1.7184056 6
-5.7101169 1.0228144 -1.6043471 6
-5.478303 1.1794742 -1.7863517 8
-5.6991749 1.2748895 -1.61277 8
-5.4598346 1.3464605 -1.7303314 9
-5.4467506 1.4680299 -1.7304194 10
-5.3083615 1.4383466 -1.7825218 10
-5.4511013 1.656727 -1.6880844 11
-5.4526954 1.8916827 -1.6394035 12
-5.414927 2.1122067 -1.6366909 14
-5.3558812 2.2588317 -1.6463348 15
-5.879704 2.4695585 -1.7584102 14.5
-2.5988975 0.31064624 -1.4274316 4.5
-5.7569857 0.58231747 -1.5914491 3.5
-5.9436169 1.3579605 -1.5529292 8
-5.933795 1.4514384 -1.5668454 9
-5.7019548 1.4675308 -1.5925072 9.5
-5.9171052 1.6228384 -1.5857408 10
-5.828002 1.8200856 -1.5671616 11
-5.7794676 2.0118694 -1.5512636 12
1.0050744 0.13517454 -0.7562176 5.5
1.0385119 0.27582586 -0.65543634 9.5
1.0578606 0.26620182 -0.5453763 9.5
1.1108587 0.071362145 -0.3420848 4.5
0.88837254 -0.0027521113 -0.035556838 4.5
-2.1066101 0.13633832 -0.11986244 4.5
-2.1090934 0.29513556 -0.12055457 7
0.96509439 0.34475183 -0.075148925 12
-2.0976045 0.51898038 -0.12044621 10.5
-2.0768723 0.72657603 -0.11638534 13.5
-2.0393922 0.80099422 -0.042612828 15
-2.0193334 1.3197869 -0.068770573 21.5
-1.993114 1.4511871 -0.068548016 23
-5.1524415 2.6036701 -0.039197743 18.5
-2.0922048 0.017820025 0.0017632013 3
-2.3591452 0.28106019 0.097914889 5
-1.9079731 0.32107356 0.18496227 7.6666665
-2.5019338 0.42403945 0.092210665 7.5
-2.3650162 0.40481707 0.083338656 7
1.1325603 0.42698041 0.14987318 12
-2.4913955 0.67676401 0.055626586 11.5
-2.3357935 0.64763457 0.11842714 11
-2.4445405 0.92441618 0.055059537 15
-2.2620018 0.94484866 0.17743713 15.5
-1.9897279 0.86315465 0.17803709 16
-2.239203 1.2877818 0.14571002 19.5
-4.9783373 2.6837761 0.022509396 20
-2.3500769 0.20752035 0.34066817 4
-1.8683519 0.38976824 0.29528674 10.25
1.1330235 0.22310442 0.22010361 8.5
1.2359228 0.43902296 0.3666501 11.5
1.2413813 0.74078935 0.28496504 16.5
-2.2615154 0.85996509 0.2045324 14
-1.9532281 0.97574323 0.33828998 17
1.191195 1.1496062 0.30861437 23
-2.4489408 1.2300782 0.21504921 20.5
-2.2445929 1.213495 0.27363333 18.5
-2.155256 1.4866276 0.347031 22
-5.0675921 2.5981591 0.35132188 18.5
1.2689598 0.10897988 0.52108771 6
-2.3752983 0.20963645 0.53211462 2
1.300738 0.25369224 0.53578055 8
1.2743795 0.43590596 0.43579906 11.5
-2.0944803 0.82298315 0.59183693 16
1.2606618 0.88858122 0.45779902 19
1.2290914 1.0759155 0.49272215 21.5
-2.1374121 1.2728314 0.58455253 19.5
-2.3435128 0.1574938 0.72093391 2
-2.2915478 0.24729848 0.62322557 4.5
-1.781623 0.2231871 0.60874373 5
-2.1393268 0.69869697 0.61809194 14
1.311496 0.65807474 0.62344193 14
1.5294274 0.67108965 0.68711579 15
-2.1939127 0.82438123 0.68215168 13
1.2882259 0.88111526 0.73758703 18
-2.2488854 1.1223999 0.74036247 18.833334
-1.867034 1.129892 0.69159436 19
1.2497871 1.0062181 0.72945678 19.5
-2.1104088 1.3401126 0.73354506 21.5
1.2682498 -0.028316744 0.93334973 2.5
-2.1748662 0.11474644 0.94757867 2
1.5901577 0.14505596 0.97072291 5
1.6073885 0.089584775 0.99693304 4
-2.294822 0.54449171 0.80204105 9
1.3904527 0.4976773 0.9981097 13
-2.2742984 0.69040507 0.85189378 12
-2.190191 0.7182638 0.80677712 12
-1.8495454 0.72849441 0.92807978 14
1.2973342 0.62347722 0.89506006 13.5
1.5811898 0.70839214 0.87342232 14.333333
1.6009117 0.77016139 0.98841703 15
-2.2565734 0.92335957 0.8435623 15.666667
-1.8267744 0.9283784 0.8771854 16.5
1.3587058 0.99199635 0.98508656 20
1.5723822 0.80330384 0.80943716 16
-1.8919057 1.0833082 0.90655446 18
1.3189976 1.0296931 0.97125387 18.5
1.5277092 1.1194593 0.94340765 21
-2.071079 1.3317285 0.8694557 20
1.4884061 1.2930032 0.90274417 23
-1.7923974 1.4475343 0.80788082 23
1.3381195 -0.026839741 1.1544386 2
-2.1125932 0.11933809 1.1671849 2.5
-1.7941169 0.080691636 1.1731275 4
1.2959104 0.18622191 1.0464253 6.5
1.6060976 0.016327271 1.0569493 2
1.3715403 0.34132227 1.1998308 8
1.61445 0.31377849 1.0754973 7.5
1.3257413 0.42287925 1.0847105 10
1.4042457 0.56071389 1.1298236 13
1.6034547 0.47316086 1.140452 10
-2.2206249 0.67382872 1.048341 11.5
-1.7700652 0.72180074 1.1588769 13.5
1.3846219 0.60429871 1.0028023 14.5
1.6106489 0.62042028 1.0750742 12.5
-1.7779764 0.89369589 1.1448928 15.5
1.3522792 0.80849123 1.0744677 15.25
1.5881932 0.8611201 1.0197854 16
-2.1212354 1.0758914 1.0366073 18
-1.9845803 1.1726717 1.1400166 19
-1.7809587 1.1830723 1.0735626 19
1.5260053 1.1176952 1.1167707 20
-1.7213031 1.3076762 1.1244373 21
1.3405281 1.2274346 1.1958694 22.5
-1.9280626 1.4899855 1.1031671 22.25
-2.0973096 0.10515715 1.2977954 2
-1.7842888 0.072479054 1.2065744 3
1.356829 0.074058741 1.2687888 4
1.6292716 0.070798308 1.3048183 2
1.365675 0.23581997 1.3487464 7
1.5652375 0.26514921 1.2796354 7.4444447
1.6249647 0.32821673 1.2470667 8
-1.9774272 0.50092661 1.3349795 8.625
-1.7378336 0.55224055 1.2592094 10.5
1.3783953 0.44114557 1.3309284 9.5
1.5949969 0.53189039 1.2115619 11
-2.1605589 0.60064137 1.2176709 10
-1.9888549 0.74247944 1.3473142 12.5
1.369803 0.71557653 1.2987492 14
1.5659544 0.68901938 1.3502388 13
-1.9676358 0.90769219 1.3107269 14.666667
-1.781456 0.93305779 1.2316573 17
1.3585317 0.95205939 1.2590063 18.75
1.5436014 0.90573883 1.2761691 16.5
-1.9511656 1.0858912 1.2687777 17.75
1.423426 1.1285071 1.2996624 20.5
-1.9183645 1.2707664 1.3466996 19.388887
-1.9124328 1.4814746 1.2353506 22.333332
-2.0180078 0.10131554 1.4241742 2
-1.6791152 0.14179318 1.5859005 4
1.5876007 0.059179023 1.4884624 2
-1.8675578 0.37889656 1.5651715 7
-1.7159933 0.31918919 1.514881 6.3333335
1.585631 0.33394808 1.4563819 7.5
-1.8812768 0.47996885 1.522428 8.25
-1.7195597 0.55178678 1.4545555 10.5
1.3857875 0.43608814 1.4069587 11
1.5594895 0.55650389 1.4202898 10.5
-1.9021351 0.68913627 1.521884 11
-1.6885581 0.75690186 1.5026895 13.416666
1.4010063 0.69285816 1.5904536 14
-1.9061882 0.90854049 1.5690286 14
-1.6530073 0.90803796 1.4963202 14.666667
1.3986512 0.84134215 1.5641121 16
1.5882612 0.87832928 1.5270765 15
-1.8962519 1.0800962 1.5025949 17
-1.6076126 1.0776436 1.5166497 18
-1.5942736 1.0021559 1.5359664 17
1.3970778 1.033703 1.5298556 18.5
1.5685958 1.0534755 1.5473893 17
-1.8097427 1.3823599 1.4718996 21
-1.5955719 1.2162269 1.5538239 19
-1.8877672 0.16776153 1.7067323 3.25
-1.6052666 0.020066127 1.7387425 3
-1.5948391 0.093262345 1.725898 3
1.6053566 0.13187607 1.6494935 4.5
-1.8617365 0.33679456 1.762053 6
-1.6534288 0.2916978 1.7051568 5.75
1.3970255 0.35150686 1.7787379 9
1.5003836 0.33453149 1.7526052 7.5
1.6130062 0.30520192 1.7077661 7
-1.857476 0.4508903 1.665082 7.5
-1.7031227 0.50397754 1.6779345 8.9444437
1.6075728 0.51242071 1.6346618 9.5
-1.8786895 0.65883064 1.6565316 10.666666
1.5914112 0.62318605 1.6203274 11
-1.8477694 0.85381174 1.6970797 13.166667
-1.6826415 0.89879721 1.6393311 14.75
1.5937196 0.92605388 1.6066359 15
-1.8462955 1.1061728 1.672053 16.5
-1.7472235 1.1463388 1.6930929 17
-1.7392057 1.2844813 1.6579162 18.5
-1.5510012 1.3515444 1.7918677 19.5
-1.7163067 1.4284338 1.6802957 20.5
1.6730011 1.8552396 1.7028754 22.5
-1.8092916 0.26422656 1.8559129 5
-1.6304734 0.46678057 1.9730985 8
-1.5490503 0.45414665 1.8388588 9
-1.8192899 0.66499829 1.8562404 10
-1.6967797 0.70311862 1.9299932 10.75
-1.4918188 0.71576107 1.8967522 12
-1.6149933 0.9756977 1.8055282 15.25
-1.4437315 0.81568635 1.9429857 13
-1.6474791 1.0229948 1.9117945 15
1.7672232 1.121069 1.9688325 15.25
-1.63745 1.2147427 1.8890646 17
-1.5540576 1.3001063 1.8540118 19
1.7182796 1.4725189 1.9335704 17.75
-1.693115 0.17197521 2.1369636 3.5
-1.4593805 0.11532398 2.0382109 4
1.7854791 0.024629671 2.1674843 2.5
-1.724573 0.38978678 2.064775 6.5
-1.5174325 0.36318469 2.124284 6.25
-1.6779399 0.53759253 2.1392834 8.166667
-1.517118 0.52806091 2.0968843 8.75
1.6724696 0.41723779 2.1273682 7.5
-1.6593543 0.78008759 2.1036429 11
-1.5392168 0.72734118 2.0585675 11
1.6545992 0.60772628 2.1409781 9
-1.5837321 0.92825425 2.0810094 13
1.7895851 0.90828818 2.0800231 12.5
1.6765554 1.164499 2.1260557 14.5
1.7146041 1.3734685 2.0292084 16.5
1.8462436 1.6916527 2.1973529 20
1.8140202 1.8748167 2.1628609 21.5
1.7596517 -0.081141144 2.3653841 1
1.6283252 0.1370624 2.2514291 5
1.7330197 0.28107482 2.2696347 6
1.7048156 0.49755976 2.2932372 8
1.8007047 0.62520754 2.2056539 9.5
1.8004017 0.85262656 2.3278179 11.5
1.7113804 1.0475512 2.3345091 13.333333
1.5968022 1.3077358 2.2166119 16
1.7579322 1.2827719 2.3157957 15.75
1.8889064 1.3425202 2.3762743 16
1.7302878 1.5241911 2.2225864 18
1.8502712 1.470737 2.3156533 17.5
1.755703 1.7744447 2.3557086 20.5
1.848256 1.6087898 2.3226984 19
-1.6694927 1.9894935 2.3828642 22
1.7189808 1.9049281 2.3151639 22.166666
1.771291 2.0443828 2.2826409 23
1.7677388 0.092200369 2.4507036 3.75
1.775593 0.39758632 2.5515125 7
1.7735311 0.52134669 2.4837925 8
1.7709701 0.7521925 2.4822893 10
1.886584 1.2257982 2.4635282 14.5
1.7390671 1.48523 2.458889 18
-1.6607326 1.7772186 2.5819941 19.5
1.7567019 1.6405388 2.4691765 19.333334
1.8263708 1.6386286 2.5726748 18
-1.6685288 1.8133078 2.4654384 20
1.9233065 0.34919631 2.7430642 5.5
1.7484958 0.42897502 2.752414 8
1.9203372 0.51552671 2.7178543 7.5
1.9052055 0.63394535 2.7731996 9
-1.5792257 0.96000707 2.656394 12
1.8985693 0.87859201 2.7162807 10.5
-1.5667419 1.0912414 2.7086511 13.5
1.7495781 1.1015956 2.6308498 14.5
1.8673562 1.0906454 2.7376728 13
-1.622534 1.3685986 2.6495764 15.5
-1.542938 1.296648 2.7577486 15.5
1.7358589 1.3227649 2.7009294 16
1.8521241 1.2692991 2.6882091 14.5
-1.6348629 1.5519685 2.6882203 17.5
-1.5709336 1.4866929 2.7092068 16.75
1.846374 1.4374597 2.6558268 16.5
-1.5387485 1.6906307 2.6985292 18.75
-1.4961238 1.9176185 2.673059 20.333332
-1.4104972 2.0335383 2.7712226 21
-1.3915222 2.1895597 2.7390487 22
-1.4148457 2.2221622 2.6952348 23
-1.5112252 0.10493384 2.8681757 3.5
1.8986055 0.068793453 2.9029534 3
-1.5197809 0.28951904 2.8417549 5.5
1.7258557 0.38930586 2.9847488 7
1.902125 0.33215353 2.9364812 5
-1.6344305 0.45154876 2.9690871 6.25
-1.5422773 0.4838008 2.9014053 6.8333335
1.7242348 0.57805341 2.9788549 9
1.8886712 0.51203018 2.9027414 7
-1.6413504 0.67309183 2.9251666 8
-1.5157666 0.69313598 2.9124041 9.5
-1.6259733 0.88643277 2.910109 10.5
-1.5224552 0.86319864 2.9371934 10.5
-1.6995469 1.1772782 2.9037242 13
-1.5849485 1.1216782 2.932929 13
-1.3707101 1.14196 2.952812 13
-1.6593076 1.303754 2.8325272 14.5
-1.5383399 1.3383328 2.8937984 14.5
-1.3478498 1.2996114 2.8972297 14.5
1.7364171 1.2141708 2.8505235 15
-1.4720048 1.5176753 2.8835666 17
-1.4282465 1.7638122 2.8747749 19
-1.3903757 1.7710614 2.8519199 19
-1.3295643 1.8120059 2.9982972 18.5
-1.1511042 2.0971804 2.9581263 22
-1.4436139 0.067682393 3.1149933 1.6666666
-1.3273287 0.11652897 3.0802507 2.5
-1.4984446 0.31442872 3.0405934 4
-1.2529302 0.26925915 3.0326107 5
-1.4719527 0.56557137 3.027936 8
-1.6327364 0.68896669 3.1813202 8
-1.5501109 0.77724701 3.0331192 9
-1.3866221 0.64430612 3.059314 8
-1.6238631 0.83263683 3.1762116 9.5
-1.3757108 0.92775327 3.0517421 11
-1.5250043 1.1207304 3.087101 12.125
-1.393483 1.0677516 3.0757906 12
-1.3077796 1.2681208 3.1449673 14.5
-1.5662076 1.4579766 3.0755851 15.5
-1.3110058 1.5077835 3.1045959 15.833333
-1.1972328 1.9363407 3.0665121 20.5
-1.2523453 0.29293701 3.3626387 4.3333335
-1.3153956 0.48766959 3.3308234 6.5
-1.5334872 0.62371385 3.3554199 7
-1.2456542 0.69461137 3.3203316 8.5
-1.256611 0.94337696 3.310559 10.5
-1.2780783 1.0955982 3.2543364 12.25
-1.2871122 1.2055877 3.2201796 13
2.1574538 1.375412 3.2393134 13
2.1020887 1.6985343 3.2755864 15
2.0832918 1.8354521 3.2261453 16
-1.2362241 0.043617208 3.4022775 3
-1.2384812 0.34134546 3.4025648 5
1.9959562 0.30709147 3.4899032 5.5
-1.4168826 0.64141995 3.4878113 7.5
-1.4028648 0.80968332 3.4773459 9.5
-1.2396516 0.82468653 3.4000599 9
-0.95734394 1.1716155 3.4781039 12.5
-0.93873811 1.352688 3.4473047 14
1.9975064 1.2969214 3.4437294 13
1.9991293 1.522169 3.4219224 14
2.0024238 2.1569741 3.7716932 18.5
1.9746895 2.24929 3.6068513 20
-1.0211346 2.4148252 3.9706712 19.5
-1.1392463 2.1173885 4.1974921 17
-1.0246396 2.2485566 4.1214423 18
1.152701 2.2694044 4.1165037 18.5
-0.90741485 2.4037778 4.011291 19
-1.1264191 0.91490561 4.3736753 9
-1.1138436 1.1345046 4.3334036 10
-1.0654634 1.3312488 4.3510265 11.5
-1.1141247 1.563307 4.3499527 13
-0.99897164 1.5872517 4.2982588 13
-1.1010767 1.6180903 4.3679223 14
-0.94528854 1.7609864 4.3254104 14.5
-1.1418467 1.8030983 4.2249012 15
-0.9680872 1.9870062 4.2626843 16
-0.9495092 2.1087782 4.2234855 17
0.70586932 2.2753277 4.2521787 18.5
-0.95686013 0.53842217 4.5296955 6
-0.92737573 0.7994622 4.5678425 7
-1.0273123 0.94971442 4.5598249 9
-0.92925638 0.88130254 4.5491004 8
-1.0920311 1.0270904 4.4849591 10
-0.90148991 1.1192096 4.533905 9.5
-1.0892028 1.2904788 4.462811 11
-1.0048409 1.5866561 4.5585389 13
-0.88853294 1.4281263 4.505167 12
-1.0230736 1.7145172 4.578371 14
-0.89025837 1.6465706 4.446619 13
-1.032023 1.9121449 4.4672284 15.5
0.74227417 2.1937432 4.4141116 17
-0.96195561 0.08667504 4.7332149 3
-0.96482426 0.29060829 4.7346516 4.5
-1.00789 0.73385954 4.6432123 7.5
-1.0944004 1.1050159 4.7734714 9.5
-0.97627395 1.1038324 4.7185969 10
-1.0791283 1.3184487 4.7514167 11
-0.96795338 1.2524493 4.6747713 11
-0.9615922 1.4824698 4.6416645 12
-1.0982569 0.88478816 4.8168812 8
2.8370848 0.69703078 5.5299749 6.5
2.8243854 1.0847008 5.5641346 8
2.8551328 1.2220017 5.5715623 9
2.871177 1.4476969 5.5674477 10
2.762629 -0.015548266 5.9869432 4
2.5352464 0.65298712 5.8129349 6
2.5469885 0.85993963 5.8097029 7
2.5490012 1.1419758 5.8000197 8
2.5568199 1.385847 5.8086767 9
3.4827182 0.17184108 17.230219 2
2.9613855 0.65578657 17.378416 3
3.5446961 0.71826828 17.223665 3
1.687458 0.13171138 17.79874 2
1.9727552 0.43809086 17.761961 2
1.3920664 0.78891087 17.78548 4
1.8374636 1.0771135 17.747097 4
2.6805398 1.28824 17.705841 5
1.8784373 -0.6379205 17.851198 3
1.5401344 0.52148592 17.886593 2
1.6882861 0.76277113 17.958076 4
2.7389717 0.72434849 17.819323 4
2.1086011 0.84346306 17.826824 4
1.8700715 1.1767391 17.800217 5
2.2355599 1.0818609 17.932545 6
1.2520816 1.2481378 17.891941 5
1.6891391 1.4891069 17.881287 5
1.8318272 0.46071318 18.10729 4
2.2003746 0.75723338 18.001568 5
