# .PCD v0.7 - Point Cloud Data file format
VERSION 0.7
FIELDS x y z intensity
SIZE 4 4 4 4
TYPE F F F F
COUNT 1 1 1 1
WIDTH 759
HEIGHT 1
VIEWPOINT 0 0 0 1 0 0 0
POINTS 759
DATA ascii
9.6441774 0.35419643 -11.642756 3
9.7334108 0.92466545 -11.597737 4
8.4759979 1.2068019 -5.8245659 6
4.1211429 0.11210115 -2.4054911 3
4.1524382 0.28468299 -2.4297893 4.5
4.1136661 0.48337927 -2.2604887 6
4.1101422 0.74747348 -2.2322266 8
4.0568705 0.15933034 -2.1006668 3.5
4.0738049 0.52417392 -2.040853 6
4.094275 0.70505542 -2.1719348 7
3.9856679 0.36402836 -1.9205093 5
4.0234737 0.72357142 -1.9609234 7.5
4.0062232 0.94622254 -1.9337952 9
3.9810522 1.1209856 -1.8787949 10.5
3.9358528 1.3619559 -1.8183758 12
3.9467125 1.430907 -1.8492569 13
3.8257952 2.267447 -1.8418692 19
3.8513467 2.1998892 -1.680542 18
3.837204 1.8882241 -1.5277815 16.5
3.7276909 2.0969808 -1.4895228 18
3.683537 2.2137141 -1.478231 19
3.4515362 0.68513584 -1.2412708 8.5
3.911665 1.5231044 -1.3698504 14
3.3436403 0.92697132 -1.0570073 10.5
3.0334394 0.084609777 -0.90756392 3.5
3.048116 0.29043621 -0.88652015 5.5
3.3252378 0.30213124 -0.84752584 5.5
3.3363099 0.43409795 -0.83320552 7
-0.36476761 0.61461723 -0.88087499 21
-0.97373819 0.81167668 -0.60477984 5
2.9672906 0.90125728 -0.69252467 12
3.1926448 1.0362974 -0.70808858 12
3.257838 1.0678102 -0.77388811 13
-0.69391513 1.2828586 -0.66211271 17
3.1727812 1.3522913 -0.74846238 15
3.229425 1.2197039 -0.7355482 14
3.1362097 1.588313 -0.72484094 17
3.2325318 1.4542083 -0.73780435 16
-1.0865405 0.729846 -0.51343256 3.5
2.9437807 0.70514035 -0.52113259 10
-0.94303858 0.96949989 -0.58066899 7.25
-0.75269043 0.86692989 -0.54160011 11
2.9175267 0.84967476 -0.50695068 11.5
3.1496916 0.94617045 -0.43424892 12
3.2229748 0.81958866 -0.41566232 11
-1.0130669 1.0518944 -0.50958872 9
-0.8760308 1.1055387 -0.57834971 9.5
-0.66004467 1.3528024 -0.58811319 18.5
-0.64169127 1.4080707 -0.5981108 19
3.1409788 1.5783899 -0.56560796 18
3.0659339 1.7007402 -0.47484517 19
3.1226757 0.29389751 -0.28521317 5.5
3.1007166 0.50665355 -0.30182999 8.125
-1.2981803 0.71317512 -0.3112272 3
3.1241941 0.72326642 -0.2721265 9.75
3.202126 0.67281002 -0.35094613 10
3.1065125 0.85271859 -0.31442708 11.5
-1.308972 1.0058979 -0.20947504 8.5
-1.1329874 1.1323912 -0.36156678 10
-0.96887171 1.1147221 -0.27466393 8.25
3.0834861 1.0427741 -0.26931041 13
3.0208373 1.2578422 -0.29186073 15.5
-0.82795179 1.5230927 -0.35369349 14
-0.78399086 1.6529913 -0.29162371 15.5
-0.73994863 1.813169 -0.26280892 18
2.9868138 0.2657007 -0.10885942 5.5
2.9189568 0.43919665 -0.010367608 7.5
3.1014757 0.51126379 -0.1508458 8
3.1206226 0.73248416 -0.14710911 10.333333
-1.1520379 0.91235352 -0.18105555 4.5
3.1573215 0.8750155 -0.075101554 12
-1.2858763 1.0841528 -0.13748777 8.5
-1.1420189 1.0109653 -0.18000293 6
-1.1739213 1.270467 -0.050663948 11
3.0443921 1.3826222 -0.067500487 16
-1.0251939 1.5883489 -0.032176375 16
-0.95591426 1.5367666 -0.10590822 14.75
3.0456336 1.450267 -0.15891707 17
-0.87201482 1.7850804 -0.17794931 17.5
2.9896584 1.6573884 -0.0050985813 20
-1.0514779 1.8680694 -0.047960997 19
-0.77155036 1.9362044 -0.19113111 20
2.8201849 0.30096641 0.045950666 6
-0.94079018 0.51490515 0.10823768 7.625
2.8170972 0.44630414 0.060909983 7.5
2.9803505 0.63045907 0.02179414 8.75
2.9390695 0.91210747 0.071887843 11.666667
-1.5787034 1.1031158 0.19949651 8
2.9811578 1.0747049 0.067967877 13.75
2.9560287 1.2571225 0.095455736 15.5
-1.3692613 1.4105704 0.18776274 13
2.9063563 1.7448213 0.069130108 20.6
3.0242424 1.6161203 0.08548516 19
-1.0530044 0.11364023 0.32855329 6
-1.0230079 0.27511746 0.28818887 10.5
2.4381723 0.31522214 0.3905192 6.5
-1.0019969 0.4495424 0.23528481 16
-0.98219711 0.42497221 0.246196 15
2.2699733 0.47067589 0.28468677 9
2.7587824 0.57713532 0.23223805 6
-1.0651112 0.69235384 0.26499146 11
2.7182875 0.69677877 0.30264285 9
-1.7229617 0.92808151 0.37558579 7
-1.547011 0.88981283 0.31040186 4.75
2.7532148 0.83001512 0.28546619 10.5
-1.6478847 1.1955328 0.38648081 6
-1.4926445 1.067728 0.28002441 8
-1.4873695 1.2806978 0.20471382 11
2.9331083 1.2046075 0.24623251 15.5
-1.4359999 1.4402356 0.3019346 14
2.7264302 1.480022 0.30989671 17
2.8882909 1.4164153 0.28281778 17.5
-1.4150016 1.6079981 0.33571291 16.5
-1.2156482 1.7600775 0.20782995 19
2.7274992 1.6156472 0.29588759 18
2.8079393 1.650427 0.35971999 20.25
-1.1743296 1.9270436 0.26325321 21.25
-1.1100755 2.0737636 0.26242709 18.5
2.4046161 0.16653666 0.42619073 5
2.3960958 0.38782245 0.40634203 8
2.3254318 0.5824483 0.50410354 10
2.426841 0.50292319 0.43935916 9
2.2885277 0.89950889 0.45325291 15.25
-1.6833115 1.0924511 0.53722382 8.5
2.7381229 1.135417 0.49835145 12.25
-1.7076118 1.2907294 0.51949906 9.25
-1.5788672 1.3073866 0.46047437 12
2.7642889 1.3265553 0.41967869 14
2.9194002 1.3600473 0.52744466 15.5
-1.7230492 1.5074399 0.5189566 12.5
-1.6643267 1.6568079 0.56098843 16.5
-1.5189061 1.737777 0.53609025 14.5
2.7585816 1.6614664 0.5133121 18.5
2.9185474 1.7032095 0.45962968 18.166666
-1.4686307 1.8358524 0.58299017 16
-1.3204715 1.9178103 0.41244513 21.5
2.2568188 0.10689298 0.73432142 4.6666665
2.1367407 0.37927073 0.6983394 8.25
2.3154268 0.32440516 0.72172338 7.5
-1.4070762 0.41966239 0.69832563 3.5
-1.3283787 0.5231427 0.63429415 6
2.2624059 0.5108397 0.68895638 10
2.3327112 0.7273311 0.66505283 12
-1.8863621 0.81322247 0.7199533 3.5
2.2722735 0.90600443 0.64135605 15
-1.8876116 1.2367413 0.69405377 8.5
2.6869645 1.3302323 0.6346215 14
-1.8950422 1.4297938 0.68238199 9.5
2.7015562 1.4459891 0.66196674 15
2.844394 1.5217087 0.69630843 17.5
-1.7363595 1.6945201 0.71516305 14.25
2.7330811 1.7271086 0.6795041 18.666666
-1.7115399 1.8400631 0.79398477 16
-1.5362899 1.8189204 0.60011196 20
2.580313 1.9311811 0.79774094 23
-1.5922661 2.0035424 0.79604077 23
2.1753688 0.080189317 0.89195448 3.5
2.2412443 0.14041361 0.89835894 5
2.1807327 0.21568297 0.85064727 6
2.2621799 0.26107529 0.8457132 6.75
2.1097589 0.587883 0.92857456 9.75
2.2579875 0.43511951 0.88724911 9.25
2.067476 0.71094495 0.91838264 14
2.2502017 0.69997251 0.80533564 13
-1.9978914 0.83614862 0.8495754 4
2.0438962 0.85755873 0.88508976 16.333334
2.2548809 0.8687523 0.83253229 15.25
-1.9028385 1.1801686 0.83964771 10
2.1063547 1.02091 0.90068662 17.5
-1.7899833 1.3884763 0.89804077 19
-1.8587362 1.5348892 0.89693731 15.833333
-1.7417532 1.4772406 0.90964329 20
2.6758571 1.4721079 0.96149349 14
-1.869468 1.7401259 0.96538019 18.5
2.6222596 1.9070835 0.87337792 20
2.5071502 2.0331874 0.90725231 19
2.6042047 2.0550556 0.92195982 21.5
2.0475667 0.028940305 1.0419769 4
1.9190794 0.25324276 1.1011697 6.5
2.070101 0.27278373 1.0602405 7
-1.8121114 0.54146731 1.0520065 5.5
1.928881 0.48810607 1.1356109 8.6999998
2.0714731 0.44948304 1.0340545 9.25
-1.6550739 0.79154885 1.1469169 15
2.1815517 0.74209273 1.0349345 14
-2.1537383 0.81192577 1.0439935 3
-1.6149406 0.94388151 1.0833843 17
-1.5766337 0.96665651 1.139981 17.5
1.9801478 0.91948593 1.13972 12.5
2.117732 0.90181416 1.1182637 15.666667
-2.1369758 1.139923 1.0900358 8.5
-1.525313 1.0979255 1.0561396 20
1.9974282 1.0497328 1.1902795 14.5
2.0609775 1.085511 1.0102957 19
-2.0191107 1.2761875 1.0137475 11
-1.8101772 1.3217555 1.0556742 18
-1.771024 1.3779615 1.0600376 19
-1.7342615 1.4336486 1.0661616 20
-1.8592389 1.9648716 1.1928937 22
-1.8217075 2.0069058 1.1843114 23
1.9192281 0.073664114 1.2993329 3.5
2.0337393 0.14532562 1.2111697 5
-1.6792719 0.39648008 1.3236412 8
1.9723488 0.2191436 1.2836514 5
2.0386357 0.29610628 1.2769113 8
-2.0214074 0.54435879 1.3123403 5
-1.6679411 0.50726908 1.3526869 10
1.8494511 0.50059372 1.3340961 9.416667
2.0430841 0.49900538 1.2414528 10.5
-2.0136204 0.67952025 1.3204715 7
-1.6524395 0.63440406 1.3349518 12
1.7968147 0.72072124 1.3837548 10.5
1.8863742 0.66256607 1.2954608 11.875
2.0148158 0.70412397 1.211221 14
-2.2835922 0.92644042 1.3132145 4.25
-2.0864401 0.90525275 1.2797153 6.25
-1.6299926 0.86753953 1.2134845 16
1.9231827 0.88649845 1.2627872 15.5
-2.2434607 1.0587287 1.3278946 6.25
1.921277 1.0464379 1.3461685 15.166667
-2.222353 1.2753286 1.3833148 8
-2.1742821 1.3651173 1.3105415 12.5
-1.9070377 1.2679503 1.3531052 16
-2.1038082 1.5492668 1.3095483 15.333333
-2.0273173 1.797174 1.3536102 19.5
-1.9772617 1.7253096 1.2488775 16
-2.0163784 1.8320112 1.3571745 17
-1.9859164 1.9162819 1.3832376 18.5
1.7731988 0.061394908 1.5745492 3.6666667
1.7117914 0.36249521 1.5381545 8
1.8366573 0.31307709 1.4942067 7
-2.0972188 0.5394274 1.4540939 5
1.6862742 0.51598722 1.5144637 7.0999999
1.9432932 0.52167845 1.4725091 12
1.594597 0.63194525 1.5619467 7
1.7451049 0.65628737 1.5443778 13
-1.8004298 0.8978312 1.4863592 14
-1.7900467 0.97528678 1.4802759 15
1.7725884 0.91739893 1.4989849 15.933332
1.9105835 0.92175829 1.4141442 15
-2.2903244 1.1972511 1.5395715 7
-2.0103869 1.0754348 1.5794847 13
1.7346532 1.0273286 1.5615735 17.25
-1.9516732 1.2729613 1.5045152 16
-1.8772039 1.4120713 1.4727036 18
-2.0802591 1.9343669 1.5540363 18.5
1.5798726 0.037178479 1.7451823 3
1.6313335 0.059601624 1.7883463 2.5
1.5982933 0.23509219 1.7518525 4
1.6894896 0.25722253 1.6091012 4
1.8353593 0.33667019 1.6765122 8
-2.1395979 0.49656537 1.6525519 4
-1.8979747 0.54448223 1.7531757 6
1.720541 0.48027056 1.7082443 9
1.8623202 0.40087938 1.6698986 9.5
-2.1130252 0.68398118 1.6541309 7
1.7242835 0.67713392 1.6966408 12.375
-2.0849867 0.84490573 1.6123199 9.5
-1.917071 0.89838243 1.7851919 13
1.5993247 0.94140077 1.7963119 16
1.754169 0.85083789 1.6406235 14.722222
-1.8818952 1.0051861 1.7837163 14.5
1.7284995 1.142087 1.6951841 17.75
-2.0943999 1.450204 1.702118 15.75
-1.918342 1.6792239 1.6767471 21
1.4761608 0.12506668 1.8830829 4.75
1.2828336 0.37660345 1.977398 8
1.5291504 0.27028838 1.9294047 6.6666665
1.6737919 0.31321689 1.8785931 7.5
1.486969 0.49625084 1.8525085 9.25
1.6711515 0.46578327 1.8305763 9.0555553
1.5122951 0.66990376 1.9922973 12.5
1.6537359 0.62729985 1.8317953 11
1.5061203 0.84393466 1.9755173 16.5
-2.0583453 1.1725661 1.8082085 14
1.6907845 1.0881282 1.8648695 18.666666
-2.0715232 1.3079114 1.814942 15.5
1.9221514 1.5514587 1.9497136 19
1.9244163 1.6623759 1.9483225 20.5
1.431985 -0.034662232 2.1515877 3
1.4901469 0.079411261 2.0449178 3.75
1.5311022 0.28077319 2.0806434 7
1.4674957 0.50584662 2.0666525 10.333334
1.343832 0.74099815 2.0306873 14.75
1.5119307 0.73315495 2.0265725 15.25
1.6348416 0.74818391 2.0096145 10.5
1.5137937 0.86877418 2.0577412 15
1.8608049 2.0105946 2.021879 23
1.3260475 0.04156711 2.3015413 2.5
1.460968 0.016516209 2.2413473 2
0.95638144 0.30249408 2.3750162 5
1.325691 0.28277594 2.3516545 7
0.96464115 0.41393387 2.3856153 7
1.2899228 0.48350289 2.321378 9.666667
1.535337 0.54185617 2.3433683 9
1.2749275 0.68374938 2.3162038 12.666667
1.5110439 0.69997662 2.2474062 11.833333
1.3052523 0.86929524 2.3384042 15.75
1.3493299 1.064724 2.3029883 18.625
1.6733267 1.9148189 2.2993197 21.5
1.6648083 2.0003695 2.2815185 23
0.81339544 0.18783347 2.5623937 1
1.1445731 0.086285733 2.4660795 3.6666667
1.260327 0.022828013 2.5066261 3.25
0.83699805 0.25493783 2.4957025 4
1.0755248 0.30020338 2.50685 7
1.0156918 0.48438424 2.5716338 10
1.4754214 0.47957817 2.4376142 7.5
1.083939 0.65602404 2.4833279 12.5
1.1429074 0.82160616 2.4193132 15
1.2679467 0.89879191 2.5604212 17
1.2594185 1.1377516 2.5112305 21.25
1.3094251 1.2416034 2.4126062 21.5
1.5707103 1.3690958 2.5646434 16
1.447228 1.9056609 2.5766883 21
-4.2840581 3.243032 2.4263644 18.5
-4.1951575 3.2604108 2.5486157 19
0.68186468 0.25463957 2.7538116 4
1.0622607 0.21121207 2.7884076 6
0.75516886 0.43893591 2.7064588 8
1.3956256 0.41505608 2.7679098 7
1.4357076 0.51051551 2.6810479 8
0.93974394 0.71535128 2.7039554 13.5
1.0399511 0.70330513 2.7187595 14.5
1.2624235 0.7577765 2.6875741 14
1.4577932 0.71896684 2.6892028 10
1.1112359 0.91661531 2.7251487 17.5
1.2565639 0.9066745 2.6636243 15.5
1.1243836 1.0928109 2.601409 20
1.2949855 1.0008692 2.6548834 16
1.472265 1.0563467 2.7238231 13.5
1.1410124 1.2188449 2.6883626 21.5
1.5268195 1.253298 2.6235838 15
1.4392302 1.7150255 2.6277807 20
-4.6834512 1.9364904 2.7547884 10
1.262871 1.8640846 2.767931 20
1.3379316 0.10230143 2.855968 3.5
0.70280123 0.24493815 2.985779 6
1.3066037 0.32849264 2.9229727 5.5
0.73591202 0.50955397 2.8800495 9.5
0.86271888 0.5126518 2.8020046 9.5
0.78694099 0.71800619 2.9221568 13.5
0.87839442 0.65274954 2.8843377 12.833333
1.2579463 0.68094397 2.9193299 9
1.4006311 0.66023731 2.8057678 9
0.80019087 0.81812608 2.8606939 15
1.3963249 0.89234096 2.827563 11
0.92667466 1.053497 2.9623711 18.5
1.2588102 1.5074587 2.9859931 19
-3.6287327 1.7784524 2.876925 11
1.1550974 1.719524 2.9514656 19
1.168165 1.8577346 2.8795176 20
-3.543149 2.0562382 2.8633323 13
-4.4250278 2.326798 2.9499931 13
-4.5266142 2.4859753 2.9501042 13
-4.329628 2.5217178 2.9517322 14
-4.4608665 2.7838311 2.9886222 15
-4.2808838 2.6706419 2.9746809 15.5
-4.225287 2.8375537 2.9497473 17
1.1624333 0.091830343 3.1432905 3.5
0.54116881 0.31613848 3.0851231 5.5
0.79044062 0.30108133 3.0317764 7.5
0.59924477 0.4758113 3.0952075 9
0.70883286 0.46036863 3.069509 9.3666668
1.1519758 0.48338655 3.1685019 7.5
0.71719778 0.62486631 3.0322986 12.5
-5.2187295 0.82682157 3.1082506 3.5
0.74627674 0.88731241 3.1881609 15.5
0.90581787 0.87211502 3.0092525 15.5
0.79826856 1.0655832 3.1179252 18
1.0262164 1.0626509 3.1988332 12
1.0845917 1.2226455 3.1996496 16
1.0103915 1.5350226 3.1350985 17
1.2809825 1.484875 3.0269735 18
-3.5250225 1.7945378 3.1881919 12
1.1093385 1.6837261 3.0919361 19
-3.4521804 1.8882573 3.1356237 13
-3.3279419 1.9957364 3.1836727 14
-3.3225989 2.0655231 3.157706 15
-4.5122423 2.5646794 3.0042531 14
-4.0306125 2.5596411 3.1941638 15
-4.106925 2.6270041 3.1513686 16
-4.0857396 2.9558716 3.082197 18
0.4772523 0.15375975 3.3753085 5
0.65566093 0.15562911 3.215507 5
0.98320532 0.0023161694 3.316674 1
0.50897753 0.36065435 3.3203778 6.625
0.66142493 0.33264124 3.2752943 7
0.50728232 0.46874335 3.2320733 8
0.64493704 0.56390029 3.3221614 10.25
0.52517426 0.6317066 3.3771625 11.25
0.90468597 0.71461403 3.3570006 9.5
0.63924026 0.88065803 3.3060937 15
0.88462508 0.93902749 3.3292637 11.5
0.67520934 1.0745196 3.310524 17
0.93932754 1.116594 3.313956 13
1.1044763 1.0989084 3.2492039 14
0.95142418 1.2832667 3.3259473 15
-5.1315427 1.5410383 3.2167008 7.5
0.92743611 1.4492995 3.293344 16
1.0525587 1.4107934 3.3299656 17
-4.9788709 1.7313415 3.2386851 9
0.98851109 1.7177511 3.3130867 20
-3.2930434 1.926432 3.3034639 13.5
-3.2167821 2.0066981 3.3136463 15
-4.1044717 2.4182558 3.2032385 14
-4.3070502 2.7551656 3.2050118 16
-4.2665529 2.9393713 3.2191334 17
-4.2376232 3.0776095 3.2314415 18
-3.8635499 3.1297994 3.3363116 19
0.77163744 0.15189746 3.4788167 3.5
0.92865908 0.071728468 3.590817 4
0.48422617 0.29731813 3.4111676 7
0.79189706 0.36185014 3.4749818 6
0.95492649 0.25824797 3.5075026 5.5
0.52322161 0.50215852 3.4104114 9.5
0.77885431 0.53616089 3.4568129 7
0.93743432 0.44891167 3.5274465 7.5
-3.2663004 0.64141101 3.5084698 3
0.98045886 0.65847355 3.5080001 9.5
0.95168591 0.87749439 3.512774 11
-4.339397 1.0444816 3.5437627 6
0.80329555 1.1594436 3.5392599 14
-4.4179621 1.3159496 3.4404316 7
0.88762319 1.3139007 3.5492876 15.5
-4.417304 1.4364831 3.4324193 8
-4.279871 1.4791428 3.5875392 9
-3.437624 1.4766822 3.404464 9
1.0792515 1.5323411 3.5751467 18
0.79856271 1.6477735 3.5065053 18.5
1.0561121 1.6115094 3.5063248 19.5
0.92061669 1.8269912 3.5446181 21.5
-4.092104 2.4738393 3.4476376 14.666667
-4.0093846 2.671968 3.5040586 16
-3.7674417 2.7518702 3.4801686 17.5
-4.0535231 2.8888693 3.4614222 17.5
0.87057602 -0.027541138 3.7172544 2
0.77627981 0.15205298 3.7259212 4.5
0.66987723 0.32988942 3.7192292 5
0.82674897 0.37856716 3.6623392 6
0.3709698 0.4928323 3.6589067 8.5
0.70979649 0.50713092 3.7012401 7.25
-3.2349882 0.73781145 3.6762755 3.5
0.72521079 0.64702654 3.7118168 8.75
-4.1677666 0.94332957 3.6811037 5
-3.2730734 0.86326116 3.6708543 5
0.68865192 0.87382531 3.7404664 10.5
0.91017932 0.95787078 3.7797456 13
-3.209645 1.0338106 3.6616018 6
1.0370846 1.1166239 3.6291738 14.5
-3.171057 1.2063653 3.7029912 8
-3.3991089 1.8824571 3.7229857 12.5
-3.3529935 2.0880568 3.7697127 14
0.74428976 0.014887899 3.8230433 2
-3.0600832 0.56474316 3.9601367 2
-3.9483428 0.90311563 3.8919497 5.5
-1.8756877 1.1508069 3.987293 11
-1.9290717 1.2480149 3.8976781 12.333334
0.65354735 1.2437348 3.9606147 14.5
-3.1444845 1.7569757 3.9431174 13
-3.1134627 1.951014 3.949945 14
-3.5282927 2.2755902 3.9978175 15
-2.9095953 0.58444035 4.105237 3
-3.7127941 1.1846317 4.0485954 8
0.64051586 1.0273483 4.0153527 13
-2.5071232 1.5668548 4.1953001 13
-2.9824979 1.706255 4.0842543 13
-2.5750999 1.783057 4.026947 14
-3.6805315 1.8687267 4.0243378 12
-3.5302789 1.9625021 4.160161 13
-2.9756985 1.855305 4.0827618 14
-2.525974 1.8929899 4.0686455 15.5
-3.6541693 2.063674 4.0232682 13
-3.5327532 2.1741493 4.0044894 14
-3.0021296 2.0899234 4.0326195 15.5
-2.5080535 2.0609035 4.0443039 17.166666
-0.16504557 2.3468235 4.1586499 19
0.55112267 2.3602617 4.150054 19
-3.4993157 0.54989767 4.2762461 4
-3.4739125 0.74355042 4.3004861 5
-4.3329525 0.85702229 4.2996664 6.5
-3.4704404 0.88336861 4.2761531 6
-3.3600109 0.84111011 4.3927264 6
-4.3367686 1.1772658 4.334693 8
-3.4049046 1.3046566 4.3241801 9
-3.4829278 1.4220083 4.2345281 10
-2.4805906 1.5240285 4.2691417 12
-2.3820229 1.5765865 4.2765555 13
0.48244244 1.5109445 4.2998114 13.5
-3.4411178 1.7080903 4.260901 11
0.49347818 1.7588074 4.3140111 15
-2.0670466 1.8146558 4.3928432 15
0.49411803 1.8658336 4.3108292 16
-3.335423 2.1264694 4.2801876 14
-2.9494591 2.0905755 4.3244114 14.5
0.5180136 2.0745058 4.2350225 17
-4.0061665 2.2468181 4.379178 14
0.50054836 2.2479498 4.2186565 18
-3.3454628 1.0316895 4.4196191 7
-2.1739454 1.4834929 4.4050927 12.5
-4.1180735 1.6836944 4.5263271 11
-1.942835 1.6499244 4.5086164 14
-2.9214077 1.9617691 4.4660225 13
-1.9350659 1.8239729 4.4948525 16
-4.0959411 2.0053084 4.5261011 12.5
-3.4308801 2.2982149 4.5234857 15
-2.3477964 0.41250384 4.6870227 4
-2.1133294 0.49654365 4.6453772 4
-1.9809788 0.54919374 4.7015138 5.5
-4.0539932 0.61065966 4.6822982 6
-3.5296221 0.70949531 4.6765299 5.75
-2.334955 0.69941682 4.7395473 5.5
-1.9394623 0.68712425 4.6390023 7
-4.0738673 0.88819456 4.6994348 7
-2.3080332 0.91294974 4.7217169 7
-4.0642104 1.0608933 4.6852202 8
-4.0597119 1.2841181 4.6714997 9
-4.048882 1.4467001 4.6750565 10
-3.8169146 1.7340158 4.7968869 11
-2.5806127 1.7727008 4.6796927 13
-3.6806486 1.982172 4.7313514 13
-2.3965917 1.9653417 4.7478333 14
-3.9491475 2.0429111 4.7341585 13
-3.5662346 2.1903403 4.6152534 14
-2.3566468 2.1265159 4.6334372 15.5
-3.740274 0.39828867 4.8834596 5
-3.5854857 0.32752201 4.8662586 4
-2.7209105 0.36664626 4.99547 4
-2.4925399 0.33733767 4.9620008 3.25
-2.7231503 0.58344692 4.9949398 5
-1.7680733 0.47079736 4.8952346 4
-3.7238266 0.92960751 4.9605274 7
-2.112432 0.81302494 4.836185 7
-2.679307 1.1744311 4.8792415 9
-3.3776219 1.2146305 4.8207502 9
-2.455143 1.3376931 4.9655194 10
-3.3147154 1.5230677 4.8749518 10.5
-2.6532269 1.4398527 4.823205 11
-3.3047359 1.7957642 4.9047651 12
-3.8169804 1.8442109 4.8131146 12
-3.4695823 1.9184761 4.9296651 12.75
-2.4549565 1.8843851 4.8987212 14
-3.4633777 2.2054396 4.8673658 14
-3.3830402 2.215502 4.9675283 14
-1.8178861 2.2889659 4.9210029 16.5
-1.8590281 2.6379423 4.9161997 21.5
-3.4565785 0.029941678 5.0780811 3
-2.4192677 0.16689956 5.0804491 3
-2.2344632 0.12378407 5.1729374 3
-3.3321614 0.36320227 5.0063133 4
-2.2821543 0.3149412 5.1162653 3.25
-1.8510392 0.44585371 5.0527935 4
-3.4120626 0.78692353 5.0078197 7
-0.90994585 0.78133774 5.1274662 8.5
-2.0024784 0.92643654 5.0506444 8
-1.9512997 1.0716664 5.0373621 9
-1.6882253 1.0280908 5.1670356 9
-4.0588336 1.3039054 5.0869532 8
-2.2146347 1.206545 5.1326728 10
-3.9994948 1.4874851 5.1435575 9
-2.0401576 1.5813543 5.1887488 12.5
-3.9621296 1.6268225 5.1592445 10
-0.89748049 1.9221003 5.1171317 20
-3.1043265 2.1070902 5.1192183 14
-2.6501484 2.3362963 5.1229162 15
-1.9247749 2.4629173 5.0053139 20
-1.9789521 0.20885244 5.2327433 3
-2.3079617 0.50636595 5.2295542 5
-1.3578784 0.54431629 5.2154226 6
-1.1362154 0.54039121 5.3595619 6
-1.4241524 0.67942464 5.2226129 7
-1.1689259 0.72834903 5.3371902 7.1666665
-1.3731256 0.92559695 5.2016611 8.5
-1.1087343 0.94337636 5.3732619 9.333333
-3.0218832 1.0201006 5.3668752 8
-1.8613008 1.0182918 5.3490291 9
-1.4624646 1.1511137 5.3545055 9
-1.3546107 1.0489736 5.2159157 10
-1.7380296 1.4090538 5.3788886 11.5
-0.91467369 1.5375202 5.3168201 16
-0.82749885 1.6640615 5.2401657 17
-2.7297647 1.8815379 5.2393923 13
-2.4480357 1.8948656 5.3249817 13
-0.94418168 1.8404119 5.2015314 18.5
-3.1299551 2.1346354 5.2161703 13
-2.7398612 2.1342533 5.2402973 14
-0.86663294 2.0023489 5.3643456 17
-0.78338295 2.2592943 5.3310318 18.5
-0.5302844 2.2559083 5.3468466 18.5
-0.98506951 0.087439552 5.5268288 3
-2.8108943 0.21403152 5.474894 4
-0.97121382 0.35261932 5.4374957 4.5
-0.41934884 0.25248158 5.5923748 4.5
-2.8849373 0.50268853 5.4356675 5
-1.5227258 0.47400096 5.4623089 5
-0.7947191 0.51680678 5.5416617 6
-0.99515247 0.76022267 5.4764996 8
-0.72245258 0.77979159 5.5023146 8
-0.5118745 0.74139661 5.5720983 7.5
-0.87923932 0.81696856 5.5382009 8.25
-0.27489382 0.87076765 5.4374456 11
-0.29827094 1.0772403 5.4020042 13
-1.8022411 1.284247 5.4053903 10
-0.42213756 1.2937696 5.4602833 14
-0.27854601 1.3067143 5.4683843 14.5
-0.7715652 1.4143193 5.4270005 15
-0.20079756 1.4153819 5.475245 16
-1.688732 1.6709322 5.4134631 13
-0.87766206 1.6834563 5.5206389 14.5
-2.4757831 1.8670771 5.4515166 12.5
-0.83798313 1.9012533 5.4897614 16
-0.67200488 1.9946742 5.451612 17
-1.3335327 0.086618006 5.6320081 2.6666667
-0.27643299 0.024558783 5.6672678 3
-1.2925762 0.26414016 5.6125727 4
-0.84811372 0.53017443 5.6214256 6
-0.77425575 0.49780759 5.7990975 6
-0.52641124 0.54559511 5.6350245 6
-2.3312531 1.1532182 5.6837082 8
-0.77499133 1.0583045 5.608253 9
-1.2787971 1.3479387 5.6423788 11
-1.9659771 1.7221671 5.7408013 11
-2.257308 1.858847 5.6917686 12
-1.8450309 1.8571272 5.6522112 13
-1.7881689 1.977021 5.6591768 14
-2.2512951 2.1494553 5.6651583 14
-0.64737689 2.0700173 5.738699 17
-0.50904107 2.1950579 5.7075567 18
0.8949129 2.1790779 5.7967091 20
-1.8250649 2.2048333 5.7786031 14
-0.53049207 2.2613606 5.7339725 19
-1.9152335 0.02009736 5.8913002 2
-0.19411625 0.19706607 5.9189377 4.5
-0.55748606 0.32622689 5.807096 5
-0.51651937 0.53674388 5.8972359 6
-0.87702996 0.60283566 5.8375273 7
-0.66602677 0.63327098 5.9264464 7
-1.4953363 1.5542021 5.9690886 11
-0.71296734 1.4113017 5.8771253 12
-0.56083357 1.5520139 5.9768033 13
-0.6893568 1.7911996 5.970696 14
-0.42655843 1.6321762 5.9832959 14
-1.8687375 1.8922179 5.9507437 12
-1.5590899 1.8546405 5.9063349 12
-0.71751505 1.9019164 5.8485065 15
-0.49283174 1.9344693 5.8732114 16
-1.8342085 2.0453844 5.9146886 13
-1.0429227 2.0473871 5.9215155 14
-0.96769559 2.1742382 5.9591494 15
0.96880084 2.0991805 5.9084044 19
1.0581403 2.0522344 5.9612465 18
-1.0003834 2.2148523 5.8647647 15
-0.96366221 2.2699132 5.8295989 16
0.41511607 2.221472 5.891181 20
-0.39629376 0.22760439 6.1315403 4
-1.3888571 0.57755482 6.040648 5
-0.38881093 0.42032918 6.1584911 6
-1.3880637 0.68986654 6.1117792 6
-0.45283395 0.66095644 6.0973139 7.5
-1.39248 0.9390465 6.1507497 7
-0.47060597 0.86950457 6.1282768 9
-1.5120506 1.341364 6.0411978 9
-0.54726684 1.3793182 6.1142836 11
-0.39688581 1.4982785 6.093626 13
-1.0744582 1.706484 6.1555882 12
-0.57129025 1.6938543 6.0872059 14.5
-0.55097383 1.8328819 6.0105667 16
-1.1032109 2.0538454 6.0443535 13.5
-0.65640491 2.1604869 6.0379038 15
0.39959008 2.1247604 6.0292034 18.5
-1.024327 0.0037791654 6.31107 2
0.13694881 0.16868301 6.3908849 5
-0.27872866 0.30994725 6.2445564 5.5
-0.84620565 0.52997607 6.3453202 5
0.089179695 0.51790005 6.2227335 6
-1.1306585 0.65390265 6.2497644 6
-0.91914058 0.63357139 6.3328776 6
-0.23647791 0.67999959 6.283124 8
-0.055876195 0.76375824 6.3663025 8.5
0.23099607 0.66722673 6.3239655 7
-0.22711945 0.99720043 6.3308096 8
0.24735796 0.88606012 6.2189693 8
-0.56048089 1.1069986 6.2107306 8.5
-0.3484748 1.0544987 6.2118206 10
-0.030735195 1.0937396 6.367197 11
-0.35987887 1.2673804 6.2216139 10.75
-0.13069899 1.3019102 6.3367019 10.5
-1.0500662 1.4221987 6.262187 10
-0.48904875 1.8314439 6.3345041 12
0.061545253 1.8936344 6.3180919 16.5
-0.94236588 2.1774306 6.299315 13
-0.47537532 2.0655708 6.3107586 13.5
0.028746545 2.0939276 6.2204552 18
-0.50603002 0.58429831 6.507122 5
0.17501622 0.43314496 6.5204077 6
-0.64650261 0.80903202 6.4264197 6
0.18184 0.93201303 6.5206614 10
-0.83278298 1.113441 6.5105314 8
-1.060343 1.2662716 6.4055462 9
-0.95534748 1.6929524 6.4173737 11
-0.16816314 1.7308651 6.4204578 13.5
0.0096739978 1.7905818 6.5863471 14
-0.61152267 1.9735419 6.4868727 12
-0.62899429 2.1476176 6.465313 13
-0.37444699 2.1479673 6.5732074 13
0.32686865 2.0158446 6.5958648 15
-0.50608069 0.14369603 6.6052308 3
-0.52669156 0.33768898 6.6216946 4
0.35735077 0.32367015 6.6640124 5.5
0.41377485 0.62143564 6.6343513 7
-0.3231107 0.81063056 6.788075 6
-0.19178464 0.99269634 6.692976 7
-0.19414233 1.2152205 6.7650037 8
0.24180137 1.4820888 6.7060566 12
-0.54227126 1.7030952 6.7036695 11
0.16711925 1.7236437 6.6090283 13
0.030686244 1.9995838 6.6070685 15
0.28224403 1.8502254 6.755496 14
-0.37001303 2.0097167 6.6291385 12
0.59005255 -0.11053628 6.8702488 3
0.77019948 -0.10248941 6.9334936 3
-0.15308197 0.025090076 6.8851523 2
0.41944772 0.18465421 6.8209753 5
0.61446363 0.037390858 6.8334246 4
-0.15143037 0.39698106 6.8124766 4
0.42123061 0.46263891 6.811305 7
0.46576756 0.74181938 6.8521671 8
0.71703237 0.63795102 6.954854 8
0.67462897 0.887205 6.9150486 9.5
-0.32347476 1.587499 6.8094654 10
1.2654629 1.5675306 6.9409132 15
0.099100403 2.0862737 6.9007916 12
0.93845499 -0.099024087 7.0244002 4
0.37211478 0.19261992 7.0931878 3
0.99088806 0.10539652 7.1457591 5
1.023813 0.18512949 7.1023598 5.5
0.42023376 0.38711274 7.1717029 4
1.0300709 0.33111364 7.1405067 6
0.17036955 0.46249759 7.1462016 5
0.43172786 0.52419853 7.1536059 5
1.0473821 0.42898038 7.0762091 7
0.34211144 0.73825639 7.1999664 6
0.15846036 1.5158986 7.1648436 9
1.2048788 1.4822044 7.1239948 14
0.14502437 1.7777859 7.0671272 10.5
1.2295443 1.7648513 7.124136 16
0.50797451 2.0916462 7.0628185 12
1.4032903 -0.26709872 7.3404818 3
1.3995402 -0.19648701 7.3349895 4
1.3884242 0.62361544 7.389679 8
1.367475 0.93812072 7.3752213 9.5
0.3573747 1.0863836 7.2433124 7
0.4500339 1.492214 7.235836 9
0.44630945 1.7610689 7.216073 10
0.47845906 1.8944929 7.207274 11
1.5787401 0.074810863 7.4308567 5
1.631794 0.30407619 7.4933271 6
1.4403026 1.093931 7.4436369 11
1.2016586 1.6246462 7.5671988 13
