# .PCD v0.7 - Point Cloud Data file format
VERSION 0.7
FIELDS x y z intensity
SIZE 4 4 4 4
TYPE F F F F
COUNT 1 1 1 1
WIDTH 1223
HEIGHT 1
VIEWPOINT 0 0 0 1 0 0 0
POINTS 1223
DATA ascii
1.9105835 0.92175829 1.4141442 15
-2.042551 1.051329 1.4256588 13.04525
-1.8662858 1.0559928 1.4138854 12.042
-1.7521454 1.0176311 1.4739283 16.052
1.7668213 1.0486875 1.4553063 16.8645
1.8596512 1.0034448 1.4913009 16.092501
1.9375829 1.091248 1.484635 16.093
2.0549183 1.0833409 1.4232023 18.107876
-2.2781093 1.1285534 1.4078333 5.8000002
-1.9796624 1.1001662 1.4730672 14.044
-1.844054 1.183672 1.4674517 16.047251
-1.7323525 1.1442966 1.4672624 15.54375
-1.6901665 1.1436555 1.4513084 18.050999
1.7378814 1.1277015 1.4372362 18.107124
1.8944958 1.1688282 1.4752674 14.12025
1.9413166 1.1771133 1.4762397 18.612249
2.027036 1.1143372 1.482939 19.102249
-2.2662244 1.2684989 1.4439691 8.0349998
-2.1589313 1.2473185 1.4660004 12.290874
-2.0226429 1.2638887 1.4597069 14.376
-1.9563358 1.2103589 1.425683 15.543375
-1.7307334 1.2753831 1.4630949 15.0375
-1.6287268 1.2401146 1.4400535 20.049999
1.8710741 1.264087 1.4519765 18.616875
1.9483186 1.2971261 1.4683208 22.60725
2.0651364 1.2336814 1.4260894 20.103001
2.2569642 1.2330096 1.4698875 18.099001
-2.0753448 1.3769064 1.4054024 14.54
-1.9441863 1.3274955 1.4381932 16.461197
-1.7053988 1.3168991 1.4444273 18.047501
1.7557889 1.3326628 1.4661136 22.112499
1.9194412 1.3900621 1.4040349 19.1175
2.064203 1.3998313 1.4408411 19.094
2.102165 1.3226272 1.4055289 18.0945
-2.170996 1.4671762 1.459811 12.034625
-1.9631304 1.4062515 1.4111931 16.040001
-1.8772039 1.4120713 1.4727036 18
1.7315266 1.4289907 1.4720857 23.0965
1.8595567 1.453882 1.4670674 20.116749
2.0480278 1.4511973 1.4837844 21.098
2.1172392 1.4191511 1.4112015 19.0945
-2.0410202 1.5529017 1.4425663 17.040251
-1.9439816 1.532166 1.427145 19.041626
-1.8470958 1.5513606 1.4415382 20.488916
1.8618683 1.5051228 1.4450651 23.113001
2.1352181 1.525824 1.4572546 20.09425
-1.9940152 1.6776769 1.4569194 19.040251
2.1352448 1.6723992 1.4548764 21.09425
2.4361558 1.6146309 1.4506371 21.099751
-1.9219836 1.7839113 1.4451284 21.040001
-1.8499055 1.762135 1.4758162 22.543625
-1.7599882 1.7622072 1.4272522 23.045502
2.2464767 1.7872863 1.430675 22.094999
2.4548233 1.748897 1.4900206 22.099501
-2.0401673 1.841867 1.4173944 17.2665
-1.9283645 1.8016994 1.4883089 21.040501
2.2172432 1.8603662 1.4751621 22.0945
-1.9853265 1.9168112 1.4092453 19.032749
2.2244425 1.9642885 1.4514725 23.094749
-1.9398537 2.0915658 1.4418228 22.534752
-1.8711785 2.1518753 1.4805776 23.032749
2.380403 2.2387798 1.4672372 23.121
1.7731988 0.061394908 1.5745492 3.6666667
1.790025 0.1312421 1.5998211 4.75
-1.7687322 0.38351855 1.5552069 8.0524998
1.6947293 0.37097412 1.5645096 9.0955
1.7117914 0.36249521 1.5381545 8
1.857851 0.31423855 1.5448132 8.4341669
1.9172773 0.39392143 1.5821314 9.60075
1.7284237 0.4310655 1.5614777 8.0843143
1.8842005 0.44788718 1.5957202 10.267333
1.9326801 0.44820324 1.5084065 9.09725
-1.7463282 0.53297615 1.5308216 10.0525
1.6474476 0.55762792 1.5426725 8.7064381
1.7698818 0.55322951 1.5160787 10.201
1.833722 0.54200411 1.5602268 11.76725
1.9625745 0.53763056 1.5432343 11.101625
-1.7516857 0.6416083 1.5615458 11.05175
1.594597 0.63194525 1.5619467 7
1.7612065 0.65794295 1.5531415 13.400416
1.8320308 0.63800716 1.5426124 11.104568
-1.9143314 0.73264945 1.5796585 9.0485001
-1.8662225 0.78704369 1.514433 12.0495
-1.7280124 0.7421847 1.5191282 13.0525
1.5803825 0.79815483 1.5615451 10.1195
1.6646405 0.73806715 1.5988671 9.1187496
1.7536025 0.75641489 1.5572076 12.708443
1.8574038 0.70747232 1.5669155 13.109
-2.0759809 0.83784539 1.5724543 9.5225
-1.8599842 0.82872975 1.5652111 11.54925
-1.7103337 0.89749992 1.5020273 15.0525
1.595064 0.81470788 1.5146676 10.12
1.7520592 0.84158039 1.54336 14.030084
1.8543446 0.84754926 1.5413649 15.385501
1.9565723 0.8074618 1.5196792 14.09725
2.0073977 0.82856417 1.5189857 14.1115
-2.0262828 0.94957149 1.5012522 11.166667
-1.7971265 0.94156015 1.5378716 15.05
1.6887325 0.94066834 1.5091949 11.12
1.7612873 0.96188635 1.538558 16.788553
1.8761002 0.94486171 1.5367931 14.107583
-2.2477667 1.0591102 1.5076425 9.0415001
-2.0118308 1.0643073 1.5450801 12.855501
-1.9375048 1.0726461 1.5702484 13.548
-1.7345908 1.0017484 1.5992315 16.051001
1.6465696 1.0088661 1.5354118 12.62
1.7369801 1.0372877 1.5474596 16.872
1.9257379 1.0721838 1.5150404 19.1015
-2.3208437 1.118849 1.5485947 6
-2.2903244 1.1972511 1.5395715 7
-1.934858 1.1336309 1.549554 15.7145
1.6585541 1.1065559 1.5531924 17.115749
1.7424079 1.1119167 1.5087498 19.096251
1.8785889 1.1395628 1.5426116 19.608749
1.9644048 1.1605392 1.5572668 18.611374
-2.2885263 1.2091699 1.524018 8.0360003
-2.1775842 1.2624317 1.5921602 13.04225
-2.0228915 1.2191622 1.5541582 15.212667
-1.9444566 1.2384224 1.5421858 15.524
1.8847055 1.2727304 1.5644079 19.446167
2.0192568 1.2539306 1.5373287 19.435501
2.2204261 1.2168747 1.5098686 18.098499
-2.1285579 1.3920718 1.5145345 15.04125
-1.9678433 1.3845744 1.5560474 17.047501
-1.7146485 1.3547802 1.5419546 19.0485
1.7279078 1.364446 1.5485517 21.151438
1.8201972 1.3780544 1.5110123 17.120501
-2.0528212 1.4471285 1.5506704 16.041626
-1.7641389 1.4003139 1.5972778 20.050501
1.8484337 1.476481 1.5175829 21.116501
2.0545068 1.4830785 1.5772263 19.593
-2.1774542 1.5648189 1.5275183 13.03525
-2.0631356 1.5652678 1.530485 17.04125
-1.9033501 1.5304589 1.5662887 19.04775
-1.8019798 1.5614381 1.5058107 20.047501
-1.7994442 1.5025145 1.5478654 20.048
-1.6130757 1.5135187 1.5464919 23.051001
2.3693919 1.5611591 1.5478349 20.598751
-2.0208726 1.6985637 1.5235925 19.041
-1.8589344 1.6932012 1.5608537 21.379501
1.6869529 1.6803274 1.586478 22.12075
-2.1186738 1.7174623 1.5173116 16.03475
-1.9064032 1.798191 1.5209377 22.044001
-1.8416697 1.7830008 1.5737948 23.04475
2.147212 1.7430062 1.5495046 21.760332
2.4210634 1.7212039 1.5453547 22.099001
-2.0812373 1.8344693 1.5634768 18.035
-1.9787722 1.875289 1.5995951 22.04175
-2.0595391 1.94093 1.5625004 18.856501
2.174232 1.9455931 1.5548069 23.09375
-1.9497674 2.0664778 1.5391052 21.533875
-1.8899771 2.1531119 1.5381995 23.033501
2.4513583 2.1730595 1.5515629 23.120001
-5.9983273 3.4937336 1.5303566 14.04
-3.9667902 3.6226907 1.5190588 20.037001
1.8195633 0.071297094 1.6380687 4.3333335
1.6894896 0.25722253 1.6091012 4
1.6512772 0.39958584 1.6488098 9.0944996
1.7800603 0.39536357 1.6855652 9.099
1.8622261 0.35527754 1.6518642 8.5666666
-2.1395979 0.49656537 1.6525519 4
-1.8954761 0.48386008 1.6489582 5
1.6583481 0.45766258 1.6556057 9.2052507
1.7385845 0.45958507 1.6446574 9.6043749
1.8623202 0.40087938 1.6698986 9.5
-2.1465478 0.55864131 1.6122315 4.7142859
-1.8062632 0.58823925 1.660723 9.0512505
1.6406841 0.55071568 1.6701186 10.851624
1.7001064 0.57522589 1.604277 11.11
1.8348585 0.55660748 1.653576 12.099625
1.9129415 0.54437011 1.6439265 10.096
-2.1130252 0.68398118 1.6541309 7
1.659997 0.67068362 1.6294818 13.102249
1.7527891 0.64808261 1.6515733 11.321834
1.8431765 0.65695775 1.6347518 13.420721
-2.0534401 0.76097298 1.66276 9.5480003
-1.9199512 0.72672635 1.6341062 9.0489998
-1.7681661 0.75199407 1.6153551 12.051
1.5350496 0.78764105 1.6561581 10.1185
1.6726418 0.78939915 1.6523612 13.361876
1.8329655 0.77317977 1.6429877 14.60725
-2.1118898 0.82120669 1.6715693 9.0459995
-2.0849867 0.84490573 1.6123199 9.5
-1.8459444 0.8310895 1.6560559 10.0495
1.6518613 0.8878637 1.6273936 11.11875
1.7485237 0.86960065 1.62971 15.350882
1.8269202 0.84381944 1.6305453 16.992056
-2.0484903 0.95815486 1.6591644 11.04725
-1.9547819 0.98318505 1.6689264 10.025
1.5890988 0.96596217 1.6907928 12.451667
1.6416838 0.97555596 1.6307895 15.1145
1.7376326 0.95010877 1.6468492 16.183125
1.8149345 0.93342423 1.6597888 15.600375
1.9357536 0.90161473 1.6647551 16.1
-2.0373785 1.0287025 1.6237197 12.5455
-1.8587786 1.0056449 1.6386421 15.0505
1.6661012 1.0622219 1.6516781 17.705051
1.8487444 1.0576551 1.6393056 17.476938
1.9081452 1.0684503 1.6043344 19.1005
-2.0007474 1.1733552 1.6244535 14.0455
-1.9354692 1.1511323 1.6991712 15.5485
1.7325584 1.1545465 1.6572793 17.765709
1.8312278 1.1182135 1.6575474 20.10475
1.9631248 1.1602247 1.6060399 20.10075
-2.161797 1.260199 1.6821237 13.04325
-1.9623908 1.2486706 1.6339637 15.548375
1.6701106 1.2467289 1.6722147 16.118999
1.8423978 1.2208856 1.6550701 22.10475
1.9556202 1.276011 1.6207449 20.11075
-2.0302973 1.3428655 1.698823 16.046
1.6734512 1.344806 1.6538208 22.352249
1.848937 1.3326324 1.6278291 19.031208
1.9829929 1.3654454 1.6273422 18.592251
-2.1294279 1.4020213 1.6559067 15
-1.7663199 1.433054 1.6493475 21.051001
1.726022 1.4526122 1.6592805 22.10475
1.8484523 1.4662077 1.6497443 22.6075
1.9849535 1.4519247 1.6591361 19.091999
-2.2478361 1.525511 1.6388924 13.03675
-2.0731149 1.5421582 1.6485842 17.042625
-1.974126 1.5197632 1.6776812 19.04575
-1.8164604 1.5583682 1.659019 20.049
-1.7996459 1.5641469 1.6007764 20.5485
2.0452166 1.5489279 1.6401104 20.092501
2.2866261 1.5054615 1.6046702 20.098
-2.1894712 1.6632519 1.6044385 15.036
-1.9456404 1.6723547 1.6667749 20.180834
-1.8264847 1.6567928 1.6743813 21.049
1.6442569 1.6176207 1.654116 21.120001
1.9058547 1.6689368 1.69651 23.095501
2.0841238 1.6938767 1.674466 21.092501
2.2807584 1.6173156 1.6645287 21.0975
2.3222561 1.6462851 1.6247492 21.098
-1.8819698 1.7173047 1.66249 21.712334
1.6458575 1.7961817 1.6416636 23.120501
2.0907431 1.7932065 1.606815 22.093
-2.1314478 1.8592103 1.6639261 18.036251
2.0619395 1.8270329 1.6481752 22.092501
-2.1008854 1.9671187 1.6626493 19.035999
-1.9999018 1.9159349 1.6706369 22.0425
2.1167974 1.9163671 1.6602118 23.092751
-2.0244088 2.0297971 1.6290336 21.03525
-1.950603 2.1768994 1.6417327 23.035
-6.1060171 2.2854505 1.6430529 9.0410004
-4.0679884 3.3643539 1.6686128 20.040001
-5.9001718 3.4894972 1.6739817 14.0405
1.5798726 0.037178479 1.7451823 3
1.6313335 0.059601624 1.7883463 2.5
1.5733539 0.10038462 1.7923502 4.1111112
1.6530709 0.19443029 1.7599887 4.9230771
1.5982933 0.23509219 1.7518525 4
1.4717969 0.39127281 1.7911663 8.1070004
1.5973346 0.39997762 1.7775371 10.102
1.6882468 0.3829926 1.7574717 8.0895004
1.8082883 0.35445353 1.7439202 8.3466244
1.4943643 0.40413877 1.7577765 8.1075001
1.5493152 0.45322144 1.7290317 9.600625
1.6376705 0.41276249 1.7376261 7.8674164
1.7321333 0.45885316 1.7312808 10.065499
1.8372774 0.42545024 1.7448585 9.8511257
-1.9600123 0.52121633 1.7432953 7.2561393
-1.8979747 0.54448223 1.7531757 6
1.4459264 0.51901495 1.7344364 8.6127501
1.6471117 0.53383517 1.7550725 9.3520632
1.4479232 0.63242114 1.7670197 8.1169996
1.554091 0.63700348 1.7461354 12.108
1.6596495 0.64244497 1.7603594 11.953751
1.7347578 0.66806072 1.7459203 12.006042
-2.1749165 0.78040802 1.7871313 8.0469999
-2.0230026 0.75773954 1.7341566 11.0505
-1.9170793 0.72430551 1.7782007 11.0515
1.3727489 0.71418858 1.7902968 9.1169996
1.4567075 0.7385143 1.7231603 9.1177502
1.577801 0.75794542 1.7493759 13.6105
1.658573 0.76076669 1.7468009 13.918708
1.7001357 0.70116842 1.7388068 11.113
1.8357552 0.7593112 1.7508246 13.441998
-2.1835933 0.84663785 1.7940823 9.0469999
-1.9237876 0.8898564 1.7672174 13
1.5551732 0.87207401 1.774017 11.61725
1.6639738 0.85080355 1.7644618 16.430834
1.7510053 0.84286863 1.737579 14.839208
1.8534687 0.89762884 1.7838943 16.098499
-2.0769281 0.96666747 1.7239228 11.04775
-1.976046 0.98823327 1.7123052 14.0505
-1.8729701 0.98937118 1.7261633 14.5
1.5466146 0.98017144 1.7714955 14.837126
1.6459228 0.94665366 1.7370119 16.332388
1.806317 0.91325319 1.7520986 16.108749
-1.8818952 1.0051861 1.7837163 14.5
1.5905325 1.0122139 1.7076249 16.11375
1.6231502 1.050239 1.74482 18.766417
1.7426157 1.0629815 1.7500407 16.922125
1.8215939 1.0260677 1.7443211 13.1175
-2.0798318 1.15911 1.7958245 14.047
1.5591981 1.1802145 1.789454 22.0965
1.6523491 1.1246542 1.7483374 19.936083
1.7830572 1.1024948 1.7363994 20.436834
1.805275 1.1868242 1.700695 20.765665
-2.1568983 1.268239 1.7762188 13.04425
-2.0712438 1.2468982 1.7426677 14.697499
-1.8414645 1.2260003 1.7973554 16.050501
1.6519674 1.2500823 1.7390841 16.61825
1.8743459 1.2132783 1.7200797 15.118
1.9030253 1.2996447 1.7061771 20.609751
-2.1595647 1.3995755 1.7897305 15.04425
-1.9986677 1.3358785 1.7254057 16.049
-1.8336756 1.3188179 1.7669978 13.0375
1.6335928 1.3534391 1.7416931 22.43446
1.7861689 1.3137769 1.7887416 23.103001
1.9354477 1.3638319 1.7346423 18.591249
-2.0519857 1.4680377 1.7390299 16.647499
-1.7693154 1.4825213 1.7560633 19.550251
1.8260648 1.4062432 1.7872696 23.098249
1.9551773 1.4594357 1.7885228 19.091
2.1416693 1.417226 1.7203619 20.0965
-2.0611405 1.5244911 1.7455809 17.043751
-1.9864124 1.5552958 1.7806478 19.046749
1.5384014 1.50834 1.7656407 21.11875
2.0368431 1.594893 1.7034718 20.091999
2.2156677 1.5702362 1.7620256 21.0965
-1.9619517 1.6827619 1.7363198 21.046249
2.0230286 1.6460487 1.7752706 20.091499
-2.0528164 1.7449398 1.7331312 20.043375
-1.8490188 1.7019441 1.7437148 21.0495
2.0603807 1.7652562 1.7681441 21.091749
-2.1584959 1.8752866 1.7233751 18.037001
-1.895857 1.8021681 1.7768093 22.046749
2.0415535 1.8764482 1.7471286 22.591749
-2.0220957 1.9660065 1.7674975 22.043501
-1.9375708 1.9528739 1.7977436 23.044001
-1.8710711 1.94279 1.7032392 23.042999
2.0162687 1.9132382 1.7642672 23.091499
-2.0411539 2.2217534 1.7533698 23.036501
-4.3504596 3.183604 1.7009768 18.041
-4.1407189 3.24104 1.7966917 19.0415
-4.5355344 3.3401392 1.7333732 18.040501
-4.1542125 3.3292701 1.7541151 19.040501
-3.846508 3.3678935 1.758883 21.040501
1.4776062 0.063079566 1.8763022 3.5
1.4747152 0.1870538 1.8898634 6
1.5534663 0.25871739 1.8619134 6.1875
1.7507826 0.29230535 1.8601654 8.09725
1.4633951 0.35128453 1.8772397 8.7658339
1.5441642 0.37939823 1.8549418 9.4359999
1.6643128 0.35747123 1.8420347 7.7272506
1.7557628 0.37170738 1.8154159 8.09375
1.3535385 0.47728208 1.8589218 8.6083755
1.4362361 0.43997967 1.8289826 8.8032494
1.5653868 0.49769235 1.8733802 9.1014996
1.6272911 0.44895571 1.8435084 9.211134
1.7441213 0.43403044 1.818845 10.04875
1.8059008 0.41397488 1.8132429 9.0979996
1.359684 0.50877434 1.8180952 9.1114998
1.4967542 0.52776498 1.8706608 9.1110001
1.5578104 0.54096192 1.8278662 9.573
1.64899 0.55270952 1.8637203 10.231667
1.7303044 0.54325181 1.8536633 11.597125
-1.8747187 0.6578263 1.8696654 10.0525
1.5592748 0.66504765 1.8682121 10.180689
1.6707258 0.6500383 1.8450699 11.287251
1.7028077 0.60129267 1.8360248 11.09325
-2.0143948 0.7256462 1.8478174 8.0504999
-1.954893 0.73384285 1.8447481 10.55175
1.5373871 0.76749361 1.8105712 15.10725
1.6579529 0.75517708 1.8573371 13.409126
1.721571 0.73550689 1.8522556 11.611626
1.80645 0.79419148 1.8520391 14.1075
-1.9743679 0.89793211 1.841876 11.0505
1.449834 0.86109281 1.8866206 12.116
1.5530748 0.8501811 1.8387213 14.380138
1.6508005 0.86209404 1.8386346 15.092751
1.7090775 0.82031786 1.8162215 10.449833
-2.1493566 0.97581053 1.8027848 11.047
-2.0731974 0.98385233 1.8171058 11.04975
-1.9469111 0.96694791 1.8846531 12.051
1.4823923 0.97087067 1.8346608 17.112
1.5681725 0.94470066 1.8655057 16.265249
1.6549407 0.94799852 1.8571838 15.611876
1.7378409 0.95513457 1.826299 16.372219
1.82319 0.97975248 1.8296167 16.094
-1.8992327 1.0266879 1.8519418 14.552
1.5527272 1.0564013 1.8570437 18.263666
1.6813159 1.020205 1.8204168 15.5765
1.7175159 1.0359244 1.8868611 19.053501
1.8060414 1.067706 1.8794886 15.0895
-2.0583453 1.1725661 1.8082085 14
-1.8559389 1.143387 1.8245088 16.052
1.577565 1.1172948 1.8296511 20.596251
1.6632004 1.167062 1.838064 18.085562
1.726204 1.1335217 1.8230169 21.102249
-2.1509593 1.2981734 1.8475132 13.045
1.4993176 1.2350194 1.8716822 22.095249
1.5617959 1.2171285 1.8410513 22.096001
1.610903 1.2270796 1.8647809 19.112
1.7130119 1.2547171 1.85932 21.596874
1.8261667 1.2390184 1.8601274 17.08975
2.038918 1.2925073 1.8536822 19.094999
-2.0715232 1.3079114 1.814942 15.5
1.5807936 1.3127072 1.8201336 21.092499
1.8360903 1.3483002 1.8478479 21.300299
1.9087982 1.3897824 1.8293957 18.0905
-2.0268719 1.4789724 1.811736 18.047001
1.5363564 1.4512711 1.8481908 22.613813
1.9081713 1.4557205 1.8283645 19.0905
2.0856347 1.4862245 1.8755233 20.094999
-1.7537174 1.5468321 1.83551 20.051001
2.1692586 1.5395682 1.8019564 21.096001
1.5191119 1.6493556 1.8932121 23.1175
1.7858906 1.6664368 1.8590702 23.0935
1.8875238 1.6974337 1.8006928 23.0945
1.9865416 1.6595203 1.8473911 20.424166
1.9524467 1.7027185 1.8610729 21.0905
1.9821035 1.8562875 1.8955135 22.0905
2.0195351 1.8737413 1.8475068 22.091
-2.036962 1.9935229 1.8148588 22.044001
-1.9720037 1.9001825 1.8276391 22.0495
1.9526496 1.9619182 1.8272762 23.09075
-2.6632254 2.1412182 1.8724604 19.042
-5.960104 2.3703241 1.8066151 9.0415001
-5.9501758 2.5052669 1.8329598 10.0415
-5.4662542 2.7803464 1.8706772 12.0415
-4.3099074 3.1827879 1.8975205 18.042
-5.2307339 3.383606 1.81556 16.041
-4.6545796 3.3444524 1.8324553 17.041
-4.3688121 3.3155406 1.8362157 18.041
-6.0644665 3.6524427 1.8353572 14.04
1.5762863 0.197595 1.9955177 6.1999998
1.6546812 0.10293302 1.9515662 5.1333332
1.5782759 0.20613283 1.9630246 6.5
1.7046976 0.29124063 1.928932 8
1.2476829 0.34909141 1.9771049 7.4000001
1.3147852 0.37211671 1.9513867 8.10425
1.4672683 0.32347986 1.9497694 7.6441941
1.7120261 0.37748414 1.9740028 9.0959997
1.1617553 0.46823889 1.9260627 8.1094999
1.342366 0.45970166 1.9590833 9.7709999
1.4954443 0.47656894 1.9526796 9.1075001
1.5462173 0.44195324 1.9724845 8.3182497
1.6048272 0.42359108 1.9125649 9.0918751
1.136254 0.50655168 1.9192091 6
1.2817835 0.54338896 1.9658967 11.104
1.363811 0.545591 1.9618618 10.107
1.4703683 0.552248 1.9603672 9.6098747
1.5467324 0.56912732 1.9812233 10.348312
1.6235348 0.55201095 1.9403405 11.093166
1.7049063 0.56946993 1.9279388 12.764706
1.1288238 0.6614626 1.9487512 9.1149998
1.3052881 0.63577878 1.9652498 11.1095
1.5413228 0.63723183 1.9692082 10.959312
1.7492242 0.64938033 1.9588753 12.101125
-2.0256522 0.72224557 1.905699 8.0509996
1.3865505 0.74981046 1.9839034 14.904401
1.415207 0.7568177 1.9257526 12.860374
1.5750217 0.71762449 1.9511551 13.542222
1.635179 0.75632203 1.914979 13.7545
1.725849 0.79260749 1.9208345 14.1065
1.4661086 0.84611523 1.9603951 16.2421
1.5293221 0.80346495 1.9836061 16
1.6201811 0.88096458 1.9610195 14.8605
1.7340134 0.88895488 1.9401032 15.856375
1.2987645 0.96380329 1.9881964 15.115
1.4740016 0.90087718 1.9901879 17.094
1.5431629 0.93471289 1.9595118 16.608
1.6469303 0.94418079 1.9534634 15.007105
1.7626259 0.92875761 1.9664757 17.096251
-1.9198946 1.0590479 1.9384176 15.0525
1.5522089 1.0435209 1.9653642 17.979334
1.6518418 1.0576671 1.9489143 17.23325
1.7367324 1.0553863 1.9813491 15.0885
1.8020127 1.0892385 1.9084175 19.097
1.5753813 1.1638727 1.9561214 18.610748
1.6497993 1.1962433 1.9100722 19.1115
1.5456024 1.2564615 1.9419417 18.93679
1.6194437 1.2029977 1.9639339 21.105499
-2.0769784 1.3563696 1.9773133 15.0465
-1.9847629 1.3101486 1.9431612 15.051
1.477897 1.3311441 1.9702982 22.098501
1.5899372 1.3876951 1.9933999 23.094749
1.7755785 1.3819129 1.9482741 22.60675
1.8257856 1.3576506 1.9489945 18.089251
1.9635725 1.3644972 1.9616034 19.09375
-2.2449501 1.4405438 1.9738135 15.046
1.5624022 1.4295288 1.9259329 23.1115
1.7664518 1.4700921 1.9616375 23.096251
1.8729585 1.4596179 1.9593633 19.0895
2.0489464 1.4671719 1.9555314 20.09425
1.914806 1.5467893 1.9423447 19.030001
-1.782794 1.6000712 1.9154866 20.0515
1.9244163 1.6623759 1.9483225 20.5
2.0558765 1.6135975 1.9567513 21.09425
-2.1176388 1.7132137 1.9618112 19.04575
1.7812686 1.7131442 1.990245 23.092501
1.9129362 1.7499968 1.9721242 21
-2.096168 1.8597593 1.9980648 21.046
-2.0227437 1.9276056 1.9889075 22.046
1.886878 2.0141606 1.9737871 23.0895
1.9224769 2.0222881 1.9239957 23.09
-5.3766956 2.7437844 1.9691037 12.042
-4.2436042 3.1875713 1.9823411 18.0425
-5.8752451 3.2890894 1.9131864 14.0415
-5.4560075 3.2860003 1.969162 15.042
-4.3439126 3.2829769 1.9241775 18.0415
-4.211163 3.2246463 1.9008663 19.042
-5.7478199 3.3193221 1.9919089 14.042
-4.1168003 3.3249516 1.9279419 19.0415
-5.4846978 3.4121528 1.9391866 15.0415
-4.0842133 3.5258501 1.9396288 20.039499
1.4754133 0.055845767 2.0615311 4
1.513773 0.11935199 2.0175905 3.75
1.4886656 0.21106347 2.0072331 5
1.1892501 0.39210257 2.087081 8.1017494
1.2392551 0.38597065 2.0553217 8.1025
1.3946685 0.34069651 2.0193324 9.0979996
1.4358708 0.357963 2.0522218 8.0966253
1.0377963 0.43680102 2.0248113 8.1075001
1.2431171 0.47762719 2.0479021 10.102625
1.3630905 0.47483939 2.0788658 8.1079998
1.4187117 0.4287836 2.07269 8.349
1.5251994 0.43085241 2.0534177 9.0903749
1.6455171 0.42615625 2.0587301 10.097
1.0595326 0.54773515 2.0364499 10.1075
1.3584096 0.53824955 2.0237479 9.1087494
1.4575075 0.53915173 2.0770009 10.594334
1.517359 0.58779579 2.0108545 12
1.6254306 0.53696942 2.0542705 11.596874
-1.9820487 0.68537194 2.0335505 8.0522499
0.97541058 0.63135171 2.0944817 9.1125002
1.1787107 0.60866028 2.0442677 11.108
1.2582526 0.64729077 2.0323014 12.605749
1.3431596 0.69221246 2.0292189 14
1.4335905 0.64741409 2.0488935 12.6819
1.5425872 0.61324483 2.0948982 8.1129999
1.6246006 0.64102781 2.0735521 11.106125
1.7179461 0.6523909 2.0447133 12.435166
1.1267551 0.75158471 2.0887802 11.113
1.2954814 0.75531149 2.0932987 15.1025
1.3490438 0.77408952 2.0268848 15.25
1.4584262 0.7607981 2.0472279 15.0465
1.536936 0.72623861 2.0378966 14.50318
1.6276228 0.73306364 2.0277119 10.7665
-1.9585874 0.82388514 2.0027051 10.052
1.2398612 0.89964664 2.0093899 17.108999
1.3575035 0.83827305 2.0634382 14.6085
1.4623798 0.81125748 2.0254877 14.545
1.5435909 0.84776175 2.041316 13.6862
1.6246878 0.81317317 2.0527267 16.849125
1.386317 0.97482222 2.0751934 18.092501
1.4549787 0.91845161 2.0593178 17.59325
1.5427483 0.9796133 2.0365076 17.56975
1.651494 0.96959639 2.050998 17.936333
1.4683824 1.0612282 2.0407181 17.064053
1.6445836 1.0363122 2.0484755 17.654654
1.7187704 1.0588235 2.0401089 17.092916
1.4479542 1.1204458 2.0913391 18.435583
1.5982037 1.1798929 2.0540915 22.099001
1.625242 1.161847 2.0081956 19.10725
1.4203932 1.2776339 2.0947676 22.092501
1.5739353 1.2411005 2.0474987 20.609751
1.7313755 1.2261808 2.0559821 16.087999
1.4337325 1.3415715 2.0411437 22.098999
1.5635843 1.3711151 2.0460751 22.602125
1.8999865 1.3334038 2.0950065 19.092501
-2.2335219 1.4489255 2.0717463 15.047
1.718166 1.4239174 2.0488238 23.10025
1.8236705 1.4095039 2.0822058 18.088499
1.9620793 1.4255643 2.0715382 19.593
-2.1714926 1.658289 2.0526681 18.046625
1.8842285 1.693074 2.0595522 20.089001
1.7220401 1.7008486 2.0016813 23.091999
-2.1124942 1.8891987 2.0516 21.046499
1.8734119 1.8214118 2.0431747 21.589001
-2.0747197 1.9206871 2.074719 21.054001
1.842856 2.008621 2.052943 23.029501
-5.5554795 2.4618537 2.0227199 11.0425
-6.0298934 2.6516972 2.0966363 10.0415
-2.6270285 2.6661069 2.0086269 23.048
-5.3333035 2.7310951 2.0850501 12.0425
-2.9224904 2.813529 2.0587423 23.04575
-5.9089565 2.9191175 2.0997276 12.0425
-4.6424713 2.9433677 2.0760555 15.041
-4.2458653 3.1572337 2.0795579 18.042999
-4.5110507 3.2755013 2.0171852 18.042
-3.6635311 3.2836168 2.0094569 21.042
-5.4223032 3.3856397 2.0497179 15.042
-4.0969715 3.322854 2.0202684 20.042
-5.2210274 3.4221995 2.0580912 16.042
-4.2278428 3.46612 2.0998783 19.040501
-4.0631332 3.5188084 2.019305 20.040001
1.431985 -0.034662232 2.1515877 3
1.4552581 0.10581742 2.1694126 4.25
1.4228368 0.29854545 2.1466031 8.0924997
1.604401 0.2461153 2.1052804 8.0985003
1.1482002 0.39870039 2.1427231 8.60075
1.2864996 0.30500913 2.1997252 9.0952501
1.349112 0.32200742 2.1246643 9.0965004
1.5735387 0.35048291 2.1540537 9
1.6118886 0.36423558 2.1095102 9.0985003
1.1646746 0.4740611 2.1590111 9.437583
1.2570798 0.44761997 2.1599903 8.1064997
1.38029 0.44375357 2.1654787 7.29425
1.4472499 0.42310667 2.1258106 9.0465002
1.5848726 0.4321073 2.146162 11.098
1.6043233 0.43429115 2.1032348 11.0985
0.98037279 0.55023992 2.1702611 9.3024998
1.2721747 0.54202944 2.1420214 9.7735834
1.3584861 0.5896005 2.1360338 11.105667
1.4245507 0.55822068 2.1431899 11.20575
1.5936346 0.53105587 2.1298354 11.596
1.6108971 0.56237447 2.1458869 11.60075
0.89208317 0.61418146 2.1851065 9.1107502
1.0655514 0.69252056 2.1428645 10.112
1.2595909 0.62362272 2.1679049 11.106501
1.3419708 0.61087859 2.1601429 11.348562
1.4515483 0.64101583 2.1555657 12.57817
1.5350561 0.63131863 2.1420717 12.092
1.6881814 0.62063462 2.1058388 12.10425
1.19856 0.72020102 2.1989596 15.1005
1.2551835 0.75333488 2.1282089 14.6045
1.384861 0.7601254 2.1664624 13.873668
1.4602455 0.75182724 2.1394942 14.460347
1.5412095 0.75182629 2.1620116 12.60775
1.614974 0.75805151 2.1186974 13.59725
1.2704715 0.86573613 2.1570456 15.607
1.3671378 0.87881976 2.1538901 15.0885
1.4604306 0.86220425 2.1377044 14.528783
1.580724 0.85439694 2.1348662 17.098
1.6088591 0.8777374 2.1856415 14.59
1.0599979 0.91939747 2.1674221 18.355875
1.3725276 0.93945611 2.1900671 17.091499
1.4513458 0.93388838 2.1647112 16.602457
1.6301545 0.93421704 2.1502659 15.931417
1.3468207 1.0467297 2.1740675 17.764
1.4597216 1.0672075 2.1680908 18.730188
1.5530181 1.0327344 2.1309483 16.27054
1.647954 1.0464329 2.1564591 16.980444
-2.922971 1.1438076 2.1045923 8.0459995
1.2248255 1.1771575 2.1819007 19.777418
1.3690636 1.1631031 2.1694062 21.602125
1.5042285 1.1047404 2.1155798 20.1035
1.3465197 1.2398801 2.1145949 22.10825
1.4720329 1.2745587 2.1982541 23.0965
1.5458578 1.289641 2.1301768 21.933334
1.6856005 1.2346321 2.1928027 16.087
1.3844252 1.3118368 2.1483791 22.091749
1.4534779 1.3728155 2.1805196 21.5905
1.6312542 1.309671 2.1137297 21.094
1.7547357 1.3564723 2.1884441 17.0875
1.8882569 1.3958741 2.1501904 19.091999
1.7765501 1.4382348 2.156064 18.087749
1.9536111 1.4903245 2.1356573 20.092501
1.945116 1.5351735 2.1997974 20.091999
1.8539015 1.6908432 2.1148129 20.088499
-5.9035912 1.7348802 2.1939969 5
1.7432961 1.7586226 2.1603618 21.989944
1.9829521 1.7670684 2.1511178 22.092501
2.0116172 1.7328705 2.1099672 22.093
1.827543 1.8047084 2.164659 23.091499
-2.0835142 1.9690557 2.1805162 21.054501
-5.662714 2.2333944 2.168674 9.0430002
-2.8659377 2.7639861 2.1418984 23.046499
-5.5455842 2.9216383 2.1586628 12.0415
-3.900774 2.9623618 2.1075006 19.0445
-3.8271682 2.92996 2.1832466 19.045
-5.5524254 3.1623931 2.1504498 14.0425
-4.3942566 3.1562192 2.1932611 18.043501
-5.2964721 3.2298863 2.1981857 15.043
-3.9125957 3.2969313 2.1944969 20.042999
-3.8138788 3.2768843 2.1900001 21.042999
-3.6371043 3.2776794 2.1798673 22.042999
-5.4374642 3.3671291 2.1657629 15.0425
-4.0399113 3.3075869 2.109014 20.0425
-5.3181949 3.4130557 2.1615553 16.0425
-4.4446039 3.4503655 2.1756968 18.041
1.3356833 0.040421013 2.2228336 2
1.460968 0.016516209 2.2413473 2
1.3124273 0.15282653 2.2742033 4.625
1.4742332 0.15699707 2.2303843 5.4666667
1.0012518 0.21630049 2.2272401 4.5714288
1.2637838 0.29444113 2.2575645 8.0944996
0.94026726 0.35562867 2.2810981 8.09725
1.0267749 0.36267841 2.2301049 6
1.2293048 0.35367063 2.2547724 8.1000004
1.3352545 0.36070973 2.2625961 8.5908747
0.7535001 0.43516156 2.2309601 5
0.99416316 0.47746301 2.2212589 10.0985
1.0626639 0.43750554 2.2479537 8.6014996
1.1185391 0.42599744 2.2887251 8.1040001
1.2886119 0.41754016 2.2787628 9.0872498
1.3393112 0.44542322 2.2616806 9.4759169
1.4292302 0.4303872 2.2282627 9.5918751
0.96786267 0.56060636 2.2335558 11.104
1.0314865 0.54443687 2.2927608 10.1035
1.1310717 0.56578106 2.2736535 12.099
1.2247518 0.5822348 2.2321832 10.1055
1.351238 0.55744207 2.2600803 11.06675
1.4678969 0.55549711 2.2480931 10.155472
1.5906574 0.57435954 2.2710655 11.102
0.84243858 0.61885357 2.2619548 9.6092501
0.97417545 0.66701388 2.235568 10.11025
1.160133 0.62264621 2.2134607 13.099999
1.2809196 0.60264957 2.2271359 11.105858
1.342392 0.64557827 2.2549019 12.317625
1.4530017 0.64673448 2.2360668 14.071938
1.563768 0.69731688 2.2250357 11.086
1.0437206 0.70748663 2.2797513 14.103875
1.1157663 0.71286213 2.2630537 14.351875
1.2921295 0.71592909 2.2689018 13.1055
1.3562797 0.76410234 2.2475705 14.163099
1.4495195 0.73971748 2.2488415 13.432918
1.5259082 0.75266618 2.2393947 11.6598
1.6083862 0.72803438 2.235018 14.1025
1.244095 0.82941651 2.2519829 15.205388
1.3571292 0.8479774 2.2269731 15.681999
1.5626348 0.8711561 2.2342489 14.59715
0.96751189 0.95189381 2.257571 18.10725
1.259733 0.94823289 2.2519422 16.605751
1.3175907 0.93755656 2.2299604 15.262417
1.4212055 0.96810555 2.266114 17.106251
1.5436888 0.93899965 2.2365465 16.963041
1.606344 0.99696791 2.2953846 14.086
-2.6130695 1.031203 2.2158079 9.0489998
1.2803966 1.0591006 2.2439272 18.588749
1.3748188 1.0559044 2.281301 19.25
1.4518399 1.0632552 2.2442355 18.60675
1.5467964 1.0169929 2.226223 17.548222
1.6426044 1.0600398 2.2334993 14.5865
1.1725256 1.1102209 2.2450917 21.105499
1.3688585 1.1125958 2.2744439 20.300375
1.4814066 1.1449265 2.2117331 21.5965
1.5681689 1.1194305 2.2544994 19.092501
1.664488 1.1852123 2.263694 16.0865
1.3784549 1.2143894 2.2856891 22.1005
1.4335222 1.2817264 2.2393274 22.601376
1.5360973 1.2761272 2.246609 21.092251
-2.2602506 1.3122287 2.2566488 15.054
1.2925475 1.378345 2.2594483 23.09
1.3609806 1.3739984 2.2465067 22.924084
1.7361039 1.3633555 2.2660825 17.087
1.8530307 1.3341358 2.2016182 19.091499
1.614079 1.4203855 2.2170715 22.093
1.8542371 1.4018261 2.2786083 19.091
1.4281714 1.5273397 2.278527 23.112249
1.5046302 1.5822625 2.2356081 23.113001
1.9311273 1.5852709 2.2723055 20.091499
-0.33797106 1.6620735 2.2067263 23.068501
1.5944996 1.6485727 2.2392766 22.0895
1.6689515 1.7109218 2.2083383 23.09025
-4.591228 1.8359561 2.2146554 8.0424995
1.6733267 1.9148189 2.2993197 21.5
1.6648083 2.0003695 2.2815185 23
-5.3993444 2.2818446 2.2182415 10.0435
-2.7472353 2.2640345 2.2062142 19.042
-4.7322803 2.4330919 2.246443 12.0435
-5.4859605 2.618017 2.2017472 11.043
-5.4588561 2.8803174 2.2577393 12.042
-3.018584 2.8516314 2.2823439 23.047001
-5.6330757 2.9667833 2.2190785 14.0435
-4.6843777 2.9893882 2.2764063 17.0445
-3.7992094 2.939872 2.2725081 20.0455
-3.2147779 3.0571814 2.2552195 22.045
-4.1670251 3.1347175 2.2558341 19.044001
-4.3706031 3.2215075 2.2980318 18.043501
-4.273984 3.2756565 2.205852 19.042999
-3.9130671 3.256268 2.2758031 20.043501
-3.694593 3.2815413 2.2554007 21.043501
-5.4292774 3.351676 2.2863736 15.043
-5.2383442 3.3809159 2.2823751 16.042999
-4.5892186 3.3688192 2.2422318 17.0415
-4.4222136 3.4139223 2.2628069 18.0415
-4.195045 3.4541588 2.2742782 19.0415
-6.9478617 4.0526519 2.2756758 14.0415
1.3164117 0.04271321 2.380249 3
1.3088725 0.1744926 2.3157265 5.375
0.95337862 0.24337153 2.3717899 4
1.2416419 0.28253028 2.3398736 7.8400283
1.3625054 0.27925074 2.3600638 6.6666665
1.4062674 0.21636261 2.3094707 5
0.89497352 0.37447345 2.3907182 8.0955
0.94282031 0.36265844 2.3541605 7.0482502
1.1494113 0.3907209 2.3726337 8.0979996
1.207276 0.36601448 2.3016052 8.0992498
1.3439938 0.35722446 2.3067217 8.0874996
1.4141517 0.39535725 2.3745575 9.7613325
0.72899979 0.43371639 2.3859737 8.0994997
0.96650869 0.42146274 2.3503332 7.8267498
1.0155295 0.44305155 2.3037491 9.4309998
1.2406214 0.44476342 2.35711 9.0619164
1.3317921 0.45835382 2.3092611 9.5500002
1.4224675 0.47316894 2.3687654 11.094749
0.75719392 0.56906492 2.3878231 9.1064997
0.96059138 0.54616064 2.3806736 10.101916
1.0494494 0.56787753 2.3512769 11.475062
1.1289997 0.54457939 2.3058336 10.104
1.2936364 0.56486547 2.3200285 11.087
1.312116 0.5035038 2.3995135 10.08675
1.4053868 0.58323443 2.3737493 13.0945
1.5364437 0.54147184 2.3341777 10.069625
0.75178277 0.62500829 2.3638628 10.107
0.95845127 0.66151816 2.381628 11.60475
1.0662446 0.69023252 2.3640409 14.097375
1.1721567 0.6561414 2.3555713 12.353624
1.2468089 0.65322357 2.3496449 11.689256
1.3313081 0.64670211 2.3348892 12.766083
1.5272435 0.66842759 2.3346176 11.5505
0.90097427 0.70995247 2.3291612 12.1085
1.0747232 0.79261315 2.3225188 15.1035
1.1335033 0.7096808 2.3903494 11.1085
1.2407217 0.73683572 2.349786 12.821251
1.3218294 0.79405129 2.342514 14.8405
1.529018 0.74625808 2.3151348 13.064416
1.0488482 0.80827236 2.3673296 16.102751
1.2314695 0.84724224 2.3120148 15.597
1.3540802 0.8285147 2.3421764 16.5
1.4640762 0.86821908 2.340884 15.437249
1.5307378 0.88540459 2.30778 14.207278
0.82904708 0.97841036 2.3976567 19.1075
1.1632168 0.95004201 2.3558207 16.598999
1.2449856 0.92748719 2.3321242 16.366333
1.3529177 0.91715586 2.3497088 17.529625
0.9371419 1.0377386 2.3193815 19.109501
1.0629313 1.0674267 2.384778 19.108999
1.2764328 1.0464294 2.3528392 17.54475
1.3574001 1.0560499 2.3411381 18.984917
1.4401171 1.0350847 2.354625 18.47275
1.5586597 1.0528876 2.3287137 17.092999
1.2846751 1.1445502 2.3640573 20.1045
1.3356599 1.1701639 2.361654 21.290472
1.6216559 1.1316272 2.3702838 15.085751
1.2487622 1.2287387 2.3400764 22.151388
1.3732922 1.2240447 2.3681874 22.094124
1.4529085 1.2722374 2.3202059 21.179457
1.6535352 1.2305709 2.3566315 16.086
-2.2774491 1.3651032 2.3776829 15.0545
1.3304322 1.3435588 2.3732913 22.597126
1.4021442 1.374722 2.3051593 23.106001
1.8057092 1.399431 2.3166876 19.0905
1.2352161 1.4257098 2.3235834 23.088999
1.384689 1.4675418 2.3572962 23.111
1.7078342 1.4993216 2.3294945 18
1.4714245 1.5220988 2.3393703 23.1115
1.5318909 1.6195092 2.3338513 22.088499
1.8602235 1.6432426 2.3569651 21.0905
1.6384108 1.7546582 2.3317356 23.089251
1.6414502 1.8993737 2.3376691 22.086
1.5856118 1.9474939 2.3842459 22.085501
-5.3701501 2.0744274 2.365876 9.0439997
-2.1865466 2.0826066 2.376889 22.053499
1.4575957 2.0829325 2.3957925 23.084499
1.5462191 2.0709808 2.3604429 23.085251
1.6296215 2.025279 2.3170199 23.086
-5.3497615 2.2839561 2.3248825 10.044
-5.539495 2.3932831 2.3010554 10.0435
-5.388011 2.6132717 2.3682771 12.044
-2.8607388 2.7127926 2.3669095 22.048
-5.4186049 2.8624144 2.3741298 12.0425
-3.2134485 3.068377 2.3338549 22.0455
-3.0521336 3.0197959 2.3332884 23.04575
-4.1273475 3.124697 2.3527405 19.0445
-3.3585651 3.1417129 2.3720393 22.0445
-5.2392044 3.2203774 2.3387437 15.0435
-5.0381598 3.2260234 2.3675075 16.043501
-4.2427449 3.2602069 2.3051343 19.043501
-3.7569885 3.2753935 2.3448687 21.044001
-6.5660882 3.4616766 2.3497729 13.043
-4.1776662 3.4480028 2.3669164 20.042
-3.8601418 3.41819 2.3686857 21.042
-5.3017488 3.5532637 2.3796363 16.042
1.1545303 0.0062893629 2.4652622 2
1.1878607 0.10708088 2.4097009 4.5
1.3195896 0.16182935 2.4510198 5.625
0.83699805 0.25493783 2.4957025 4
1.1415759 0.24031347 2.4698446 6.8793335
1.1572795 0.38195407 2.4531727 8.5880623
1.3621858 0.39554703 2.4629183 10.0935
0.6808145 0.45905167 2.491678 8.7641668
0.88542044 0.44483384 2.467783 9.4278326
0.95841396 0.47630101 2.4254766 9.5983753
1.1543363 0.42302507 2.4483516 8.5852499
1.2210881 0.41779867 2.4215987 5
1.3566428 0.46303394 2.450706 11.0935
1.4754214 0.47957817 2.4376142 7.5
0.64975047 0.56563979 2.449724 9.2156668
0.7549566 0.57212609 2.4121459 9.1059999
0.95745361 0.53743875 2.4765704 11.345125
1.029687 0.5480938 2.4472201 11.181249
1.1514769 0.57429069 2.4371901 10.264458
1.2356634 0.56047189 2.4601011 9.0967503
1.3216157 0.54607642 2.4227238 10.25425
1.4850709 0.54729325 2.431639 11.099751
0.69577074 0.66515017 2.4590125 11.605
0.79892135 0.6961056 2.4727068 12.1055
0.86748385 0.6575911 2.4256361 13.100375
1.0850092 0.6913954 2.4447613 12.10475
1.1420523 0.66278195 2.4178438 12.697001
1.2717564 0.65327615 2.4478552 12.764501
1.3487464 0.60344887 2.4377875 13.3435
1.0822949 0.73384422 2.4907732 14.094125
1.1560456 0.74757034 2.4366586 13.95225
1.2068843 0.78821903 2.4130056 13.085751
1.3563242 0.73958617 2.4515557 14.098416
1.4646387 0.7510649 2.4477959 14.099501
-2.5393434 0.8567059 2.4409957 8.0509996
0.88170302 0.81922656 2.4739699 15.10625
1.0051364 0.86461365 2.4088778 15.108
1.1596396 0.84131789 2.4554744 15.078062
1.2394465 0.86389732 2.4279897 15.095668
1.3659257 0.85381216 2.4596066 14.913246
1.432538 0.84303772 2.4173713 15.599626
0.73908937 0.92939961 2.4747996 18.105499
0.88997942 0.97185266 2.4544749 20.10025
1.2516325 0.96669036 2.4520855 18.3978
1.3970956 0.95101166 2.4905381 15.1085
1.4584719 0.96577704 2.4211099 15.1095
0.89762968 1.0903344 2.4816604 22.1
1.0166291 1.0978957 2.4712973 20.1075
1.1767083 1.0509033 2.4381573 19.765917
1.437062 1.0166981 2.4742954 17.09
1.2683798 1.157048 2.458751 20.661833
1.451108 1.1507475 2.4447212 20.099501
1.5685428 1.1655201 2.465796 15.085
1.1567268 1.2730129 2.4151187 21.087749
1.2527435 1.2604903 2.4649456 22.498751
1.3403553 1.2313437 2.4423971 21.227501
1.594767 1.2679923 2.499747 16.084999
1.6323391 1.269147 2.4398274 16.085501
1.0837016 1.357313 2.4947381 22.0865
1.112309 1.3243806 2.4649398 22.087
1.2538741 1.3484861 2.4374046 22.088499
1.327562 1.3362507 2.4597468 21.764502
1.625046 1.3549526 2.4323132 17.085501
1.7140663 1.3321381 2.4766827 18.089001
1.1475478 1.4320674 2.4443278 23.087376
1.3299168 1.4113284 2.4155293 23.110001
1.4334248 1.4815716 2.4439192 23.110001
1.6362426 1.4549987 2.4574714 17.5
1.766036 1.4019949 2.4464386 19.0895
1.8115287 1.4689395 2.4070666 19.09
1.6281165 1.6893791 2.4397223 19.5
1.5900106 1.7617234 2.444699 22.588249
1.8213866 1.7115862 2.4490571 21.08975
-4.5232682 1.8104608 2.4308665 9.0450001
1.5309516 1.9543896 2.4576111 22.084749
1.3693365 2.0864956 2.494956 23.0835
1.4126222 2.0857728 2.442986 23.084
-5.2309279 2.2844474 2.487287 10.0445
-5.7529135 2.3638513 2.4278154 9.0430002
-5.1258769 2.309334 2.4864726 11.0445
-5.0686412 2.3571653 2.4159589 11.0445
-5.2998099 2.4325287 2.4050112 11.044
-2.7570102 2.6847925 2.4701433 22.549751
-5.5749178 2.7455127 2.4818747 11.043
-4.7492743 2.7743344 2.4692726 14.043
-2.8748167 2.7138412 2.4405823 22.049999
-3.3580508 2.8393674 2.4834075 21.047501
-3.6602092 2.9206476 2.4613092 20.046749
-3.000349 2.9670224 2.4175558 23.046499
-4.6093912 3.1525323 2.4416885 17.0445
-4.0950923 3.1255014 2.4443462 19.045
-4.8024349 3.2154896 2.4363942 17.044001
-4.3211546 3.213532 2.4662864 18
-4.2597904 3.2577214 2.4143341 18.771999
-4.1482816 3.2678466 2.4642372 19.5
-3.8154359 3.2703145 2.4371815 21.0445
-4.1230497 3.4285884 2.4563863 20.0425
-3.8346543 3.4236946 2.4549017 21.0425
-3.581285 3.4137185 2.4531689 22.0425
-5.4016562 3.5403862 2.4800482 16.0425
1.2780919 0.056452692 2.5068481 3.125
0.81339544 0.18783347 2.5623937 1
0.94403112 0.15674907 2.5661974 3.5
1.0913281 0.14548697 2.5232749 4.5
0.55499047 0.29164511 2.5296326 4
0.80151719 0.28784221 2.569912 4.5454545
1.414533 0.27502975 2.5551717 5.6666665
0.84666348 0.3974902 2.5305295 8.0935001
1.0725925 0.33602503 2.5387216 7.5419998
0.55068308 0.48228818 2.5546403 7
0.66598064 0.43512416 2.5540614 8.0965004
0.88556296 0.46037626 2.5371234 8.849
0.96410501 0.4963676 2.5681515 10.09
1.0524635 0.44729784 2.5821507 9.5476246
1.1306745 0.45680711 2.5216572 9.0904999
0.57860851 0.52965879 2.5546176 8.4353333
0.62113976 0.57524884 2.5233355 9.1030006
0.84936666 0.54947126 2.5639381 11.09575
1.0682764 0.51843959 2.533917 9.3027496
1.1544939 0.53321534 2.5232565 8.1064997
1.3799158 0.55253607 2.5204527 10.090333
1.4137567 0.53416848 2.5129395 11.0985
0.6899637 0.63000762 2.5065086 11.104
0.75334209 0.62138528 2.5422873 12.597626
0.93528169 0.63749915 2.5395372 12.971812
1.0107229 0.61062574 2.5536182 12
1.1806285 0.65975952 2.5699563 10.481188
1.225706 0.6568082 2.5254319 12.349375
0.67756104 0.7181561 2.5935593 13.1025
0.73106909 0.73854631 2.546566 14.6005
1.0297085 0.73559964 2.5756133 13.99295
1.1346283 0.72409213 2.5453157 14.096
1.244326 0.73704219 2.5602417 14.342125
1.3237391 0.7188217 2.5490482 13.08875
1.479502 0.71125728 2.5712039 10.084
-2.3254437 0.81900984 2.5341065 10.055
0.6536479 0.83513802 2.5485375 16.769917
0.96440393 0.89306891 2.5235193 17.1
1.0694361 0.81631905 2.5515971 15.767139
1.1714537 0.83016527 2.5774295 16.089001
1.2619305 0.85050553 2.5668068 15.249751
1.304994 0.80874968 2.550746 15.430667
0.78858417 0.94505179 2.5394866 19.098
0.81257468 0.95087379 2.5264046 19.098499
0.94592667 0.9688462 2.5569477 18.102501
1.1713922 0.97351348 2.5508034 18.096251
1.2989984 0.93036491 2.5363624 16.088501
1.3521677 0.94060892 2.5658901 16.237322
1.4368097 0.9259032 2.5033262 17.098751
0.91760242 1.0183588 2.5834522 19.105
1.0366457 1.0210428 2.5936685 19.099751
1.1463424 1.0671462 2.5632865 19.764168
1.2265922 1.0505215 2.5346127 18.973999
1.4072254 1.0145377 2.5112729 17.0895
0.86976725 1.1432841 2.5674613 23.098499
0.93036282 1.1173465 2.5379493 21.106001
1.0193062 1.1399508 2.5979912 19.085501
1.1632456 1.1553918 2.5363977 20.761583
1.2476933 1.1466725 2.5498347 21.091499
1.576964 1.1402651 2.5501177 14.418
1.1531377 1.2471255 2.5575762 21.094189
1.226687 1.2687809 2.5399384 22.724312
1.3528166 1.2267472 2.5529089 20.927999
1.1639011 1.3102555 2.587172 23.095751
1.251587 1.327801 2.5249491 22.435999
1.3475772 1.3848757 2.5476503 19.086
1.5707103 1.3690958 2.5646434 16
1.7100924 1.3514754 2.5662262 18.088499
-2.3775599 1.4437399 2.596072 15.054
1.0562315 1.4011688 2.539562 22.086
1.3969716 1.4158735 2.5026984 22.108999
-3.8066063 1.6679764 2.5655317 9.0450001
1.5557804 1.7765538 2.5943832 22.08725
1.7734416 1.7683198 2.5276294 22.089001
1.4667902 1.8835633 2.5534062 23.08675
1.447228 1.9056609 2.5766883 21
-2.1678424 2.0930295 2.5422664 21.054501
1.3256234 2.0921428 2.5484955 23.083
-4.8520103 2.1731009 2.5821304 11.0455
-5.2293143 2.4379303 2.5829453 11.045
-4.8237343 2.5537517 2.5382631 12.0435
-4.4830313 2.6351972 2.5208564 14.0435
-2.4412725 2.6831334 2.5290203 23.052
-4.6453314 2.9827678 2.5979896 17.046
-3.5722063 2.9127729 2.5669498 20.047501
-3.0486693 2.9855294 2.5893719 22.547501
-4.8786082 3.0759256 2.5786619 16.045
-3.169162 3.0542593 2.5515237 23.046501
-3.9341798 3.1617775 2.5125375 20.0455
-5.0473609 3.237489 2.5807352 16.0445
-4.7553673 3.2227588 2.5565708 17.0445
-4.3101645 3.2149873 2.5344727 18
-4.2774267 3.2030845 2.5884023 18.045
-4.1839762 3.2522156 2.5592098 19.022499
-3.8673325 3.2600772 2.5310106 20.045
-3.7676723 3.2306964 2.5197537 21.045
-4.3597679 3.3941553 2.545639 19.042999
-3.899405 3.3929386 2.5418513 21.042999
-3.9980907 3.413445 2.5446253 20.042999
-7.0323129 3.8215365 2.5775111 14.0435
-6.9737821 3.899493 2.5905149 14.0435
1.1662258 0.18925701 2.6457968 6.2666669
1.0336562 0.37459928 2.6546097 8.0893745
0.59641415 0.47483283 2.6056113 9.0950003
0.7996006 0.41290322 2.6594613 9.0917501
0.8541438 0.45911953 2.6453011 8.2301664
0.97882897 0.42933521 2.6689363 9.0852499
1.0261736 0.49022567 2.6381712 9.5887499
0.55857182 0.57574022 2.6029015 9.6009998
0.75347382 0.58654821 2.6353757 11.0965
0.85867643 0.52757728 2.6736746 9.4319592
0.92838722 0.5691871 2.6323824 11.334875
1.0160681 0.53600907 2.6918988 10.5895
1.150386 0.54944599 2.6650989 12
1.3216728 0.52049017 2.6620708 10.0965
1.4334934 0.53535223 2.6696906 8.25
0.88979983 0.64383733 2.6464925 12.7619
0.91788119 0.66543859 2.6635003 12.598
1.0853238 0.65138698 2.6688609 12.346875
1.1189193 0.66577619 2.6225014 14.09
1.3385422 0.60413343 2.6200638 12.097
0.58205467 0.79441231 2.6509929 16.0975
0.96694118 0.7831462 2.6599629 14.873716
1.0520016 0.76521534 2.6509969 14.92475
1.1623598 0.74213022 2.6558807 13.677334
1.2487396 0.75638467 2.6659644 14.4565
1.4577932 0.71896684 2.6892028 10
0.96987653 0.87221169 2.6955576 15.1035
1.0111146 0.82498205 2.6215172 15.102
1.1315845 0.869551 2.6435618 15.828618
1.2177744 0.87408316 2.671344 15.733093
0.73026067 0.93168896 2.6247203 19.096251
1.0933851 0.95669758 2.6586828 18.0945
1.1589909 0.96514958 2.6376343 18.156904
1.2518809 0.96866226 2.6487181 16.495501
1.3060433 0.95013684 2.6570053 15.362667
1.4752513 0.98121226 2.6882944 13.0835
0.88239384 1.0628076 2.6724586 20.1035
1.1588795 1.0707948 2.6345296 18.944313
1.2949855 1.0008692 2.6548834 16
1.5181067 1.0941306 2.6254351 14.084
0.71705163 1.1266026 2.6063826 22.603251
0.84678066 1.1650794 2.6283231 22.60075
1.074627 1.1599963 2.6308203 21.096415
0.82663161 1.2173533 2.6869545 23.0965
0.93697244 1.2326789 2.6853127 19.584249
1.0618701 1.2700883 2.6665292 23.094
1.1478686 1.2440014 2.6642158 22.147474
1.2796102 1.2777877 2.6395981 22.096251
1.5175111 1.2493029 2.6171341 15.042
1.0997891 1.3427896 2.6770842 21.085751
1.1424751 1.3419584 2.6521697 21.837875
1.2237164 1.320693 2.6641793 22.592876
1.345341 1.3684747 2.6222715 22.10725
1.5197414 1.3830978 2.6290627 16.584
1.6617385 1.3807089 2.6390831 18.087749
1.031455 1.4548883 2.6329861 22.085251
1.4813645 1.4270371 2.6630058 18.90826
1.5214286 1.4180976 2.6119282 19.087
-4.144588 1.6021287 2.6012888 8.0450001
-3.8151507 1.6088254 2.633451 8.0454998
1.4490746 1.6164353 2.6002467 21.0865
1.7285323 1.6481161 2.6264515 20.338249
-2.6809411 1.7490871 2.6385908 15.049
1.4558331 1.7297534 2.644707 20.47328
-4.9970255 1.8492656 2.6101966 8.0454998
1.353811 1.8784033 2.6659656 21.08275
-4.9254112 1.9532437 2.6255536 9.0454998
1.4239597 1.9071128 2.6192617 22.084751
1.2801865 2.0942757 2.6012928 23.0825
-5.4665475 2.1946623 2.6256089 9.0439997
-4.7151995 2.1459465 2.6595669 11.046
-5.1717415 2.2893252 2.6830153 12.046
-1.7562504 2.2730389 2.6399858 23.0585
-2.2644427 2.3915324 2.6986566 22.056
-1.9436684 2.3048539 2.6495767 23.057501
-1.8658199 2.3046699 2.6652911 23.058001
-5.3952365 2.5502903 2.6818171 11.044
-4.54776 2.5979283 2.6253548 13.044
-2.3709242 2.5975311 2.6369486 23.052999
-2.2473807 2.5614111 2.6607792 23.053749
-3.4573154 2.8922157 2.6569123 20.04825
-3.0403042 2.9629939 2.6558027 22.548
-4.8357954 3.0749393 2.6858041 16.0455
-3.0980527 3.0181453 2.6697793 23.047001
-4.2256308 3.1653755 2.6855934 18.044001
-3.9491067 3.107913 2.6865745 19.046499
-3.8411937 3.1463614 2.6710966 20.046499
-4.3326035 3.230603 2.6077802 18.043501
-4.1344318 3.2285016 2.6578126 19.0455
-4.0034065 3.2234926 2.6419091 20.0455
-5.337924 3.3458869 2.6786766 15.0435
-4.3312416 3.3742859 2.6449513 19.043501
-4.0009332 3.369364 2.6240816 20.043501
-3.6889176 3.3518822 2.6000147 21.043501
0.88803685 0.046338335 2.7835171 2
0.68186468 0.25463957 2.7538116 4
0.72085333 0.25719318 2.7218301 5
1.0622607 0.21121207 2.7884076 6
0.68462068 0.35171366 2.798403 6
0.72820187 0.3895919 2.7774692 8.0900002
0.98578697 0.3664037 2.7499199 7.5465002
1.0382297 0.39131886 2.7391438 8.0854998
0.40202948 0.45317271 2.7670608 9.0860004
0.5549733 0.48512745 2.7300756 9.0930004
0.75141376 0.42522565 2.7520282 7.3648334
0.84305727 0.47749251 2.7422557 10.0915
0.92169893 0.45282 2.7787602 9.0842495
1.3956256 0.41505608 2.7679098 7
0.4486455 0.55861026 2.738183 9.4307499
0.51691276 0.51366138 2.7322071 10.0925
0.62057698 0.51329184 2.7346001 8.0994997
0.81713003 0.53560895 2.763037 10.320625
0.95299399 0.55982453 2.7875361 11.08825
0.84549415 0.6327889 2.756197 11.8094
0.95549321 0.63650393 2.735435 10.852625
1.036144 0.65793443 2.7568836 12.33675
1.3678639 0.66670752 2.7277515 11.0855
1.4256812 0.63512236 2.7457414 9.0830002
0.60201502 0.75957036 2.7348263 14.0995
0.79238451 0.74443877 2.7651057 13.101
0.8559134 0.74097943 2.7444952 13.432417
0.97455001 0.74956173 2.7445338 12.757251
1.0583234 0.74304986 2.7511368 14.119445
1.1345375 0.78399307 2.7215443 15.591875
1.2659302 0.71472013 2.7216992 13.5955
1.4129072 0.75139695 2.7154903 10.083
0.58157814 0.80248463 2.745867 16.093
0.88264936 0.81019318 2.7685914 15.762917
0.9688971 0.85376716 2.7387712 16.097876
1.1334596 0.86389983 2.741364 16.297125
1.4279952 0.89510065 2.7469354 12.083
-2.8964524 0.92183065 2.798162 4
0.96238929 0.95249754 2.7375982 18.094084
1.0454245 0.9276076 2.7317512 16.977861
1.142581 0.98385 2.7464974 16.892666
1.226288 0.99343419 2.7163491 16.105
0.86249894 1.0177033 2.7953539 19.095751
1.2684445 1.0314908 2.7139411 17.591375
1.4573085 1.0585778 2.7408128 13.5
0.79086053 1.1957334 2.729754 23.101999
1.072608 1.1442394 2.737664 20.770849
1.1226268 1.1509476 2.7220612 20.089001
1.2132498 1.1015707 2.7725766 19.427834
0.86080116 1.2407029 2.7876222 23.095751
0.99775982 1.2442912 2.7336645 22.092751
1.0199364 1.2065716 2.7178948 22.087999
1.1379602 1.2353891 2.7438774 21.434
1.218222 1.2647967 2.7768331 21.1045
0.9096595 1.3097345 2.7741556 20.0835
1.109777 1.340598 2.7467108 22.588623
1.2657297 1.3815577 2.7544088 22.771875
-2.3966138 1.4945879 2.7176952 15.0545
1.3239636 1.446752 2.7155228 21.095627
1.6296431 1.42946 2.7519581 18.087
