# .PCD v0.7 - Point Cloud Data file format
VERSION 0.7
FIELDS x y z intensity
SIZE 4 4 4 4
TYPE F F F F
COUNT 1 1 1 1
WIDTH 1193
HEIGHT 1
VIEWPOINT 0 0 0 1 0 0 0
POINTS 1193
DATA ascii
2.2487388 2.3846469 -2.2964621 23.126249
3.1516211 2.3990741 -2.3644507 19.1255
3.4274974 2.3727674 -2.3350558 19.123062
3.7431324 2.3249261 -2.206562 18.692001
4.1895752 2.3396001 -2.2063885 17.12455
4.4840231 2.292202 -2.2746305 16.127001
4.9914389 2.3937016 -2.3743877 14.128
1.8880301 2.6894324 -2.2818582 23.13525
2.2128563 2.6254241 -2.1479337 22.909111
2.6304002 2.5563512 -2.2474549 21.518234
2.9787512 2.5126584 -2.2019222 20.944546
3.3682792 2.4656019 -2.1399393 18.905863
3.7927623 2.4905984 -2.2374647 17.129374
4.1243382 2.5346174 -2.040359 16.12925
4.4916391 2.5605321 -2.2980378 15.129
3.9867015 0.32697213 -1.9351739 5
3.9198623 0.62641901 -1.9298794 7.0622501
4.0490284 0.69396949 -1.7975123 7.9665003
3.9376647 1.0906516 -1.7639117 10.517375
4.0185409 1.0516912 -1.8521593 10.06175
0.99637425 1.5981195 -1.6946456 21.134501
3.8615997 1.3570695 -1.8301272 12.403584
4.0200291 1.2169061 -1.9832047 11
3.8706324 1.7362399 -1.7701211 15.104313
4.0453224 1.6862714 -1.7944574 14.12075
3.4940529 2.3023987 -1.8663856 18.980822
3.7137671 2.3268912 -1.7980309 19.003458
4.0425715 2.3816462 -1.7643007 18.126499
4.4073629 2.3172314 -1.9134811 17.125999
1.9971899 2.7571397 -1.8975796 23.1355
2.2419174 2.6847799 -1.8177414 23.132645
2.6167731 2.6111901 -1.8109598 22.391544
3.0035174 2.544209 -1.7884465 21.42979
3.3498406 2.4967134 -1.8126419 20.093987
3.8769448 2.6228666 -1.7548393 17.329401
4.2014651 2.5086811 -1.8494869 16.728001
4.4800959 2.4422917 -1.7316134 16.127251
2.3829856 2.8866708 -1.6321487 21.134501
2.5993893 2.8249319 -1.6485058 20.466833
3.4367816 0.36582643 -1.220368 6
3.4936175 0.67996538 -1.2977943 8.5582504
4.0409894 0.69317794 -1.4497383 8.1184998
-0.47223306 1.1635317 -1.2961835 20.006334
3.4778502 1.0549058 -1.2640998 11.616
3.8668308 1.0201355 -1.484817 10.498438
4.0858288 0.93285048 -1.5718355 9.1190004
-0.45978704 1.3181447 -1.2368728 22.33975
-0.34216201 1.4237876 -1.3151941 23.004749
3.8977873 1.4509946 -1.4086547 13.454556
4.0053625 1.3550566 -1.4088821 13.1185
-0.029393271 1.7357949 -1.2199833 23.00425
3.838026 1.8437253 -1.3877547 16.329128
3.042557 2.3934166 -1.2655457 23.117001
3.5260491 2.3964729 -1.2652954 20.125999
3.7498434 2.23545 -1.4242375 18.982553
2.6704936 2.6874301 -1.4790725 22.068718
3.0219648 2.5663352 -1.4206182 21.901981
3.3608789 2.5167484 -1.36814 20.739594
3.7643831 2.5658755 -1.3731234 18.681389
4.1851416 2.6419675 -1.4742744 16.928699
1.9589964 2.9114864 -1.2980294 23.1355
2.1664448 2.8849885 -1.2452615 23.134169
2.6328561 2.8366027 -1.3445215 21.132751
3.009367 2.8212874 -1.4505301 19.132833
-0.45050353 0.3692711 -0.8634876 14.511
3.0599394 0.17409973 -1.0369731 4.416667
3.3262172 0.30373278 -0.82257688 5.5
-0.44707176 0.63144493 -0.85501963 17.843666
-0.33419585 0.64352429 -0.93186843 21.37252
3.0890398 0.62293833 -0.92032176 8.7858324
3.3478093 0.61078286 -1.0525198 8.4204588
-0.66199201 1.0280665 -0.92350334 15.733584
3.0349004 0.91711944 -0.98858207 11.563417
3.2869854 1.0734634 -0.98748004 12.558467
3.7976031 1.0393633 -1.0553174 9.6254997
-0.53907061 1.457207 -0.88026166 21.761063
-0.29242247 1.3849872 -0.99447727 19.531143
2.9703519 1.3495951 -0.87033987 15.451416
3.3513036 1.387465 -1.0300739 14.739812
3.8487782 1.2956178 -0.98259276 12.121
-0.58846581 1.6200724 -0.88772351 23.011749
-0.20645361 1.7092682 -0.97236383 22.406651
3.5065317 1.8984256 -1.1977139 18.115499
3.7892737 1.8198285 -0.99069804 16.617001
3.1017613 2.382338 -0.83067369 23.114
3.3549414 2.3597317 -0.83482534 22.115999
3.7448874 2.2551928 -0.99201131 19.75725
2.7349482 2.711442 -1.0271097 22.796333
3.0247076 2.6302128 -1.0169028 21.835678
3.3802581 2.550772 -1.0108036 21.108644
3.7039816 2.5599663 -1.0009401 19.624784
2.2174044 2.8842051 -1.1910301 23.133751
2.5439293 2.9079866 -1.0213053 22.257647
2.9376142 2.9147527 -0.99468994 20.132084
3.3761694 3.0156879 -0.9244163 18.1315
3.8754807 2.9891486 -0.99746442 17.130249
4.2860332 2.8873756 -0.98355097 16.462334
-0.63736117 0.34871086 -0.60223091 9.5607252
3.186425 0.23158705 -0.41191632 5
3.334183 0.27993238 -0.6751678 5.25
-0.93799317 0.65976977 -0.53855467 9.0160627
-0.62428188 0.6420489 -0.57137907 14.156751
-0.3563453 0.69588172 -0.54580081 20.0075
3.0848331 0.66047096 -0.5631597 9.2420387
3.3003371 0.64791775 -0.56798655 9.1436014
-0.92732537 1.0043255 -0.55548799 11.478089
-0.67792928 1.0043836 -0.62473941 14.86485
-0.33305448 0.97177577 -0.71429801 20.5075
3.0835474 0.95808333 -0.56908154 12.216035
3.2362194 0.99332607 -0.59979451 12.214
-0.89146239 1.3951765 -0.48393282 16.931604
-0.65173417 1.3934454 -0.59032792 18.011404
-0.38804454 1.4544146 -0.77794355 23.009501
3.0491922 1.3812897 -0.53794199 16.210268
3.2734003 1.3200589 -0.63596874 14.707862
3.8125055 1.2328385 -0.79750109 11.1245
-0.58834058 1.8029623 -0.52464592 21.077761
-0.33791193 1.7601734 -0.78476042 23.008499
3.0198367 1.7949605 -0.55541748 19.857983
3.4328525 1.8025551 -0.64736891 17.1185
3.7314205 1.9025013 -0.62305748 15.524899
-0.46128869 2.0212593 -0.45184034 22.509501
3.0212169 2.1495948 -0.57814693 22.363251
3.3588009 2.3889108 -0.53047585 22.448668
3.7372363 2.2350779 -0.47759891 18.124001
-0.59604955 2.71538 -0.65842676 21.51
2.7815459 2.7221675 -0.66588378 23.1285
3.0960224 2.648159 -0.6461302 22.126104
3.3767257 2.5654957 -0.61143768 21.672104
3.6648619 2.4907112 -0.65603107 20.208124
-0.46550322 2.997124 -0.4896276 23.009001
2.2831473 3.0270672 -0.61427367 22.933701
2.6316633 2.9871116 -0.58404678 22.04109
2.9823213 2.9359536 -0.59370542 20.630882
3.2322111 2.9012256 -0.40976906 19.129999
3.7626524 2.9377532 -0.64324498 18.12925
2.2625389 3.2056839 -0.47259188 23.134501
2.4287362 3.219167 -0.67981195 22.134501
-0.93611181 0.34526771 -0.16793373 9.6638508
-0.78285271 0.30396035 -0.38272506 8.0174999
2.3796535 0.39438587 -0.0052344799 8.1125002
3.0246487 0.27530453 -0.26911482 5.7777772
3.2409616 0.31658989 -0.39238203 5.5
-0.91633415 0.62844986 -0.1649626 13.559882
-0.67996544 0.65503174 -0.25173277 16.087778
2.7014654 0.63077813 -0.14286393 10.1105
3.0535331 0.63699365 -0.15619603 9.4285212
3.2365921 0.60069585 -0.25787199 8.7097502
-1.295626 1.0576444 -0.14532822 9.0111914
-0.98345 1.0139321 -0.21168059 13.776586
-0.66035992 0.91937041 -0.24437785 18.738907
2.5912821 0.97458261 -0.034964576 14.612625
3.0278635 1.0091069 -0.16085765 12.741996
-1.276414 1.3861747 -0.057663046 13.518885
-0.99161065 1.4016322 -0.19852696 15.173481
-0.78273994 1.4689839 -0.2990891 14.083714
2.7976704 1.4216938 -0.13253886 18.113251
2.9990649 1.3807794 -0.19758552 16.51313
3.2244642 1.2047255 -0.3505792 14.11825
-0.93757343 1.7974494 -0.13942438 18.672264
-0.67847478 1.8591479 -0.30244282 19.393162
-0.33339977 1.7966661 -0.3469919 18.0075
2.9386749 1.7719536 -0.16619207 20.416882
3.5202365 1.9108565 -0.037562609 14.1265
-0.86395216 2.03719 -0.16500573 21.966738
-0.63173878 2.0990942 -0.15327731 20.455418
2.9215384 2.0684626 -0.14626504 22.911686
3.6744082 2.2975931 -0.32181072 19.123501
3.0943725 2.6872661 -0.24511577 22.792582
3.3879738 2.6370447 -0.20755027 21.625057
3.6495879 2.516253 -0.18333721 21.122999
-0.58174121 2.8704445 -0.37203598 22.01
2.3928432 3.1549883 -0.33992171 23.133249
2.5812757 3.0773282 -0.12161744 23.131374
3.0121806 2.9561985 -0.23320109 21.296209
3.3922846 2.8473167 -0.27247277 19.128832
3.668334 2.8319507 -0.19740319 18.62775
-5.6808829 4.0178695 -0.24947095 14.032
-1.2227967 0.35115248 0.33890048 8.6606884
-1.0579334 0.32579875 0.2048384 10.377345
2.3239467 0.18212651 0.07853502 5
2.4419057 0.31356704 0.38718632 6.5
2.9928098 0.31850207 0.022192836 6.25
-1.3114089 0.68433392 0.24553245 9.3789902
-1.022251 0.61416274 0.20207797 14.340856
-0.78871673 0.6819241 0.022858143 14.472549
2.305196 0.55346066 0.25550193 10.173804
2.5980942 0.60077351 0.29048163 9.4343929
2.9365194 0.5978359 0.14584874 8.8187494
-1.6695796 1.0660803 0.3336412 8.7243452
-1.394393 1.0296038 0.22254094 12.129563
-1.0449361 0.96183491 0.17720194 16.475822
-0.755606 0.95458353 0.065067589 21.522938
2.3103878 0.93301821 0.31214875 15.361375
2.69011 1.0171987 0.2463748 12.977087
2.9519553 1.0140655 0.175852 13.246431
-1.6225744 1.3019738 0.32897565 11.357597
-1.3772923 1.4166946 0.22466581 14.183771
-1.1067315 1.3990481 0.12242587 18.193098
2.7016048 1.3945969 0.24791263 16.688749
2.9321361 1.4063725 0.22155702 16.93087
-1.322991 1.7742901 0.26620385 17.083244
-1.0696235 1.8233459 0.13436526 17.973612
-0.72217315 1.9340205 0.069189578 16.76125
2.7294095 1.8466055 0.24748823 21.455891
2.9142218 1.773743 0.21891241 20.575251
-1.3074863 2.0794857 0.32655805 20.519583
-0.97993368 2.1611073 0.21462533 20.978945
-0.68408716 2.1639776 0.098112255 19.874796
2.7889676 2.0559278 0.1948531 23.053249
2.8795519 2.03599 0.065213576 22.688549
3.0452502 2.7916832 0.13253188 23.12575
3.4563062 2.5662043 0.018727303 22.122499
2.7304497 3.011961 0.052768052 22.879875
2.9469707 2.9889736 0.21664079 22.62825
3.234864 2.9179895 0.17732747 21.294085
-1.2470191 0.34716597 0.49705547 8.6459551
-1.1450896 0.32032397 0.53728294 9.3083744
2.2675893 0.33928251 0.63150823 7.7290659
2.4545569 0.33480322 0.5049628 7.709125
-2.0065401 0.79273963 0.78483105 4.8571429
-1.652799 0.56322861 0.55679345 5.5
-1.3163244 0.6317035 0.61671841 11.206964
-1.1088421 0.59242368 0.53611207 13.356808
2.2425244 0.604132 0.62357116 11.23173
2.4910841 0.57997119 0.54909539 10.263667
2.8618751 0.64186084 0.48717251 8.6192503
-1.7740973 1.0543809 0.61120391 10.438272
-1.3903366 1.0003476 0.57159156 15.025342
-1.1118538 0.90703124 0.52796328 18.004549
2.2256174 0.9389683 0.64615005 15.72157
2.6434033 1.0204079 0.55497193 12.545667
2.9135146 1.0718939 0.44266275 13.61425
-1.7484393 1.3900149 0.64692217 13.79165
-1.4732414 1.4165635 0.56614119 18.080984
-1.1737127 1.4150692 0.47482443 20.0235
-0.47275895 1.2196546 0.46167946 17.01
2.2745352 1.3199979 0.715065 19.782084
2.6580548 1.4031522 0.57851464 15.744747
2.8628156 1.506706 0.65290749 18.333984
-1.6848874 1.7544315 0.66462809 17.778463
-1.4630239 1.8340058 0.54762471 18.772326
2.688693 1.7953285 0.59633267 21.032219
2.8546677 1.7471398 0.54554838 20.699049
-1.4394606 2.1902092 0.61730486 22.053522
-1.1335344 2.2120264 0.5257712 22.017679
2.6666939 2.1114738 0.60492527 22.753525
2.8622868 2.0611405 0.50391787 22.116333
-7.4151597 2.6800678 0.64826298 7
2.939806 2.9382279 0.61027867 23.126167
3.2486892 2.8924434 0.45510054 22.125999
-5.4773154 3.8050885 0.67485237 15.035
-4.4383917 3.8106918 0.68016064 18.033501
1.9608946 0.28156677 1.0574167 6.9279175
2.0932755 0.28975433 0.998074 7.5590367
-2.2156224 0.75377685 1.1687462 4
-1.6705598 0.6815064 1.049716 11.191442
-1.4605858 0.63329345 0.9201138 10.446656
1.9425647 0.60690248 1.0960231 10.511003
2.1099515 0.6008094 0.98762095 11.265367
-2.1094065 1.1037916 1.0464411 8.9228487
-1.8088568 1.0195109 1.0146358 13.502798
-1.5208894 0.98406941 0.94327819 15.057509
1.9517115 0.96152627 1.125973 15.951221
2.1238058 0.98559117 0.97288537 16.457632
2.5946629 1.042783 0.8821159 13.540215
-2.0361464 1.3622634 1.0396867 12.688683
-1.8074334 1.3973999 0.99976361 16.627447
-1.4883852 1.2776158 0.93375719 19.826071
1.9226525 1.2820749 1.1300927 19.559727
2.1839974 1.3695331 0.97904217 20.054602
2.5346632 1.4364927 0.98469901 18.77457
-1.7966971 1.7692237 1.0075516 19.711393
-1.5463221 1.8029021 0.91062111 21.27944
2.363719 1.7834556 1.1345794 22.098652
2.5968642 1.8184116 0.94294631 21.116301
-1.6601739 2.1714621 0.94048399 21.935545
-1.4418682 2.1927266 0.88109583 23.023312
2.3923206 2.3251545 1.018137 22.1245
2.5393414 2.1540046 1.001178 21.863232
-6.888186 2.6672184 1.0765579 9.0389996
2.5196228 2.4001274 1.1140397 23.123501
-4.801434 3.7836545 0.89278603 17.035
-4.0509439 3.6571586 1.0574012 19.368
-1.7108263 0.39018774 1.3780044 8.2010832
1.8605264 0.26507899 1.4477273 7.1333871
2.0356517 0.29215246 1.263865 7.4271874
-2.1101954 0.66614664 1.3737323 5.8718452
-1.7861823 0.62418747 1.3936349 10.405683
1.5803825 0.79815483 1.5615451 10.1195
1.8509629 0.59663296 1.422646 11.154592
2.0567319 0.58507663 1.2976367 10.870209
-2.1177561 0.99704534 1.3912631 9.4454775
-1.8265934 1.0077583 1.380376 14.318554
1.595064 0.81470788 1.5146676 10.12
1.8375111 0.97847718 1.414862 15.563365
2.0661123 0.97257334 1.3247021 16.021172
-2.1158633 1.3496106 1.3847432 12.843205
-1.8402997 1.3931403 1.3834717 18.300373
-1.5740715 1.3343859 1.2900718 22.048666
1.857577 1.382131 1.4169754 20.955851
2.1458373 1.3763486 1.3788922 20.220623
2.4367361 1.2739539 1.2363362 18.1015
-2.0545573 1.7475723 1.408703 17.494207
-1.8889391 1.7564383 1.3750362 20.411024
1.6869529 1.6803274 1.586478 22.12075
2.2381978 1.8043892 1.3702018 22.346041
2.5019884 1.7267984 1.3811088 21.878304
-1.8549625 2.1031115 1.4023076 22.464352
2.380403 2.2387798 1.4672372 23.121
2.5021493 2.2363889 1.3515084 22.407286
-6.693953 2.5651662 1.220892 9.0395002
-5.9983273 3.4937336 1.5303566 14.04
-3.9667902 3.6226907 1.5190588 20.037001
1.4739447 0.3268896 1.8862903 7.9963565
1.7458876 0.31598091 1.7759994 7.7894993
-2.0797427 0.70315856 1.7280984 7.9654465
-1.8981448 0.62937719 1.7322596 9.0148668
1.1422776 0.54541773 1.9313411 7.7414994
1.495718 0.59195024 1.8779609 10.313066
1.7037125 0.61473447 1.770323 11.586268
-2.0806212 0.98530179 1.7177922 11.36525
-1.9173547 1.0056664 1.7607961 13.407167
1.5316222 0.96237522 1.8752259 16.224827
1.7244192 0.99228144 1.7648211 16.596493
-2.1014347 1.3940952 1.7597058 15.372807
-1.8727617 1.4164778 1.7297112 17.869802
1.5335312 1.360124 1.8936919 21.815538
1.8035959 1.3517541 1.7956786 20.296274
2.1187534 1.4913573 1.7685926 20.206194
-2.089231 1.8468051 1.7865264 19.677933
-1.9122424 1.7610328 1.7360276 21.363316
1.5191119 1.6493556 1.8932121 23.1175
1.8579391 1.7354722 1.8223339 22.210218
2.0977716 1.765201 1.7281677 21.718168
-6.1060171 2.2854505 1.6430529 9.0410004
-5.960104 2.3703241 1.8066151 9.0415001
-2.6632254 2.1412182 1.8724604 19.042
-2.0327814 2.1257753 1.6912017 22.035875
-1.950603 2.1768994 1.6417327 23.035
1.9046774 2.0182242 1.9488914 23.08975
-5.9501758 2.5052669 1.8329598 10.0415
-5.4214749 2.7620654 1.9198904 12.04175
-4.3013234 3.1846545 1.8602794 18.041834
-5.8410783 3.3659697 1.8596925 14.041333
-5.3904796 3.3605862 1.9079695 15.374833
-4.595057 3.3422956 1.7829142 17.540751
-4.1859779 3.3260787 1.8435311 19.040937
-3.846508 3.3678935 1.758883 21.040501
-6.0644665 3.6524427 1.8353572 14.04
1.0240725 0.35665935 2.2603085 7.5287137
1.3514408 0.28333884 2.2123189 7.3640175
1.6081448 0.30517542 2.1073952 8.5985003
-1.9820487 0.68537194 2.0335505 8.0522499
0.74786919 0.51573777 2.342155 8.0782499
1.0466822 0.58645797 2.260396 10.909586
1.3947502 0.61934209 2.1979303 11.780175
1.6400419 0.62532127 2.0804722 11.696962
-2.922971 1.1438076 2.1045923 8.0459995
-2.6130695 1.031203 2.2158079 9.0489998
-1.9585874 0.82388514 2.0027051 10.052
1.058337 0.96498609 2.3067312 17.98896
1.4188275 0.98193312 2.2135448 17.194555
1.645189 1.0115873 2.1121547 16.810314
-2.2570739 1.3754191 2.2353594 15.051833
1.4172591 1.3284308 2.2145376 22.260237
1.7925824 1.392246 2.1798837 19.11075
-5.9035912 1.7348802 2.1939969 5
-4.591228 1.8359561 2.2146554 8.0424995
-2.1227427 1.8191038 2.0824342 19.849651
-0.33797106 1.6620735 2.2067263 23.068501
1.5706674 1.7385253 2.3191247 22.087835
1.7752398 1.7506196 2.1863203 22.035973
2.0116172 1.7328705 2.1099672 22.093
-5.662714 2.2333944 2.168674 9.0430002
-5.4146881 2.2583778 2.3025138 9.7937498
-2.7472353 2.2640345 2.2062142 19.042
-2.1865466 2.0826066 2.376889 22.053499
1.5019073 2.0769567 2.3781176 23.084875
1.7657949 2.0135157 2.1513233 23.058167
-6.0298934 2.6516972 2.0966363 10.0415
-5.4406886 2.6060596 2.1694486 11.542999
-4.7322803 2.4330919 2.246443 12.0435
-2.8633382 2.7383895 2.2544041 22.547249
-2.6270285 2.6661069 2.0086269 23.048
-5.7710161 2.9429502 2.1594031 13.042999
-5.4938679 2.9566908 2.2352452 12.542125
-4.6634245 2.966378 2.1762309 16.042751
-4.2336235 3.1432171 2.2203484 18.543751
-3.8423841 2.9440644 2.1877518 19.378334
-3.262264 3.0890903 2.3203712 22.045
-2.997736 2.8949854 2.2247915 23.046167
-6.5660882 3.4616766 2.3497729 13.043
-5.3143244 3.3544517 2.2259185 15.4427
-5.0381598 3.2260234 2.3675075 16.043501
-4.4917717 3.377152 2.1744802 17.7915
-4.1875443 3.3638778 2.1887422 19.375389
-3.7814875 3.2958131 2.2273223 20.918001
-6.9478617 4.0526519 2.2756758 14.0415
0.67216659 0.32253596 2.7068338 5.7725
1.0406755 0.32002583 2.593492 7.1650815
1.3423511 0.21686259 2.48544 6.0020332
0.64049011 0.58085847 2.6067758 10.455375
1.0010554 0.6158554 2.611445 11.741808
1.3278441 0.64885914 2.5344987 11.96076
-2.8964524 0.92183065 2.798162 4
-2.5393434 0.8567059 2.4409957 8.0509996
-2.3254437 0.81900984 2.5341065 10.055
0.70092982 0.93737495 2.5962915 18.711973
1.0546141 0.98411298 2.6111836 18.198463
1.3195378 0.97708565 2.5472794 16.740194
-3.7589736 1.5965681 2.7034707 9.0459995
-2.3870869 1.4691639 2.6568837 15.05425
1.0903118 1.2923222 2.6346571 21.932501
1.3306121 1.3259108 2.5595675 21.260504
1.6874148 1.3826462 2.5130074 17.911419
-4.9046369 1.8748192 2.6863716 8.5458746
-4.600955 1.8723645 2.5999832 9.5225
-4.144588 1.6021287 2.6012888 8.0450001
-3.7746036 1.7310244 2.6503768 9.7121668
-2.6809411 1.7490871 2.6385908 15.049
1.184546 1.6448033 2.7419221 23.086
1.4337676 1.8211792 2.6402881 21.801889
1.7136601 1.7078097 2.5897832 20.789965
-5.7529135 2.3638513 2.4278154 9.0430002
-5.3487377 2.2395549 2.556448 9.5442505
-5.0648699 2.274158 2.590872 11.445399
-4.7151995 2.1459465 2.6595669 11.046
-4.0488749 2.3091636 2.709188 13.045
-3.7222414 2.2720656 2.7410293 14.5455
-2.1765902 2.2822833 2.6574528 21.722498
-1.8635467 2.3144009 2.6885884 22.858101
-1.4893701 2.3062253 2.7795291 23.060749
1.1689985 2.1069751 2.7413685 23.081249
1.3469422 2.0896716 2.5219326 23.083252
-5.3446975 2.5177655 2.5828197 11.0441
-4.8237343 2.5537517 2.5382631 12.0435
-4.5933552 2.6691532 2.5384946 13.710167
-4.2554321 2.6308608 2.7045312 15.046
-2.8748167 2.7138412 2.4405823 22.049999
-2.6517642 2.6842394 2.489769 22.717169
-2.2468491 2.5354419 2.6682012 23.054001
-4.8572016 3.0754323 2.6322331 16.04525
-4.6663532 3.0623112 2.6057999 16.712166
-4.1937819 3.1562884 2.6705334 18.294874
-3.8019221 3.0634699 2.589143 19.879835
-3.4699578 2.9165246 2.620743 20.4478
-3.0914223 2.9891791 2.613816 22.658501
-5.3697901 3.4431367 2.5793624 15.542999
-4.9248981 3.2264893 2.5085647 16.54425
-4.7527461 3.2124109 2.6573553 17.045
-4.2198062 3.2890837 2.567627 18.99893
-3.8495646 3.319176 2.5483923 20.669092
-3.547998 3.3396673 2.5931606 22.043499
-6.9810195 3.8602974 2.6413498 14.043667
0.67435515 0.36712986 3.0556457 7.7714248
0.97460324 0.31805867 2.9652555 7.1388173
1.2883132 0.22044924 2.9164407 4.5999999
-4.919013 0.67349142 3.1997294 3
0.33428773 0.56988454 3.0868061 9.741334
0.67669982 0.60235101 3.0003958 11.025464
0.94000894 0.61489439 2.956825 11.422203
1.2795708 0.67472458 2.9796214 9.3155003
-5.2313843 0.87870669 3.1459968 3.5
-3.394012 1.1642644 3.1915715 7
-2.475543 0.94794601 2.8589132 10.055
0.69944799 0.98978585 3.0488472 17.979687
0.96233428 0.99913239 2.9451728 17.460279
1.3450392 1.0565844 2.9916725 13.98948
-4.5056291 1.5953207 3.0143762 8.0480003
-4.1737914 1.5419881 3.1997333 8.0495005
-3.6734149 1.5013113 2.9624484 8.3811674
-3.4457312 1.4908905 3.0981519 9.2165003
0.73094732 1.2773921 3.0683877 22.213293
1.0022049 1.3273709 2.9811444 21.580557
1.3634884 1.4063346 2.9555323 18.365797
-5.0574799 1.7304204 3.0882249 8.0472507
-4.5106688 1.8537139 2.9761329 9.5477505
-4.3204408 1.7816178 3.1193647 9.8488998
-3.6484456 1.6046221 2.9340019 10.049
-3.5026443 1.8668058 3.0451698 11.945766
-2.5790348 1.7634284 3.107563 16.051001
1.0846975 1.8158309 3.0788128 20.292646
1.3401475 1.7589691 2.919925 20.811951
-4.9912953 2.204524 3.0092692 10.8471
-4.5376635 2.2218893 3.0172279 12.160938
-4.2557106 2.1668606 3.0770593 12.2486
-3.6794674 2.1359701 3.0113418 14.048333
-3.4915497 2.1361611 2.953311 14.647301
-2.0246701 2.375756 2.8951743 23.056999
-1.7445875 2.3754232 3.0104275 22.726259
-1.4271379 2.334146 3.0421824 22.561813
-0.98562419 2.3206482 2.9840486 23.064688
-0.60474592 2.3178525 3.1092422 23.0676
-0.20332833 2.2909265 3.1365886 23.070501
0.10381804 2.3075004 3.1233058 23.07275
0.65781438 2.3476696 3.1040435 23.07675
1.065251 2.1888447 2.9687715 22.830374
1.2750694 2.0182004 2.9128349 23.08375
-5.3374491 2.5344205 2.8484383 12.046
-5.1770463 2.4212768 3.0445337 12.047
-4.4963198 2.6602182 3.0248704 14.598187
-4.2303171 2.6046448 3.0711808 15.504333
-3.7518241 2.7278073 3.0506237 18.050001
-3.5041032 2.7145197 3.1038108 18.550249
-2.8077476 2.708066 2.9657238 21.052999
-2.5600793 2.5376804 3.0137861 21.197498
-2.1999826 2.5000384 3.0225739 22.234983
-1.8397583 2.4668958 3.1127694 22.558813
-4.5203137 3.014281 2.8810098 16.713333
-4.166544 2.9991112 3.0602441 17.876333
-3.8003166 3.0509422 2.944113 19.457159
-3.3660116 2.9677348 3.0861146 20.674749
-3.0335732 3.0211475 3.0130589 22.715666
-4.8281822 3.24511 3.0528002 17.047001
-4.7923622 3.2170498 2.8026562 17.046
-4.2002029 3.3157518 3.0119691 19.188463
-3.8621588 3.3324561 2.8704247 21.045
-3.3346379 3.2169845 2.880429 22.712334
-7.4274473 3.9606967 3.1339264 13.545
-7.2319212 4.1901455 3.1640425 15.045
0.34077781 0.24618211 3.5585301 3.6666667
0.62225538 0.30157745 3.3330011 6.1616249
0.92542326 0.19954565 3.4666791 4.5
-4.1649899 0.68869507 3.5003927 4
-3.3022797 0.68072259 3.458118 3.3333333
0.39565223 0.53615999 3.5904803 9.0885
0.55472469 0.60825193 3.3647189 10.550813
1.0113251 0.5866906 3.3742371 8.9055996
-4.6317124 1.1761129 3.4183083 6.5
-3.7426906 0.83989239 3.5516129 3
-2.9170728 1.1366116 3.4696689 8.0547504
-2.5105758 0.9780454 3.4050214 7
0.63642943 1.0007128 3.3521585 16.646042
1.0149256 1.0475763 3.3921757 13.572598
1.2416915 1.0464886 3.282187 13.0825
-4.9632735 1.4389582 3.3370893 7.4995003
-4.5977626 1.4778795 3.4615309 8.3583336
-4.2278032 1.5203034 3.3888412 9.0504999
-3.7938409 1.4250983 3.3788495 8.3294277
-3.3314805 1.4533368 3.4161289 9.5246639
-3.0838037 1.4325082 3.5483418 10.0543
-2.7586536 1.3494108 3.4597435 10.55375
-2.3169112 1.311595 3.5888703 12.05675
0.64030546 1.3549299 3.4104857 21.118664
0.99464774 1.3759831 3.3594303 18.159081
1.2760701 1.4146104 3.2848468 17.583626
-4.8847599 1.67633 3.3684468 8.7747498
-4.5595779 1.8612711 3.3446951 9.5487499
-4.1781721 1.7974033 3.3961275 10.522959
-3.7872472 1.7480575 3.4015143 11.176312
-3.3697031 1.7760147 3.3685522 12.044017
-3.0037315 1.8391118 3.4952288 14.1635
-2.2474365 1.7310462 3.5500739 17.056
0.77709031 1.8773997 3.4769468 22.08
0.95765209 1.7748356 3.4345117 20.987989
1.2983093 1.7874418 3.3195925 22.084499
-4.5204382 2.1202736 3.3871043 11.8
-4.1525741 2.2374852 3.4782448 13.350901
-3.8159027 2.1961489 3.4462492 13.974385
-3.3267195 2.1666458 3.4531515 15.437263
-3.032275 2.1466386 3.4934473 16.387415
-2.6041012 2.3289511 3.3937049 18.931999
-2.2702241 2.3554046 3.4797373 19.55875
-1.8742005 2.3895247 3.460319 20.310625
-1.3955207 2.3784342 3.4085474 21.563
-0.99577111 2.3484387 3.3764343 22.465349
-0.64262611 2.3410954 3.4859853 22.496536
-0.22162813 2.3122454 3.5565457 22.820999
0.094734319 2.273396 3.5472381 23.0735
0.77071589 2.2050662 3.4952147 22.578375
0.93254888 2.2560458 3.3288431 22.579124
-4.803597 2.5938396 3.2235169 14.0485
-4.533493 2.6142862 3.3981011 14.0485
-4.173182 2.5851972 3.3878245 15.350207
-3.8216891 2.5828326 3.4290628 16.440056
-3.3800089 2.6531076 3.3920195 18.20598
-3.0126889 2.6912489 3.4421494 20.39592
-2.6129162 2.6671782 3.4419477 21.362999
-2.2517934 2.5952957 3.4261405 21.4576
-1.8265312 2.471421 3.435329 22.345678
-1.4424405 2.4521675 3.5399938 22.8125
-1.1605511 2.4126854 3.5986302 23.064501
-0.22997254 2.4050708 3.5035741 22.070499
0.56674397 2.4096408 3.3886817 22.57575
-4.4451895 2.8329751 3.4743023 16.049999
-4.1607137 2.9517078 3.4067705 17.313644
-3.8476689 2.9507439 3.3970852 18.466749
-3.3609924 2.9883943 3.3846276 20.596275
-3.020962 2.9211943 3.393364 21.824499
-2.7384615 2.8838921 3.460618 22.720167
-7.2389727 3.5587142 3.3944139 13.046
-3.9370794 3.2804856 3.2136436 20.047001
-7.4075336 3.8522019 3.4262347 13.04575
-7.4643073 4.0884671 3.4202576 14.045
-0.60102618 0.33474272 3.9776433 4
0.3318288 0.26651391 3.921387 5
0.69640607 0.34283638 3.6521809 5.5
0.80103445 0.097265601 3.7277851 3.6666667
-4.5687647 0.55354995 3.956342 3
-3.2555099 0.7939449 3.670001 4
-3.036972 0.6913088 3.7842782 3.875
-2.1669488 0.7989372 3.6513486 6
-1.9037949 0.74346411 3.9036562 6.3333335
0.36425993 0.6854037 3.6946557 11.189126
0.6142379 0.67441964 3.7411809 9.1292372
0.87489623 0.668845 3.6909282 10.054168
-4.1374712 0.93383569 3.7926126 5.0999999
-3.9297423 1.020745 3.9026089 6.4285712
-3.3011787 1.1407579 3.8105245 7.3331003
-3.0187988 1.1654487 3.7610228 7.9238439
-2.6176076 1.1402553 3.9263091 8.8584003
-2.1449108 1.167614 3.7543039 10.809188
-1.8588624 1.1629889 3.9551921 11.888643
0.39712477 1.0908303 3.7998877 17.087
0.64299738 1.0111688 3.7455852 13.260635
0.92731178 1.0255136 3.6816895 13.1403
-4.1574812 1.4521936 3.6871746 8.75
-3.7102153 1.4787949 3.7976644 9.3490829
-3.4172268 1.4295819 3.8012805 9.5043621
-2.9757056 1.4272676 3.8100286 10.371514
-2.7503817 1.444391 3.8985875 11.223938
-2.2097058 1.3752744 3.7331719 12.808249
-1.8910526 1.2912252 3.9246335 13.046125
0.63770765 1.3263919 3.7530317 16.704931
0.90321124 1.46249 3.6663005 17.680851
-4.1696324 1.7793571 3.7311494 10.052
-3.8217614 1.7725273 3.8024881 11.339088
-3.3723631 1.8114799 3.7339029 12.313066
-3.0043633 1.8014314 3.8162544 13.422281
-2.6695669 1.8446896 3.8322875 15.199071
-2.1879642 1.7484348 3.940712 17.059
-0.23229814 1.7676971 3.7678976 23.074499
0.6870634 1.806338 3.7924573 20.245634
0.89827329 1.7791852 3.672631 20.747583
-4.2547164 2.218466 3.7960093 12.766214
-3.7889295 2.2143474 3.7737868 14.219777
-3.4750211 2.2088785 3.825073 14.991251
-3.0007343 2.2132432 3.7811275 16.752289
-2.6698465 2.2479084 3.9132628 17.990168
-2.1104286 2.3236549 3.7762396 18.560314
-1.7758402 2.3689415 3.7458105 19.4785
-1.3913457 2.3773627 3.7588968 19.938875
-1.08955 2.3769383 3.8212073 21.2085
-0.6426841 2.3535581 3.7809601 22.568438
-0.17341368 2.3061287 3.8218727 22.929073
0.23515521 2.3246789 3.8924627 22.074333
0.57752502 2.2889056 3.858489 21.667362
0.81398213 2.2527905 3.7765012 21.828249
-4.5199742 2.645149 3.8306205 14.385167
-4.1115775 2.6265686 3.791322 15.652199
-3.8025551 2.5875635 3.7856727 16.325296
-3.3769774 2.6041009 3.7842457 17.672848
-2.9349566 2.5969479 3.7563169 19.458666
-2.6081822 2.5976684 3.8333273 20.775093
-2.2432637 2.6519623 3.830538 21.808523
-1.7944219 2.4865537 3.7605095 21.51115
-1.3704609 2.4347341 3.7884953 21.349607
-0.97791606 2.4480491 3.8144221 23.066299
-0.6507687 2.4298263 3.9457119 23.06875
-0.17445917 2.4209917 3.7856896 21.178062
0.085234575 2.4151289 3.8267772 21.0725
-3.732543 2.8807271 3.6811483 18.385168
-3.4131393 2.9294221 3.8177259 19.668575
-3.0010264 2.8886654 3.8162193 21.51531
-2.6889079 2.8487637 3.787698 22.255602
-7.3883557 3.5907946 3.6252365 13.0465
-7.5097089 3.8266506 3.7012916 13.0465
-2.8165085 0.37721181 4.2502136 3
-1.3224735 0.39778513 4.3413162 3.3333333
-0.78892285 0.35872993 4.1298656 3.6666667
-3.7632785 0.60907567 4.2957554 3
-3.3573387 0.60963994 4.3469453 4.5
-2.9325614 0.60742474 4.1463804 3.8
-2.5669634 0.63151687 4.2509747 5
-2.2928617 0.60253412 4.3251562 5
-1.4287744 0.48798013 4.1944737 4.5
0.49654683 0.74162835 4.0737023 9.4101667
-4.2810121 1.0130159 4.3416271 7.25
-3.6761684 1.1704412 4.1104765 8.0552502
-3.3678956 0.94268411 4.3785524 6.5
-2.9309044 1.1070807 4.1332731 7.8656359
-2.5998859 1.1282208 4.2732625 8.9488335
-2.2222297 1.0773152 4.2596436 9.0622139
-1.7135606 0.96919346 4.1106892 9.8424168
-1.4675936 0.88699198 4.2467694 9.4839582
0.581173 1.0829288 4.0586748 13.064834
-3.6939583 1.4843906 4.145926 9.2552004
-3.3704717 1.3935931 4.1825581 9.5391798
-2.9697011 1.3710606 4.16504 9.880703
-2.6031163 1.44403 4.1773 11.591816
-2.2941864 1.4767205 4.3148737 12.311375
-1.7031466 1.3454781 4.1647148 14.26425
-1.4647201 1.2468525 4.2199063 14.066585
0.55786216 1.494446 4.1602163 14.182125
-4.5086079 1.9004093 4.2288761 10.0535
-4.3965058 1.7877544 4.3399897 11.0535
-3.7946882 1.7924922 4.1476221 11.041
-3.3976483 1.8346691 4.1786523 12.59445
-2.9565537 1.7843806 4.1417665 13.467667
-2.5849037 1.8486608 4.190866 15.017749
-2.2642951 1.8299441 4.2388568 16.171408
-1.8002366 1.7387629 4.2518282 17.979959
-1.5499291 1.652916 4.3943624 18.066
0.53898108 1.8482018 4.225318 17.923286
1.9666935 1.6186192 4.3804607 19.096001
2.0855305 1.6637658 4.2220535 19.764166
-4.1373043 2.1881561 4.2697458 13.054
-3.8545527 2.0985835 4.1920681 12.715278
-3.3710742 2.2022035 4.1761837 14.78235
-2.9937806 2.1840143 4.1828012 15.715456
-2.5767674 2.1946297 4.1954794 17.388498
-2.1828673 2.2678216 4.1810727 19.226933
-1.8167616 2.2346637 4.2136693 17.97925
-1.3828669 2.3099105 4.1907978 18.564665
-0.98168069 2.3383632 4.1576204 19.890352
-0.59605908 2.3124828 4.1958232 20.194126
-0.21000938 2.3256195 4.2275176 21.000282
0.2378238 2.3107183 4.2257085 20.121523
0.57181412 2.3020077 4.1628079 21.028563
-4.0866585 2.4758549 4.036437 14.55325
-3.7816994 2.5798318 4.1481972 15.854199
-3.3204618 2.5288019 4.2513428 16.806
-2.9729071 2.590147 4.1690426 18.898672
-2.5763052 2.624846 4.2152033 20.283276
-2.2026989 2.6136217 4.1632795 21.375723
-1.8378969 2.5187769 4.1814899 20.59347
-1.4030657 2.4898727 4.1993151 20.973772
-1.0314896 2.4323173 4.1493802 21.6667
-0.46841773 2.4392412 4.0526805 22.403334
-0.37264267 2.4283035 4.2312903 21.070499
-4.1906137 2.9392827 4.0605745 17.0525
-3.2779741 2.8212285 4.0150976 19.05475
-3.0388436 2.8719041 4.2271819 19.856501
-2.7525225 2.8031373 4.1529984 21.223251
-0.45308709 0.22189772 4.7087088 4
-0.3627032 0.10243765 4.6078939 3
-4.0216408 0.62124616 4.6897154 6
-3.8563874 0.70650029 4.6889906 5.5
-3.4961362 0.64516288 4.6699209 5
-2.9721696 0.53970069 4.6053224 3.6666667
-2.583323 0.71969604 4.6173301 5.3499999
-2.207298 0.59848791 4.6836309 5.0799999
-1.904791 0.54266292 4.651052 5.0833335
-1.0871403 0.76478976 4.7245693 9.0719995
-4.0461979 1.0764418 4.5975637 7.7775002
-3.8615391 1.1313139 4.6382847 8.2039165
-2.9211466 1.0777078 4.5499225 7.7165008
-2.5622668 1.0737115 4.5829244 8.5210714
-2.226913 1.1022677 4.5611033 9.2852211
-1.8534935 1.0526855 4.6171618 9.4989223
-1.4312801 1.0895993 4.6392136 11.068251
-4.4002337 1.4237809 4.4299812 8.0544996
-4.1827774 1.440799 4.56001 8.7441998
-3.8161485 1.2654626 4.7016344 8.6676254
-3.4540014 1.2046252 4.7449751 9.0574999
-2.9425638 1.4174887 4.5777607 10.290255
-2.5835667 1.3760427 4.5865898 10.632554
-2.1893895 1.4278039 4.573451 12.185523
-1.7931519 1.4021931 4.6527801 12.790537
-1.445793 1.4705245 4.6767879 15.068046
-4.1509981 1.7754151 4.4907737 11.2437
-3.8166211 1.8370756 4.6811895 11.700549
-3.4704516 1.7860578 4.6710443 11.549393
-2.9815264 1.8194988 4.5778351 12.462705
-2.5895545 1.7991676 4.5758471 13.956382
-2.1567264 1.7982603 4.5895505 15.531487
-1.790391 1.8120105 4.6341815 16.564985
-1.5123703 1.806301 4.6582618 18.066874
-4.146862 2.1362605 4.5581923 12.610625
-3.8204648 2.1890121 4.5880847 13.786059
-3.3875165 2.3114803 4.5984573 15.001551
-3.0268857 2.183923 4.5475531 15.058325
-2.5795937 2.2056229 4.5936866 16.447521
-2.2020373 2.1895101 4.5927291 17.086433
-1.8357017 2.2567554 4.5938053 17.863449
-1.4292085 2.3186905 4.6613998 19.865976
-0.96544993 2.3147762 4.5846939 19.567823
-0.57505655 2.3208687 4.5853715 20.187822
-0.24278212 2.2925208 4.5675244 20.248764
0.18447995 2.2874837 4.5704794 20.917089
0.55979025 2.2462115 4.6905684 20.477325
0.91236144 2.2396023 4.7054048 21.481199
1.2104753 2.180392 4.7651968 22.084499
-3.5834305 2.5032117 4.4700785 16.056
-3.0104163 2.5263588 4.4911013 17.486429
-2.5833819 2.5931723 4.5777674 19.206955
-2.1682973 2.5608704 4.6043205 20.311844
-1.8110949 2.560909 4.6019764 21.013874
-1.4640546 2.5342121 4.6119509 22.399363
-1.0385122 2.4562621 4.6388569 21.168201
-0.67473084 2.4101813 4.6608214 21.070166
-6.8361716 3.198338 4.4240379 13.0495
-2.5761788 2.8003578 4.5843601 21.059999
-3.6255894 0.31886262 4.8556561 4
-3.4060168 0.23448341 5.0431948 3.5999999
-2.5884774 0.35822284 5.0212131 3.5666666
-2.2547939 0.25889015 5.1333766 3.3333333
-1.9466423 0.39908719 5.1793556 4
-1.3954852 0.33698744 5.0254011 4
-0.60314578 0.26442334 4.811142 4
-3.7290144 0.59402722 4.8691216 5.6666665
-3.4405982 0.61204123 5.0655222 5.7777777
-2.8071227 0.51829553 5.1806002 4
-2.6068604 0.67899621 5.0440865 6
-2.2102857 0.67063451 5.0471272 5.6666665
-1.7697811 0.47914469 4.9291 4.7380953
-1.4301863 0.61697781 5.0644674 6.4006667
-0.91349524 0.71081799 5.0533094 7.9240999
-0.74491787 0.69453603 5.1587396 8.0745001
-4.0575528 1.1035467 5.0475006 7
-3.8141382 0.96184456 5.0210867 6.9000001
-3.420752 0.95045567 5.0535345 7.5714288
-3.0205576 0.85176635 5.1737909 6.5
-2.5586798 1.1072351 4.93433 8.7286673
-2.227582 1.0898001 4.9839439 8.8137712
-1.7999172 1.0123775 4.9985161 9.1827993
-1.4330678 1.0352353 5.0299358 9.8465691
-0.98522514 1.0452621 5.0649915 10.934002
-0.71379411 1.1387275 5.1940556 13.075
-4.1064558 1.292199 5.0612979 8.3613329
-3.7667885 1.3182865 4.9496593 8.5716667
-3.3155971 1.4431899 4.9133158 9.8903675
-2.9851835 1.4137977 5.0250106 10.060208
-2.5845675 1.3590995 5.0024738 10.128955
-2.1565106 1.4271553 4.9859796 11.751635
-1.7817764 1.3665683 5.0045381 12.198317
-1.3626474 1.4111983 4.9890103 13.596985
-1.0329676 1.3819768 5.0428858 14.130691
-0.67650896 1.2422279 5.1517677 13.074249
-4.1680703 1.6064335 5.0171165 10.056
-3.7977755 1.7633748 4.9217381 11.445042
-3.3613117 1.8684641 4.9829688 12.43812
-3.0863819 1.852645 5.037354 12.256648
-2.5478995 1.6902041 4.878365 13.051373
-2.2184386 1.8272783 4.9265366 13.854275
-1.79469 1.8123986 4.9991422 15.042988
-1.4340836 1.7905716 4.9655581 16.771852
-1.0138285 1.7802185 5.107429 18.000134
-0.75355369 1.9405609 5.1736479 19.406832
-3.7499309 2.0640292 4.8844223 13.05675
-3.4393656 2.1804175 4.968595 13.780046
-2.9732597 2.2574418 5.0607781 14.608723
-2.5730524 2.2572548 4.9694586 15.869938
-2.1599658 2.2374454 5.0330157 16.293924
-1.7788705 2.2698014 5.028769 17.456448
-1.3747307 2.2183135 4.9869599 18.980022
-1.0360671 2.224261 5.0368524 18.890324
-0.60387212 2.3039579 4.996922 18.87063
-0.20882352 2.284996 5.0114985 19.906885
0.19315845 2.2595949 5.0016131 19.909056
0.5844354 2.2248545 4.9848738 20.178318
1.0162165 2.195519 5.0579233 20.20575
1.3214421 2.198683 5.0240445 22.086876
1.8420311 2.1817675 4.8669634 23.093
-3.7162075 2.5078814 4.9725571 15.057
-2.500668 2.5548513 4.92521 17.861502
-2.1912878 2.5469725 4.9549484 19.634464
-1.7980549 2.527066 4.94032 20.211601
-1.3612704 2.4790578 4.9938293 20.567299
-0.9868843 2.4524238 5.0433917 21.903833
-0.71856844 2.4207134 4.9250145 22.571877
-7.9066091 3.9681807 4.9505234 13.04925
-7.1975126 3.7824674 4.8806376 14.05
-2.8309205 0.20665702 5.450098 3
-2.6522262 0.23727714 5.5466962 3.6666667
-2.0416875 0.36908475 5.2293582 4
-1.8562938 0.39632016 5.3755431 4
-1.3851646 0.24704349 5.4690347 3.3999999
-0.92156744 0.23758171 5.4098549 4
-0.27767923 0.011047825 5.2974215 3
-3.2137806 0.63053554 5.2330761 5.5
-2.979876 0.65405327 5.3629732 5.5999999
-2.5977991 0.53955805 5.4165678 4.6999998
-2.378145 0.49864176 5.5234919 4.5
-1.7127278 0.40977561 5.4681544 4.5
-1.3151382 0.49435392 5.326591 5.3888888
-1.0595436 0.6761027 5.3949094 6.8073611
-0.59250516 0.67900991 5.4362259 7.8597741
-3.6658878 1.1533749 5.3195162 8.0582504
-3.3718748 1.0169069 5.3909173 7.7061667
-2.9537334 0.96919322 5.3479109 7.6666665
-2.621202 1.0932509 5.3829117 7.969583
-2.1649654 0.97756499 5.3678575 8.1435461
-1.7718587 0.99114102 5.459271 8.6053457
-1.3851086 1.0065178 5.3671465 9.2502003
-0.98169827 0.98416835 5.4318171 9.7145662
-0.60333979 1.0049213 5.3942738 11.137767
-0.21628468 0.96465611 5.4525299 11.621657
0.041235983 0.88849628 5.5237017 11.0805
-3.7987719 1.4247898 5.2696767 9.3909998
-3.5009711 1.5725939 5.4791651 10.059
-2.9202411 1.4841427 5.3663697 10.333333
-2.5822432 1.3595967 5.2871847 9.8098001
-2.2303081 1.3469521 5.3639965 10.160611
-1.7600173 1.3725692 5.3614612 11.356214
-1.3904572 1.3672792 5.3752551 12.600781
-1.0328478 1.434198 5.3943572 13.592914
-0.62073809 1.3836863 5.4077148 14.320108
-0.25249922 1.3578773 5.4597015 14.986281
-3.4940097 1.6740782 5.4692183 11.059
-2.9803393 1.8110569 5.3669624 11.915167
-2.5973024 1.911329 5.3206191 12.916367
-2.3068328 1.8425994 5.4454083 12.930687
-1.8530865 1.8572404 5.3686295 14.280445
-1.3730026 1.8174998 5.3688893 14.581549
-0.9698931 1.7909317 5.4295115 15.690233
-0.62580365 1.7950814 5.3547878 17.928045
-0.29956263 1.6425514 5.5284114 16.0765
0.89870387 1.9961884 5.5341463 17.0795
2.5721021 1.9157817 5.4611483 19.09425
-2.9102967 2.1897461 5.3209376 13.873833
-2.5576625 2.1419344 5.4358444 13.801808
-2.2113345 2.278964 5.4567938 15.778071
-1.7455009 2.211544 5.3368492 16.966198
-1.4107188 2.2490714 5.397655 17.359219
-1.0109358 2.1677032 5.3636866 17.421278
-0.55981928 2.2338984 5.4266148 19.293264
-0.19886099 2.2409759 5.3974652 18.725338
0.19548559 2.2138584 5.3908629 18.754623
0.57873523 2.1895237 5.4208822 19.278698
1.01922 2.2002022 5.3821578 21.083916
1.8114192 2.1391146 5.4147096 20.517782
2.3032122 2.0169322 5.4740615 19.759666
-2.0235164 2.6290607 5.3043022 21.065001
-1.7926794 2.5628977 5.3873105 20.941687
-1.3965797 2.4580123 5.5084043 20.06925
-1.0451862 2.4550362 5.4647822 20.848835
-0.75533319 2.4240096 5.4891272 21.073
-0.15928146 -0.018948771 5.9208508 3
0.33230203 -0.11479944 5.9083056 3
-2.4784214 0.28504914 5.6369324 4
-2.1478777 0.26857716 5.7948332 3.75
-1.7390673 0.26323152 5.9108381 3.5999999
-0.66653371 0.18784893 5.8165307 4
-0.23940435 0.14082386 5.7665544 3.6166668
-2.6017923 0.74566245 5.7841444 6
-2.1590455 0.65294981 5.7484193 6
-1.7864795 0.59134412 5.8603292 5.2222219
-1.5866275 0.62962455 5.8928523 5.583333
-0.90124971 0.52550745 5.7167239 6.0666671
-0.63039505 0.66322255 5.8131933 7.2650008
-0.1961094 0.70768201 5.8326778 7.9406877
0.14747481 0.71155697 5.9046803 8.0762501
-3.3093121 1.1043334 5.6323042 8.0600004
-2.9881434 1.0481813 5.7837491 7.6490006
-2.5682795 1.1106381 5.7704325 8.03125
-2.1887546 1.0331109 5.6671004 8.3774996
-1.7247033 0.99598795 5.7595458 8.2224169
-1.373437 1.0053575 5.7753048 8.8505001
-1.0706533 0.96527714 5.7786117 9.2374163
-0.55856562 0.97420275 5.7780037 9.5735502
-0.17308784 0.8807683 5.8440723 9.2417917
0.082030393 0.84864068 5.9329362 9.0767498
-2.4493909 1.3732772 5.6221924 9.5
-2.1692765 1.4449219 5.7194581 9.909833
-1.8027352 1.462389 5.770422 11.021916
-1.4316977 1.453408 5.8729277 10.709
-0.91714996 1.5119359 5.7711992 13.101343
-0.6238001 1.4032872 5.850174 12.430454
-0.067216367 1.4715883 5.7673616 14.578
0.13966528 1.4444625 5.8345909 14.579374
4.2651181 1.5298607 5.9773045 14.098
-3.2553349 1.7107252 5.6076708 11.06
-2.9523888 1.7500507 5.7438507 11.394584
-2.5629134 1.8165749 5.8651228 11.625214
-2.1616426 1.818428 5.7794242 11.875999
-1.8003113 1.8042268 5.7755513 12.415812
-1.409307 1.7959129 5.8017979 12.885722
-0.94084674 1.7843056 5.8094697 14.656148
-0.59709203 1.7779007 5.785872 15.315292
-0.23911059 1.8191129 5.8186398 16.339237
0.53880352 1.9950346 5.7051358 17.077499
1.962021 1.9575175 5.8635836 19.09025
2.2143855 1.9105004 5.7611585 18.425041
2.5986922 1.8584865 5.8115425 17.091833
3.9616075 1.6029291 5.8823967 15.0975
4.0396223 1.6312609 5.709332 15.098249
-2.1977186 2.1258402 5.7272177 13.667945
-1.8256593 2.1712723 5.7746882 14.27289
-1.3795209 2.1757886 5.7601647 14.6505
-1.0194441 2.1846032 5.7807021 15.910046
-0.60799915 2.2319624 5.7763376 17.092299
-0.18677825 2.2093298 5.8078632 17.047527
0.19893897 2.1778767 5.7867455 17.352346
0.59534937 2.1103656 5.8211498 18.41293
0.99632782 2.1179886 5.7821751 19.529232
1.3870058 2.1073689 5.805676 19.975248
1.7283936 2.0633554 5.7823839 19.660143
-1.2056763 2.4918261 5.6439133 20.070499
-0.86578572 2.4364159 5.6889992 19.82225
0.099115014 -0.043972135 6.1278181 3
-2.0927055 0.38026494 6.2723675 4
-1.6390059 0.23412853 6.0432749 3.5
-1.339298 0.24800871 6.1442866 3.7142859
-1.0407562 0.17037958 6.2592955 3.5
-0.56192541 0.037685692 6.181262 3
-0.29163182 0.18643038 6.2026949 4.25
0.17073505 0.16069657 6.3993101 5
-2.5668135 0.7439025 6.0381842 6
-1.2814355 0.57405066 6.055007 5.75
-0.92815143 0.53580195 6.2653399 5.8000002
-0.67368358 0.59310514 6.2195129 5.6666665
-0.24125504 0.64908856 6.2271376 7.538125
0.22972411 0.55894846 6.177628 6.7692499
0.55590779 0.64199543 6.3666677 8.0780001
-1.6709458 0.85905153 6.0221143 7
-1.3895414 0.96252775 6.084507 7.5339999
-0.99468899 1.0049657 6.1591573 8.435813
-0.6131143 0.9260329 6.1627889 8.6829243
-0.15314075 1.0364041 6.2593966 9.403863
0.19103561 0.91922116 6.1481624 9.4273634
0.53607726 0.90266353 6.2547436 10.080167
-2.5946956 1.2052375 6.0008678 8.0629997
-1.6773521 1.5016446 6.1198111 10.425251
-1.3879621 1.4388773 6.1363244 9.8715
-0.9783988 1.4454025 6.2197332 10.205
-0.5437569 1.3876134 6.1559949 11.499763
-0.21291323 1.3769491 6.2012072 12.26173
0.15924902 1.4051991 6.1880569 12.74425
0.54874909 1.4851969 6.236167 14.331375
3.8153157 1.5508633 6.162878 14.846251
4.1608701 1.5087923 6.2304344 14.097
-2.4300263 1.7870929 6.0616055 11.0635
-2.1353459 1.8391733 6.2181597 11.56475
-1.8371092 1.9241816 6.2105465 12.398999
-1.3238479 1.7814022 6.1794448 11.567501
-1.0222707 1.8207165 6.2182169 12.19835
-0.54278308 1.723773 6.1011071 14.353101
-0.19907509 1.8129804 6.2415185 14.928417
0.10896424 1.7945029 6.1735644 14.951969
0.57625842 1.9445757 6.2511239 14.7435
1.0000515 1.9710371 6.3119998 17.797071
1.3786715 1.9222385 6.2469735 17.530001
1.7137718 1.8692772 6.2165375 17.373428
2.0479789 1.8533933 6.0170069 18.09025
2.4966412 1.7813981 6.2496424 16.490799
3.024405 1.7383595 6.2721725 15.5925
-1.6140231 2.0230951 6.0607023 13.066
-1.4329083 2.0542603 6.1739492 13.066999
-0.94867343 2.1502249 6.2361999 14.990687
-0.575755 2.1487799 6.1672053 15.997739
-0.20365439 2.1507134 6.1802325 16.662943
0.19445112 2.1123662 6.1648884 16.838749
0.59677827 2.0755928 6.1530714 16.814102
0.930417 2.071636 6.1186938 18.081917
1.514504 2.0360262 6.076839 19.0875
-1.3875276 2.4440415 6.0259037 20.070499
0.29885715 -0.037425771 6.4946361 2.5
1.4475384 -0.12027076 6.7700462 4
-0.84892726 0.17229094 6.4593606 3.25
-0.58038491 0.1743415 6.5441155 3.25
-0.29956031 0.28281027 6.6919012 4
0.26655865 0.30550706 6.615139 5.4791665
0.5235399 0.20577542 6.5415688 5.5
0.84347177 0.056621194 6.7407589 4
-0.83881199 0.53668475 6.4053764 5
-0.57395869 0.54055882 6.6057434 5.4166665
-0.21091798 0.55442905 6.7569108 5
0.20424612 0.65808535 6.5746026 7.676929
0.63567215 0.74035251 6.554029 8.6799002
0.94874758 0.74659944 6.5822897 9.0812502
-0.91940886 1.0887961 6.4554405 8.0342503
-0.61416906 1.0605931 6.5620818 8.0593338
-0.28770918 1.0023755 6.5369964 9.0602007
0.21646217 0.96084046 6.5556903 9.2110243
0.57816476 1.0319445 6.6073241 9.2767
1.0244709 0.97362751 6.6245689 9.9140005
-1.4110696 1.4491135 6.5928864 10.06775
-0.97045511 1.4052283 6.6420474 9.7845001
-0.54136896 1.4518766 6.6046033 9.7250834
-0.16851392 1.3633058 6.6038284 10.565945
0.21182179 1.3786507 6.5582571 12.462154
0.57805973 1.3655417 6.5850096 11.578151
3.5905166 1.4785972 6.5608902 14.0945
3.6818433 1.5015135 6.4711542 14.095
-1.5568098 1.8755943 6.4174223 12.067
-0.90024316 1.6944847 6.4848795 11.455801
-0.60877734 1.8286222 6.583684 12.998583
-0.19186597 1.7618567 6.5966311 13.215693
0.21854877 1.871555 6.5924358 15.154273
0.59914005 1.9326719 6.5350404 16.970026
1.0312259 1.8885635 6.6072679 16.405882
1.3981545 1.8131008 6.6404772 16.285
2.2325375 1.7513188 6.6676373 15.588333
2.5882728 1.7249225 6.608541 15.590083
2.9236743 1.6457914 6.6623116 15.291699
3.3067276 1.6124438 6.6006293 15.093501
3.6237407 1.6208453 6.4099264 15.095
-1.726643 2.086544 6.57654 13.0665
-0.98830056 2.1246424 6.4948597 13.068501
-0.60032666 2.184752 6.464179 16.0375
-0.20456265 2.0599749 6.5496116 13.3105
0.27161381 2.0158832 6.5937181 15.410001
0.56959939 2.0217023 6.5657873 13.825875
0.86310321 2.0252006 6.5728016 13.076
0.17064115 -0.053457946 6.8998566 3
0.67807001 -0.093985438 6.9005108 3.3333333
0.92355949 -0.091554165 7.0210953 4
1.4824376 -0.2436123 7.0740633 3.5
-0.18960784 0.17905635 6.8629646 3
0.33672699 0.26960301 7.1506119 3.3333333
0.68553859 0.32879347 6.9309473 6
0.97603536 0.19891202 7.0973387 5.416667
1.7648585 0.090051353 7.0162868 5
2.0224411 0.071647316 7.1503096 5
-0.078948684 0.49304885 6.8761215 4.5
0.21958193 0.65532517 6.9389544 7.4878216
0.55866259 0.63466102 6.933744 7.4577837
1.0080498 0.6175772 7.0121012 8.0115948
1.4014953 0.63588518 7.1236472 8.5842495
1.8680974 0.5851627 7.1402841 8.0842495
-0.1299777 1.0087757 6.841774 7.0359998
0.23186359 1.1327586 7.0031471 8.6602001
0.59206653 0.9639039 6.9459419 9.47575
0.99236286 0.94792485 7.0234356 9.3023338
1.7315922 0.97151524 7.0481749 10.08375
-0.91102594 1.489385 6.974391 10.06975
-0.43330926 1.2449868 6.8026857 8.0705004
-0.16640395 1.499626 6.9220352 9.3811665
0.22087808 1.5047939 7.0847154 10.03675
0.46325362 1.2434275 7.1822362 9.0760002
1.0320088 1.2380226 7.0322371 13.084
1.3981645 1.4277346 6.9957666 13.229417
1.7726043 1.2667072 7.0958915 11.83375
3.3994908 1.4427565 7.0234122 14.092751
-0.16237488 1.7639118 6.9373121 11.8729
0.25588793 1.8432133 7.0235901 13.7621
0.61954147 1.8555988 6.9667339 14.194251
1.063826 1.8110746 6.9886146 15.249082
1.4093935 1.7741148 7.0509295 14.934714
1.8135166 1.7172079 7.0125642 14.83541
2.1629224 1.6928749 6.9880433 14.887601
2.5927229 1.6113589 6.9442458 15.09025
-0.15204091 2.1030033 6.8284531 12.0715
0.20944291 2.0918202 6.9269714 12
0.53434974 2.0878918 7.0783958 12.037001
0.57494128 -0.086082295 7.2933183 2
1.3873382 -0.22574657 7.3346338 3.3333333
0.62153894 0.1322087 7.4382091 5.5
1.3158455 0.20496793 7.3301067 5.75
1.6433206 0.3124449 7.512393 6.5
-0.3241857 0.47605652 7.3281765 5
0.14886326 0.69994289 7.2589531 6
0.7594744 0.4320516 7.2046347 8.0830002
0.97386742 0.4913328 7.3359723 8.4169998
1.3922224 0.59515554 7.4697089 8.3896666
1.7051842 0.52451116 7.387342 7.9060712
0.30977997 1.0927393 7.2102404 7
0.60203028 1.1703255 7.2499847 9.0764999
1.0046589 0.99960417 7.3145795 9.0785007
1.3902019 1.0300745 7.3953667 10.467
2.2459764 1.1128521 7.2646809 12.0885
0.75067443 1.2307749 7.294301 9.5769997
1.1955752 1.5219891 7.2370291 13.083
1.4245672 1.5289625 7.3862882 12.749833
1.7955463 1.5234351 7.4023128 14.0865
2.0946939 1.519462 7.2683682 14.421166
3.0542738 1.411306 7.4705663 13.09075
-0.086999796 1.9959465 7.3390589 12.0725
0.2050478 1.909008 7.4371047 11.740166
0.57084078 1.8015575 7.321599 13.434875
1.0216109 1.7621253 7.4073644 14.510714
1.2251344 1.67398 7.4211659 14.0835
1.745593 1.6327473 7.3999982 15.08625
0.057340004 2.0000136 7.4231672 12.073
1.2012188 -0.33058351 7.6891651 4
1.4575295 0.47733691 7.6868153 8.4184999
1.9484974 0.44109207 7.6278372 8.0869999
0.74267876 1.0711303 7.7320213 10.0795
2.0303624 1.0355234 7.8497257 10.0855
1.0677508 1.4657151 7.7894249 12.749001
2.8810639 1.4008882 7.7139335 13.08975
0.95264053 1.7290257 7.7330451 14.415668
1.208891 1.7554454 7.6253977 13.5
4.2335234 1.0891597 8.2787666 11.0925
4.7239065 0.98692703 8.3771992 11.0935
4.9363222 0.94101578 8.3974552 11.094
1.297915 1.4908499 8.0579586 11.0795
2.8039856 1.3944757 8.0299683 13.089
1.3277187 1.6818706 8.1064291 12.0795
5.5278425 0.74423331 8.7633314 10.0945
6.3312564 0.57138783 8.7827215 9.0959997
4.289669 0.98768109 8.6543703 11.092
0.90685689 1.6485972 8.5272894 12.0795
6.7448425 0.49615639 8.8925066 9.0965004
7.3769259 0.44459036 8.8527699 9.0974998
6.2118216 0.44198215 9.5762262 9.0944996
1.0268234 2.0556822 9.4827538 13.08
1.0780206 2.4984586 9.3892069 15.08
4.6433544 0.65083981 9.8749809 9.0909996
5.0162573 0.58774805 9.9192705 9.0917501
5.3277984 0.53180265 9.828063 9.0924997
